# .PCD v0.7 - Point Cloud Data file format
VERSION 0.7
FIELDS x y z intensity
SIZE 4 4 4 4
TYPE F F F F
COUNT 1 1 1 1
WIDTH 753
HEIGHT 1
VIEWPOINT 0 0 0 1 0 0 0
POINTS 753
DATA ascii
2.2919953 0.34049642 -0.20272426 5
2.2950833 0.3331807 -0.20289856 5
2.2961755 0.32556745 -0.20289856 5
2.2992718 0.31782362 -0.20307288 5
2.2885196 0.30820069 -0.20202701 5
2.2816796 0.29917368 -0.20132977 5
2.3170669 0.30299103 -0.12246615 6
2.2946193 0.2923201 -0.20237562 5
2.3002789 0.29263201 -0.1215241 6
2.2916713 0.28381824 -0.20202701 5
2.3092649 0.28517878 -0.1219428 6
2.2926481 0.27581757 -0.20202701 5
2.304297 0.27640197 -0.12162878 6
2.285681 0.26688814 -0.20132977 5
2.3052008 0.26875958 -0.12162878 6
2.276655 0.258185 -0.20045821 5
2.3100941 0.26116049 -0.12183812 6
2.285464 0.25110728 -0.20115545 5
2.2990794 0.25178999 -0.12121009 6
2.2922704 0.24375942 -0.20167838 5
2.3039167 0.24418466 -0.12141944 6
2.3366418 0.24682836 -0.041013155 7
2.3010352 0.23657088 -0.20237562 5
2.3007812 0.23573434 -0.12121009 6
2.3195846 0.2368428 -0.040699009 7
2.2834997 0.22711867 -0.28176194 4
2.2859857 0.22696303 -0.20098113 5
2.3055651 0.22809431 -0.12141944 6
2.3123977 0.22836275 -0.040559392 7
2.2842402 0.21954553 -0.28176194 4
2.2827976 0.21860163 -0.20063251 5
2.3102851 0.22082809 -0.12162878 6
2.3131807 0.22028898 -0.040559392 7
2.2928996 0.21230218 -0.2827369 4
2.2914824 0.21136542 -0.20132977 5
2.2991087 0.21166311 -0.12100074 6
2.3219004 0.21294521 -0.040699009 7
2.2817631 0.20323984 -0.28127447 4
2.2822833 0.2024844 -0.20045821 5
2.2998691 0.20323555 -0.12100074 6
2.3246217 0.20501404 -0.040733919 7
2.2646916 0.1933561 -0.27908084 4
2.2929022 0.19536161 -0.20132977 5
2.2965846 0.19486792 -0.1207914 6
2.3094168 0.19514599 -0.040454678 7
2.3256633 0.19284032 0.040733919 8
2.2732666 0.1860991 -0.28005576 4
2.2796698 0.18622169 -0.20010957 5
2.3052135 0.18749723 -0.12121009 6
2.3080909 0.18692143 -0.040419776 7
2.3183486 0.18408731 0.040594298 8
2.2778602 0.17847228 -0.28054324 4
2.2723606 0.17764129 -0.19941233 5
2.3098364 0.17976089 -0.12141944 6
2.316673 0.17988509 -0.040559392 7
2.3129647 0.17594272 0.040489584 8
2.2863579 0.17151099 -0.28151822 4
2.2809143 0.17030314 -0.20010957 5
2.2944858 0.17091268 -0.12058206 6
2.3252633 0.17238915 -0.040699009 7
2.3195481 0.16830142 0.040594298 8
2.2730823 0.16253737 -0.27981204 4
2.2854414 0.16302131 -0.20045821 5
2.2910841 0.16261896 -0.12037271 6
2.3258221 0.16467781 -0.040699009 7
2.3240833 0.16088636 0.040664107 8
2.2617259 0.15418902 -0.27834961 4
2.2899721 0.15531166 -0.20080683 5
2.2995815 0.15556023 -0.1207914 6
2.3144119 0.15575196 -0.040489584 7
2.3267055 0.15168515 0.040699009 8
2.2722063 0.1461411 -0.27956831 4
2.2786214 0.1457551 -0.19976096 5
2.3001873 0.14632843 -0.1207914 6
2.3070099 0.14635822 -0.040349964 7
2.3172166 0.14335068 0.040524486 8
2.2766411 0.13884751 -0.28005576 4
2.2711372 0.13771512 -0.19906372 5
2.3046472 0.13893968 -0.12100074 6
2.3174632 0.1393064 -0.040524486 7
2.3136866 0.13543248 0.040454678 8
2.3587682 0.13724522 0.12382689 9
2.2751298 0.13078517 -0.27981204 4
2.2716041 0.129787 -0.19906372 5
2.2971191 0.13084258 -0.12058206 6
2.3159389 0.13110358 -0.040489584 7
2.3181386 0.12757453 0.040524486 8
2.3353014 0.12770148 0.12257081 9
2.2703316 0.12295654 -0.36011216 3
2.2656617 0.12230705 -0.27859333 4
2.2839806 0.12249645 -0.20010957 5
2.2896054 0.12199776 -0.12016336 6
2.3203764 0.12323012 -0.040559392 7
2.3225849 0.11928292 0.040594298 8
2.3257596 0.11904012 0.12204745 9
2.2865295 0.11583085 -0.36261514 3
2.2660947 0.11400267 -0.27859333 4
2.2903638 0.11482288 -0.20063251 5
2.2940073 0.11420281 -0.12037271 6
2.3128035 0.11473392 -0.040419776 7
2.3269625 0.11177154 0.040664107 8
2.3321462 0.11120575 0.12236147 9
2.2790086 0.10787467 -0.36136368 3
2.2644777 0.10639363 -0.27834961 4
2.2788093 0.10627092 -0.19958666 5
2.3023536 0.10696511 -0.1207914 6
2.3091943 0.10647629 -0.040349964 7
2.315352 0.10311601 0.040454678 8
2.338506 0.10332823 0.12267549 9
2.253716 0.098793566 -0.35729638 3
2.2767341 0.099007472 -0.27981204 4
2.2712042 0.097971678 -0.1988894 5
2.3027129 0.098929323 -0.1207914 6
2.3075542 0.098329306 -0.040315062 7
2.3077059 0.094704702 0.040315062 8
2.3448393 0.095408782 0.12298951 9
2.2540629 0.090533122 -0.35729638 3
2.281033 0.09121763 -0.28029951 4
2.2775049 0.090280324 -0.19941233 5
2.2950773 0.090173468 -0.12037271 6
2.3138781 0.090508811 -0.040419776 7
2.3140326 0.08647044 0.040419776 8
2.3292062 0.086222209 0.12215213 9
2.2543652 0.082663819 -0.35729638 3
2.2654819 0.082280725 -0.27834961 4
2.2778063 0.082329191 -0.19941233 5
2.287394 0.081877388 -0.11995402 6
2.3221881 0.082310155 -0.040559392 7
2.3203158 0.078594893 0.040524486 8
2.3255007 0.077957898 0.1219428 9
2.2605629 0.074989997 -0.35823497 3
2.2617874 0.07424137 -0.27786213 4
2.2820625 0.074507095 -0.19976096 5
2.295651 0.074149705 -0.12037271 6
2.3144665 0.073948763 -0.040419776 7
2.3225749 0.070556216 0.040559392 8
2.3337317 0.070487484 0.12236147 9
2.3539555 0.07027594 0.20603617 10
2.2627852 0.067158855 -0.35854784 3
2.2679851 0.066520862 -0.27859333 4
2.2743425 0.066310056 -0.19906372 5
2.2919028 0.066020302 -0.12016336 6
2.3027055 0.065930381 -0.040210344 7
2.3167989 0.062690973 0.040454678 8
2.3359601 0.062393513 0.12246615 9
2.3362615 0.061585531 0.20446737 10
2.2550969 0.059445973 -0.35729638 3
2.2721622 0.0591022 -0.27908084 4
2.266593 0.058165666 -0.19836646 5
2.3000956 0.058623731 -0.12058206 6
2.3149161 0.05819295 -0.040419776 7
2.3090072 0.05441549 0.040315062 8
2.3401475 0.054739613 0.12267549 9
2.336453 0.053838339 0.20446737 10
2.2473912 0.051392611 -0.35604486 3
2.276324 0.051260374 -0.27956831 4
2.2787249 0.050915465 -0.19941233 5
2.2883055 0.050331507 -0.11995402 6
2.3150964 0.050515447 -0.040419776 7
2.3171721 0.04691954 0.040454678 8
2.3283432 0.046332709 0.12204745 9
2.3445945 0.045837421 0.20516461 10
2.2514997 0.044017389 -0.35667065 3
2.2685423 0.04355846 -0.27859333 4
2.2749047 0.042886294 -0.19906372 5
2.284466 0.042667709 -0.11974468 6
2.3232563 0.042581007 -0.040559392 7
2.3173215 0.038831297 0.040454678 8
2.3205028 0.038074423 0.12162878 9
2.3447335 0.038062677 0.20516461 10
2.2575645 0.036253545 -0.35760921 3
2.2647109 0.035576537 -0.27810585 4
2.2830091 0.035066925 -0.19976096 5
2.2925889 0.03481387 -0.12016336 6
2.3073947 0.034233134 -0.040280156 7
2.3174431 0.030741485 0.040454678 8
2.3306072 0.030103594 0.12215213 9
2.340873 0.029417874 0.204816 10
2.2616329 0.028028373 -0.35823497 3
2.276731 0.027816998 -0.27956831 4
2.2711642 0.026957212 -0.19871511 5
2.2966957 0.026457399 -0.12037271 6
2.2995019 0.026088359 -0.040140536 7
2.3115413 0.022190347 0.040349964 8
2.3326952 0.021986274 0.12225681 9
2.3290074 0.021138519 0.20377012 10
2.2478895 0.02000994 -0.35604486 3
2.2609375 0.019336859 -0.27761838 4
2.2692521 0.019011907 -0.19854078 5
2.3047626 0.018504899 -0.1207914 6
2.3075776 0.01812475 -0.040280156 7
2.3076031 0.014500212 0.040280156 8
2.3367522 0.013866599 0.12246615 9
2.3350441 0.013041401 0.20429306 10
2.2420177 0.012521842 -0.35510629 3
2.3681805 0.012813158 0.29078028 11
2.2649593 0.011860456 -0.27810585 4
2.271297 0.011099757 -0.19871511 5
2.2888336 0.010787086 -0.11995402 6
2.3076267 0.010069075 -0.040280156 7
2.3136387 0.0064612236 0.04038487 8
2.3287961 0.0060960129 0.12204745 9
2.2459564 0.0054882653 -0.436571 2
2.3370671 0.0053030322 0.20446737 10
2.2578506 0.004728158 -0.35760921 3
2.3404195 0.0044937241 0.28736794 11
2.2590315 0.0039432026 -0.27737463 4
2.275306 0.0035734321 -0.19906372 5
2.2808683 0.0027871283 -0.11953534 6
2.3196456 0.0024285759 -0.040489584 7
2.309648 -0.001209329 0.040315062 8
2.3228118 -0.0020270359 0.12173345 9
2.2341824 -0.0023396309 -0.43428129 2
2.3450406 -0.002865009 0.20516461 10
2.2618048 -0.0027633172 -0.35823497 3
2.3483622 -0.0032789339 0.28834289 11
2.2649875 -0.0035578366 -0.27810585 4
2.2812817 -0.0043797521 -0.19958666 5
2.2928483 -0.0048021367 -0.12016336 6
2.3076417 -0.0056386441 -0.040280156 7
2.3216243 -0.010130061 0.040524486 8
2.3267829 -0.010558679 0.1219428 9
2.2223794 -0.010472793 -0.43199161 2
2.3350527 -0.011411311 0.20429306 10
2.2598023 -0.011437984 -0.35792211 3
2.3542874 -0.012327132 0.28907412 11
2.2689271 -0.012276198 -0.27859333 4
2.2712886 -0.012685401 -0.19871511 5
2.2928131 -0.013605986 -0.12016336 6
2.299607 -0.014047674 -0.040140536 7
2.3155792 -0.017782722 0.040419776 8
2.3267319 -0.0186806 0.1219428 9
2.2262557 -0.018262489 -0.43275481 2
2.3270292 -0.019495331 0.20359582 10
2.2518506 -0.018865502 -0.35667065 3
2.3582034 -0.020168113 0.2895616 11
2.2748291 -0.019852132 -0.27932456 4
2.2672458 -0.020577434 -0.19836646 5
2.2927551 -0.021209151 -0.12016336 6
2.3075423 -0.022151498 -0.040280156 7
2.3075047 -0.025776148 0.040280156 8
2.3326485 -0.026464194 0.12225681 9
2.2340353 -0.025735375 -0.43428129 2
2.3309364 -0.027258525 0.20394444 10
2.2458451 -0.02665548 -0.35573202 3
2.3481941 -0.028280132 0.28834289 11
2.2648213 -0.027671389 -0.27810585 4
2.2711499 -0.028145159 -0.19871511 5
2.2886732 -0.02916134 -0.11995402 6
2.3114552 -0.02985511 -0.040349964 7
2.3034074 -0.033370033 0.040210344 8
2.3285477 -0.034547236 0.12204745 9
2.2300057 -0.033474524 -0.43351805 2
2.3348114 -0.03545535 0.20429306 10
2.2556202 -0.034252793 -0.35729638 3
2.3341932 -0.035853453 0.28663671 11
2.2587626 -0.035089154 -0.27737463 4
2.2750218 -0.036136065 -0.19906372 5
2.280576 -0.03662242 -0.11953534 6
2.3113368 -0.037923414 -0.040349964 7
2.321264 -0.042138875 0.040524486 8
2.3224151 -0.042970713 0.12173345 9
2.2338011 -0.041331127 -0.43428129 2
2.3366656 -0.043642353 0.20446737 10
2.2574546 -0.042557057 -0.35760921 3
2.3499238 -0.044710554 0.28858662 11
2.2685423 -0.04355824 -0.27859333 4
2.3759325 -0.046035063 0.37638137 12
2.2788658 -0.044154342 -0.19941233 5
2.2884138 -0.045138452 -0.11995402 6
2.307184 -0.04631437 -0.040280156 7
2.3211029 -0.050241344 0.040524486 8
2.3242474 -0.051121108 0.12183812 9
2.2218666 -0.048869275 -0.43199161 2
2.336499 -0.051798575 0.20446737 10
2.263217 -0.050569162 -0.35854784 3
2.3517382 -0.052957743 0.28883037 11
2.2525001 -0.051116373 -0.27664346 4
2.3441596 -0.053605765 0.37137547 12
2.2667465 -0.051835503 -0.19836646 5
2.2922356 -0.053218946 -0.12016336 6
2.295013 -0.054084983 -0.040070724 7
2.3109179 -0.058091931 0.040349964 8
2.3360345 -0.059539266 0.12246615 9
2.2216825 -0.05662474 -0.43199161 2
2.3323205 -0.059851933 0.20411874 10
2.2511785 -0.058162842 -0.35667065 3
2.3574922 -0.061321367 0.2895616 11
2.268183 -0.059394464 -0.27859333 4
2.3498821 -0.061944243 0.37231407 12
2.2645605 -0.05969511 -0.19819216 5
2.3000224 -0.06143333 -0.12058206 6
2.3008075 -0.062258016 -0.040175438 7
2.3027055 -0.065929271 0.040210344 8
2.3278267 -0.067461759 0.12204745 9
2.2234337 -0.064436384 -0.4323732 2
2.328114 -0.067876749 0.20377012 10
2.2450378 -0.065846823 -0.35573202 3
2.3453584 -0.069198906 0.28809914 11
2.2719305 -0.067429319 -0.27908084 4
2.3536005 -0.070264369 0.3729398 12
2.2723041 -0.06783735 -0.1988894 5
2.2878156 -0.069099754 -0.11995402 6
2.3085711 -0.070533223 -0.040315062 7
2.3104558 -0.074223623 0.040349964 8
2.3275769 -0.075586975 0.12204745 9
2.2290819 -0.072388396 -0.43351805 2
2.3398111 -0.076393075 0.204816 10
2.2487431 -0.073812678 -0.35635775 3
2.3411348 -0.077254385 0.28761166 11
2.2657292 -0.075161986 -0.27834961 4
2.3632123 -0.07880874 0.37450415 12
2.2740448 -0.075835161 -0.19906372 5
2.2795761 -0.076816238 -0.11953534 6
2.3103092 -0.078659251 -0.040349964 7
2.3101828 -0.082288176 0.040349964 8
2.323307 -0.083567694 0.12183812 9
2.2248917 -0.080027759 -0.43275481 2
2.3335569 -0.084344178 0.20429306 10
2.2583423 -0.08202029 -0.35792211 3
2.3448181 -0.085570782 0.28809914 11
2.2595017 -0.082852162 -0.27761838 4
2.3491046 -0.086548306 0.37231407 12
2.2757571 -0.083845951 -0.19923802 5
2.2832856 -0.084921442 -0.11974468 6
2.3020275 -0.086423174 -0.040210344 7
2.3138781 -0.090508051 0.040419776 8
2.3269925 -0.091834553 0.12204745 9
2.2206752 -0.087638751 -0.43199161 2
2.3292663 -0.092331454 0.20394444 10
2.2580421 -0.089902878 -0.35792211 3
2.3504558 -0.093993172 0.28883037 11
2.2671325 -0.09105745 -0.27859333 4
2.3448405 -0.094588436 0.37168834 12
2.2694783 -0.091548406 -0.19871511 5
2.2949491 -0.093378268 -0.12037271 6
2.2977159 -0.094294243 -0.040140536 7
2.309552 -0.098414168 0.040349964 8
2.3226671 -0.099785261 0.12183812 9
2.2282016 -0.095726885 -0.43351805 2
2.3269393 -0.10037569 0.20377012 10
2.2498205 -0.09744247 -0.35667065 3
2.3441637 -0.10193849 0.28809914 11
2.2608516 -0.098710909 -0.27786213 4
2.3484433 -0.10294591 0.37231407 12
2.2631736 -0.099208049 -0.19819216 5
2.3948154 -0.10539746 0.46595559 13
2.2946091 -0.10138857 -0.12037271 6
2.3033657 -0.10258108 -0.040245246 7
2.3012042 -0.10610697 0.040210344 8
2.3243001 -0.10798497 0.1219428 9
2.227854 -0.10350418 -0.43351805 2
2.3245847 -0.1084048 0.20359582 10
2.2415738 -0.10492574 -0.35541913 3
2.339828 -0.10993421 0.28761166 11
2.262476 -0.10669566 -0.27810585 4
2.3480694 -0.11114289 0.37231407 12
2.2707739 -0.1074842 -0.1988894 5
2.4003162 -0.11403579 0.46710047 13
2.2822711 -0.10882686 -0.11974468 6
2.3069885 -0.1108126 -0.040315062 7
2.3088088 -0.11453534 0.040349964 8
2.3259034 -0.11619728 0.12204745 9
2.239244 -0.11186796 -0.43580776 2
2.3401113 -0.11731652 0.2049903 10
2.2411938 -0.11274966 -0.35541913 3
2.3374472 -0.11800095 0.28736794 11
2.2561421 -0.11429123 -0.27737463 4
2.3555586 -0.11973961 0.37356552 12
2.270385 -0.11541001 -0.1988894 5
2.2699096 -0.11618026 -0.11911664 6
2.3045907 -0.11876191 -0.040280156 7
2.3063979 -0.12248785 0.040315062 8
2.2067413 -0.11758153 -0.510189 1
2.3095286 -0.12346257 0.12121009 9
2.2192352 -0.11863568 -0.43199161 2
2.3317294 -0.12505752 0.20429306 10
2.2447314 -0.12078446 -0.35604486 3
2.3390033 -0.12626646 0.28761166 11
2.2557294 -0.12216593 -0.27737463 4
2.3472364 -0.12753265 0.37231407 12
2.2779262 -0.12376681 -0.19958666 5
2.281456 -0.12475733 -0.11974468 6
2.3001685 -0.12658593 -0.040210344 7
2.3159389 -0.13110304 0.040489584 8
2.2199366 -0.12605713 -0.51333827 1
2.3250353 -0.13243218 0.12204745 9
2.2109673 -0.12593496 -0.4304651 2
2.3253112 -0.13285504 0.20377012 10
2.2502124 -0.12895837 -0.35698348 3
2.3464756 -0.13488603 0.28858662 11
2.2572711 -0.13015342 -0.27761838 4
2.3388886 -0.13526905 0.37106261 12
2.2655458 -0.13102728 -0.19854078 5
2.2889819 -0.13318439 -0.12016336 6
2.2997127 -0.13461424 -0.040210344 7
2.3054867 -0.13858642 0.040315062 8
2.2155926 -0.13357083 -0.51243848 1
2.324559 -0.14054728 0.12204745 9
2.2203126 -0.13424432 -0.4323732 2
2.3228445 -0.14085051 0.20359582 10
2.2438335 -0.13645257 -0.35604486 3
2.3539162 -0.14355931 0.2895616 11
2.2627473 -0.13839556 -0.27834961 4
2.344317 -0.14379527 0.3720012 12
2.2571204 -0.13844681 -0.19784354 5
2.2924902 -0.14141957 -0.12037271 6
2.2992289 -0.14264092 -0.040210344 7
2.2950108 -0.14599846 0.040140536 8
2.2092783 -0.14093171 -0.51108879 1
2.3280408 -0.14891563 0.12225681 9
2.2198305 -0.14199384 -0.4323732 2
2.3283036 -0.14934047 0.20411874 10
2.2354584 -0.14377703 -0.3547934 3
2.3434958 -0.15113635 0.28834289 11
2.2662122 -0.14654936 -0.27883708 4
2.351686 -0.15248887 0.37325269 12
2.2685523 -0.14709829 -0.1988894 5
2.2840104 -0.14890127 -0.11995402 6
2.3066986 -0.15118901 -0.040349964 7
2.3004725 -0.15441039 0.040245246 8
2.2087731 -0.14864269 -0.51108879 1
2.3195632 -0.15609847 0.12183812 9
2.2251978 -0.15013814 -0.43351805 2
2.3357196 -0.15800475 0.204816 10
2.2428262 -0.15211403 -0.35604486 3
2.3290904 -0.15837306 0.28663671 11
2.2557843 -0.15378395 -0.27761838 4
2.3590505 -0.16082393 0.37450415 12
2.2759759 -0.15555955 -0.19958666 5
2.2755065 -0.1563255 -0.11953534 6
2.3021946 -0.15856266 -0.040280156 7
2.3139112 -0.16302197 0.040489584 8
2.210212 -0.15610373 -0.51153868 1
2.3190041 -0.16419427 0.12183812 9
2.2129102 -0.15707061 -0.43122834 2
2.337141 -0.16629837 0.2049903 10
2.2482207 -0.15997128 -0.35698348 3
2.3384528 -0.16680193 0.28785542 11
2.251302 -0.16098037 -0.27713093 4
2.3525636 -0.16863385 0.37356552 12
2.2714446 -0.16321765 -0.19923802 5
2.282944 -0.16444448 -0.11995402 6
2.2916546 -0.16587603 -0.04010563 7
2.3113337 -0.17095053 0.040454678 8
2.3184168 -0.17228812 0.12183812 9
2.2104194 -0.16426253 -0.43084675 2
2.3246555 -0.1731597 0.20394444 10
2.2476485 -0.16781805 -0.35698348 3
2.3457744 -0.17555621 0.28883037 11
2.2546854 -0.1691349 -0.27761838 4
2.338172 -0.17580804 0.37137547 12
2.2689042 -0.17059976 -0.19906372 5
2.286339 -0.17271331 -0.12016336 6
2.2930558 -0.17402571 -0.040140536 7
2.3067355 -0.17870863 0.04038487 8
2.3297489 -0.18130966 0.12246615 9
2.2294056 -0.17350058 -0.43466291 2
2.3220503 -0.18111828 0.20377012 10
2.2431104 -0.1753549 -0.35635775 3
2.3510845 -0.18420862 0.2895616 11
2.258039 -0.177315 -0.27810585 4
2.3473904 -0.18474364 0.3729398 12
2.2583637 -0.17773709 -0.19819216 5
2.2897046 -0.18100789 -0.12037271 6
2.3004079 -0.18266204 -0.040280156 7
2.3001182 -0.1862753 0.040280156 8
2.3330829 -0.18976472 0.12267549 9
2.2268298 -0.18112247 -0.43428129 2
2.3293474 -0.18987013 0.20446737 10
2.2346096 -0.18254045 -0.35510629 3
2.3345995 -0.19111858 0.28761166 11
2.2593851 -0.18535827 -0.27834961 4
2.3506689 -0.19326016 0.37356552 12
2.2656395 -0.18666759 -0.1988894 5
2.2850776 -0.18867062 -0.12016336 6
2.3037419 -0.19102134 -0.040349964 7
2.3014467 -0.19447145 0.040315062 8
2.3204656 -0.19689436 0.12204745 9
2.2339759 -0.18994829 -0.43580776 2
2.330621 -0.19857547 0.20464167 10
2.2437665 -0.19156972 -0.35667065 3
2.3339179 -0.19926672 0.28761166 11
2.2508125 -0.19256699 -0.27737463 4
2.3539162 -0.20180181 0.37419128 12
2.2689443 -0.19491604 -0.19923802 5
2.2724319 -0.19601476 -0.11953534 6
2.3030612 -0.19906174 -0.040349964 7
2.3106782 -0.20378375 0.040489584 8
2.3117707 -0.20469336 0.12162878 9
2.21961 -0.19653308 -0.43313646 2
2.3318985 -0.20688574 0.204816 10
2.2430842 -0.19940074 -0.35667065 3
2.3410807 -0.20852403 0.28858662 11
2.2461374 -0.2004624 -0.27688718 4
2.3452907 -0.20972419 0.3729398 12
2.2722192 -0.20318988 -0.19958666 5
2.2796905 -0.20466018 -0.11995402 6
2.2983329 -0.20714256 -0.040280156 7
2.3099527 -0.21184827 0.040489584 8
2.3189971 -0.21349406 0.12204745 9
2.2228203 -0.20463972 -0.4338997 2
2.3252101 -0.2144753 0.20429306 10
2.2463083 -0.20759287 -0.35729638 3
2.3462687 -0.21724375 0.28931785 11
2.2474005 -0.20848504 -0.27713093 4
2.3445442 -0.21790951 0.3729398 12
2.2675283 -0.21075138 -0.19923802 5
2.286917 -0.21335867 -0.12037271 6
2.2896321 -0.21441817 -0.040140536 7
2.297255 -0.21877277 0.040280156 8
2.3222146 -0.22196768 0.12225681 9
2.2299097 -0.21314476 -0.43542615 2
2.316514 -0.2218308 0.20359582 10
2.2377045 -0.21467811 -0.35604486 3
2.349448 -0.22581226 0.28980532 11
2.2565389 -0.21727999 -0.27834961 4
2.3398368 -0.22571284 0.37231407 12
2.2628124 -0.21828265 -0.1988894 5
2.2861583 -0.22134019 -0.12037271 6
2.3008113 -0.22356954 -0.040349964 7
2.2944872 -0.22659379 0.040245246 8
2.3234129 -0.23026934 0.12236147 9
2.3236561 -0.230703 0.20429306 10
2.229079 -0.22170582 -0.3547934 3
2.3387687 -0.23302792 0.28858662 11
2.2577417 -0.22535259 -0.27859333 4
2.3449316 -0.23446864 0.37325269 12
2.2660017 -0.22657648 -0.19923802 5
2.2813969 -0.22892021 -0.12016336 6
2.3000169 -0.23159952 -0.040349964 7
2.309597 -0.23622943 0.040524486 8
2.3186631 -0.23756565 0.12215213 9
2.3287826 -0.23942396 0.204816 10
2.2400815 -0.23069964 -0.35667065 3
2.3359668 -0.24098663 0.28834289 11
2.254967 -0.23302819 -0.27834961 4
2.3520007 -0.24305563 0.37450415 12
2.265197 -0.23448491 -0.19923802 5
2.2726378 -0.23605698 -0.11974468 6
2.3111701 -0.24046706 -0.040559392 7
2.3048234 -0.2434669 0.040454678 8
2.3078887 -0.24460532 0.12162878 9
2.3338761 -0.24818349 0.20533893 10
2.2471614 -0.23896226 -0.35792211 3
2.3469982 -0.24999318 0.28980532 11
2.24826 -0.23987281 -0.27761838 4
2.268327 -0.24281463 -0.19958666 5
2.2797859 -0.24444373 -0.12016336 6
2.2904344 -0.24639422 -0.040210344 7
2.3079355 -0.25194478 0.040524486 8
2.3169479 -0.25374708 0.12215213 9
2.3251183 -0.25505254 0.20464167 10
2.2443497 -0.24658912 -0.35760921 3
2.3441381 -0.25796705 0.2895616 11
2.2474091 -0.24771924 -0.27761838 4
2.2675092 -0.25033534 -0.19958666 5
2.2828891 -0.25283992 -0.12037271 6
2.2855854 -0.25394619 -0.040140536 7
2.2990937 -0.25910369 0.04038487 8
2.3200173 -0.26228189 0.12236147 9
2.3182745 -0.26249468 0.20411874 10
2.2356243 -0.25353152 -0.35635775 3
2.3451958 -0.26637208 0.28980532 11
2.2623098 -0.25735766 -0.27956831 4
2.2547441 -0.25689563 -0.19854078 5
2.2899301 -0.26171431 -0.1207914 6
2.2926319 -0.26283386 -0.040280156 7
2.2942026 -0.26666567 0.040315062 8
2.3230553 -0.27084124 0.12257081 9
2.3213022 -0.27104753 0.20446737 10
2.2425735 -0.26225153 -0.35760921 3
2.3403084 -0.27409488 0.28931785 11
2.2554829 -0.26455927 -0.27883708 4
2.2657063 -0.26615933 -0.19958666 5
2.273134 -0.26783633 -0.11995402 6
2.3036156 -0.2722432 -0.040489584 7
2.3011994 -0.27562353 0.040454678 8
2.3161469 -0.27823395 0.12225681 9
2.3203418 -0.27914873 0.20446737 10
2.3275127 -0.28083566 0.28785542 11
2.2446918 -0.27124003 -0.27761838 4
2.2647634 -0.27406648 -0.19958666 5
2.2721853 -0.27576944 -0.11995402 6
2.2966962 -0.27955779 -0.04038487 7
2.3002234 -0.28365451 0.040454678 8
2.3072326 -0.28533655 0.12183812 9
2.3272624 -0.28822604 0.20516461 10
2.3324277 -0.28969249 0.28858662 11
2.2417614 -0.2788288 -0.27737463 4
2.2677474 -0.28246287 -0.19993527 5
2.2751725 -0.28419426 -0.12016336 6
2.3016589 -0.28831869 -0.040489584 7
2.3031869 -0.29218546 0.040524486 8
2.3181105 -0.29490086 0.12246615 9
2.320313 -0.29559264 0.20464167 10
2.341248 -0.29909015 0.28980532 11
2.2466815 -0.28740799 -0.27810585 4
2.2588422 -0.28936434 -0.19923802 5
2.2820907 -0.2931523 -0.12058206 6
2.2927051 -0.2953293 -0.040349964 7
2.298187 -0.2997061 0.040454678 8
2.3150864 -0.30273181 0.12236147 9
2.3192668 -0.3036902 0.20464167 10
2.3480628 -0.30829453 0.29078028 11
2.2535374 -0.29628369 -0.27908084 4
2.2578185 -0.29724747 -0.19923802 5
2.2850137 -0.30163923 -0.1207914 6
2.2876956 -0.30280581 -0.040280156 7
2.2931631 -0.30719543 0.04038487 8
2.3199542 -0.31160876 0.12267549 9
2.3201673 -0.31204969 0.204816 10
2.3351684 -0.31489712 0.28931785 11
2.2564237 -0.30467945 -0.27956831 4
2.2646651 -0.30619475 -0.19993527 5
2.2720718 -0.30800378 -0.12016336 6
2.2985134 -0.31240535 -0.040489584 7
2.2960386 -0.31574306 0.040454678 8
2.3129165 -0.3188867 0.12236147 9
2.3230112 -0.32069162 0.20516461 10
2.3320887 -0.32277432 0.28907412 11
2.2474811 -0.31146395 -0.27859333 4
2.2635825 -0.314098 -0.19993527 5
2.2709827 -0.3159329 -0.12016336 6
2.3013701 -0.32097924 -0.040559392 7
2.3068032 -0.32543182 0.040664107 8
2.313767 -0.32723802 0.12246615 9
2.3258231 -0.32935718 0.20551322 10
2.3348784 -0.33147094 0.2895616 11
2.2404845 -0.31846926 -0.27786213 4
2.2703621 -0.32312033 -0.20063251 5
2.2738209 -0.32442242 -0.12037271 6
2.2923176 -0.327878 -0.040419776 7
2.303674 -0.33319584 0.040629201 8
2.3106341 -0.335026 0.12236147 9
2.3207159 -0.33690137 0.20516461 10
2.3415647 -0.34076265 0.29053652 11
2.2573915 -0.32931775 -0.19958666 5
2.2805793 -0.33351356 -0.1207914 6
2.2792876 -0.33413735 -0.040210344 7
2.300519 -0.34094197 0.040594298 8
2.3094506 -0.34308958 0.12236147 9
2.3155842 -0.34441388 0.204816 10
2.3462512 -0.34981233 0.29126775 11
2.2522869 -0.3366065 -0.19923802 5
2.2833517 -0.34206405 -0.12100074 6
2.2899725 -0.34387329 -0.040419776 7
2.2914064 -0.34776998 0.040454678 8
2.3200862 -0.35295126 0.12298951 9
2.320277 -0.35339466 0.20533893 10
2.3332417 -0.35620263 0.28980532 11
2.2629151 -0.34627464 -0.20028389 5
2.270299 -0.34821561 -0.12037271 6
2.2946877 -0.35277623 -0.040524486 7
2.2980828 -0.35699421 0.040594298 8
2.314893 -0.36043316 0.12278017 9
2.3308408 -0.36333296 0.20638479 10
2.3221774 -0.36281285 0.28858662 11
2.2616928 -0.3541716 -0.20028389 5
2.2611771 -0.35489956 -0.11995402 6
2.2954178 -0.3610948 -0.040559392 7
2.2987974 -0.36532769 0.040629201 8
2.3117125 -0.3677938 0.12267549 9
2.331526 -0.37178066 0.20655911 10
2.2604427 -0.36206421 -0.20028389 5
2.2796445 -0.3659561 -0.12100074 6
2.2902589 -0.3680701 -0.040489584 7
2.3054688 -0.37423041 0.040768825 8
2.3085089 -0.37513736 0.12257081 9
2.3145483 -0.37694815 0.20516461 10
2.2552969 -0.3689149 -0.19993527 5
2.2784183 -0.37351364 -0.12100074 6
2.2890258 -0.3756628 -0.040489584 7
2.2943513 -0.38023877 0.040594298 8
2.3170364 -0.38482943 0.12309418 9
2.3152511 -0.38494816 0.20533893 10
2.2638211 -0.37842757 -0.20080683 5
2.2810404 -0.38212457 -0.12121009 6
2.2916448 -0.38431218 -0.040559392 7
2.2889988 -0.38797706 0.040524486 8
2.3215177 -0.39432257 0.12340819 9
2.3197174 -0.39443335 0.20586187 10
2.27175 -0.38913354 -0.1207914 6
2.2921917 -0.39304689 -0.040594298 7
2.2954431 -0.39772972 0.040664107 8
2.3023465 -0.39975369 0.12246615 9
2.3221819 -0.40361524 0.20621049 10
2.2703779 -0.39706111 -0.1207914 6
2.3005843 -0.40317145 -0.040768825 7
2.3038862 -0.40748122 0.040838633 8
2.3048704 -0.40848503 0.12267549 9
2.3266444 -0.41276285 0.20673342 10
2.2768428 -0.40638757 -0.12121009 6
2.2893205 -0.40943924 -0.040594298 7
2.296546 -0.41445535 0.040733919 8
2.3112917 -0.41794962 0.12309418 9
2.3153865 -0.41910744 0.20586187 10
2.2793405 -0.41504833 -0.12141944 6
2.2819757 -0.41635123 -0.040489584 7
2.2931185 -0.42210722 0.040699009 8
2.3157113 -0.42710179 0.12340819 9
2.31195 -0.42682537 0.20568755 10
2.281805 -0.42373142 -0.12162878 6
2.2864063 -0.42541161 -0.040594298 7
2.2877004 -0.42937145 0.040629201 8
2.3162451 -0.43514737 0.12351287 9
2.3221943 -0.43710431 0.20673342 10
2.2763872 -0.43095085 -0.12141944 6
2.2889125 -0.43373588 -0.040664107 7
2.2901924 -0.43770611 0.040699009 8
2.3107889 -0.44247872 0.12330353 9
2.3186977 -0.44483224 0.20655911 10
2.2972016 -0.4436188 -0.040838633 7
2.2925766 -0.44646227 0.040768825 8
2.2974684 -0.4482474 0.12267549 9
2.3308978 -0.45519194 0.20777929 10
2.2858288 -0.44970483 -0.040664107 7
2.2968881 -0.45562935 0.040873535 8
2.3076437 -0.45860016 0.12330353 9
2.3214784 -0.46177077 0.20708205 10
2.276402 -0.45610964 -0.040524486 7
2.2913637 -0.46285239 0.040803727 8
2.3139405 -0.46783319 0.12372221 9
2.3120413 -0.46828938 0.20638479 10
2.2846739 -0.4656527 -0.040699009 7
2.2839396 -0.4692409 0.040699009 8
2.3201187 -0.47751811 0.1241409 9
2.3240521 -0.4791733 0.20760499 10
2.2869508 -0.47443733 -0.040768825 7
2.2881601 -0.47843838 0.040803727 8
2.3047538 -0.4827477 0.12340819 9
2.3146503 -0.48524234 0.20690772 10
2.293107 -0.48406953 -0.040908441 7
2.2903879 -0.48725474 0.040873535 8
2.3030546 -0.49078983 0.12340819 9
2.2944498 -0.49691594 0.040978249 8
2.3090477 -0.50092143 0.12382689 9
2.2868423 -0.50363183 0.040873535 8
2.3072853 -0.50897843 0.12382689 9
2.2792165 -0.5103007 0.040768825 8
2.3191361 -0.52008855 0.12455959 9
2.2891202 -0.52091575 0.040978249 8
2.3056226 -0.52551758 0.12393155 9
2.2892365 -0.52935362 0.041013155 8
2.2960842 -0.53135926 0.12351287 9
2.2991493 -0.53968394 0.041222587 8
2.3058808 -0.54211342 0.1241409 9
2.3117449 -0.55201459 0.12455959 9
2.309804 -0.56008077 0.12455959 9
2.3038573 -0.56758732 0.12435025 9
2.305737 -0.57659489 0.12455959 9
2.3038123 -0.58423781 0.12455959 9
2.3095996 -0.59386379 0.12497827 9
