# .PCD v0.7 - Point Cloud Data file format
VERSION 0.7
FIELDS x y z intensity
SIZE 4 4 4 4
TYPE F F F F
COUNT 1 1 1 1
WIDTH 948
HEIGHT 1
VIEWPOINT 0 0 0 1 0 0 0
POINTS 948
DATA ascii
1.8004717 1.041599 -0.18198119 5
1.8023689 1.0343159 -0.18180689 5
1.7919381 1.0204462 -0.1804124 5
1.8001463 1.0242887 -0.10854478 6
1.8022506 1.0184186 -0.18110962 5
1.7930977 1.012422 -0.10791675 6
1.812746 1.0160191 -0.18180689 5
1.7809379 0.99737322 -0.10697471 6
1.8197647 1.0116209 -0.1821555 5
1.8018683 1.000849 -0.10802142 6
1.8128163 0.9994902 -0.18110962 5
1.8088499 0.99648017 -0.10823077 6
1.8093016 0.98933315 -0.1804124 5
1.8158228 0.99207473 -0.10844011 6
1.81975 0.98680997 -0.18110962 5
1.808738 0.98002279 -0.10781208 6
1.8253554 0.98820138 -0.036231197 7
1.826864 0.98202074 -0.18145825 5
1.8051105 0.96992117 -0.10739339 6
1.8199841 0.97709453 -0.036056671 7
1.830281 0.97563732 -0.18145825 5
1.8192301 0.96893239 -0.10802142 6
1.811028 0.9641571 -0.035812337 7
1.8266296 0.96551865 -0.18076101 5
1.8226014 0.96257567 -0.10802142 6
1.8037721 0.95222872 -0.035602912 7
1.8264593 0.95728725 -0.1804124 5
1.8328604 0.96023333 -0.10844011 6
1.8141714 0.9496364 -0.035742529 7
1.8331594 0.95306277 -0.18076101 5
1.8291113 0.95014727 -0.10802142 6
1.8173107 0.94361472 -0.035742529 7
1.8063576 0.93432814 0.035498194 8
1.8435585 0.95030987 -0.18145825 5
1.8180484 0.93675846 -0.10718405 6
1.8277049 0.94092691 -0.035882145 7
1.8149463 0.93075413 0.035602912 8
1.8468417 0.94466978 -0.25470695 4
1.8396038 0.94056362 -0.18076101 5
1.8319793 0.93585771 -0.10781208 6
1.8202919 0.92908627 -0.035672721 7
1.8039237 0.91716313 0.035323672 8
1.8642914 0.9454003 -0.25665686 4
1.8393219 0.93233442 -0.1804124 5
1.8423616 0.93306708 -0.10823077 6
1.8235242 0.92272615 -0.035672721 7
1.8231856 0.91896075 0.035637815 8
1.8729008 0.94156122 -0.25738806 4
1.8425654 0.92590779 -0.1804124 5
1.8420379 0.92483753 -0.10802142 6
1.8303082 0.91814977 -0.035742529 7
1.8138601 0.90633553 0.03539348 8
1.8637389 0.92882115 -0.2556819 4
1.8529193 0.92302424 -0.18110962 5
1.838102 0.91484356 -0.10760273 6
1.8335022 0.91175473 -0.035742529 7
1.8170129 0.89999801 0.03539348 8
1.8651903 0.92143005 -0.25543818 4
1.8561302 0.91655028 -0.18110962 5
1.83412 0.90488666 -0.10718405 6
1.843848 0.9088859 -0.035882145 7
1.8309137 0.89893734 0.035602912 8
1.8379619 0.90160179 0.10728873 9
1.861264 0.91142112 -0.2544632 4
1.8557386 0.90831506 -0.18076101 5
1.8480331 0.90374291 -0.10781208 6
1.8362293 0.89717644 -0.035672721 7
1.8268478 0.88904095 0.035463288 8
1.8321172 0.89081347 0.10676537 9
1.8697916 0.9075194 -0.25519443 4
1.851728 0.89835262 -0.18006375 5
1.8511763 0.89728695 -0.10781208 6
1.8357507 0.88901776 -0.035602912 7
1.8281392 0.88178945 0.035428386 8
1.8118248 0.873142 0.10540463 9
1.8747373 0.90184706 -0.25543818 4
1.858444 0.89360982 -0.1804124 5
1.8506966 0.88908941 -0.10760273 6
1.8388426 0.88260478 -0.035602912 7
1.8295543 0.87422132 0.03539348 8
1.8456539 0.88112307 0.10718405 9
1.8798219 0.89582413 -0.2556819 4
1.8617066 0.88679266 -0.1804124 5
1.8467289 0.87886763 -0.10718405 6
1.8529009 0.88101065 -0.035812337 7
1.8344023 0.86868501 0.035428386 8
1.825248 0.86357123 0.10582332 9
1.8757578 0.88586557 -0.25470695 4
1.8683939 0.88199008 -0.18076101 5
1.8533986 0.8741194 -0.10739339 6
1.852347 0.87283319 -0.035742529 7
1.8410438 0.86397594 0.035498194 8
1.8281019 0.85751319 0.10582332 9
1.876887 0.87879896 -0.2544632 4
1.8786801 0.87883914 -0.18145825 5
1.8564384 0.86764491 -0.10739339 6
1.8516076 0.86499339 -0.035672721 7
1.8457116 0.85870993 0.035533097 8
1.8309352 0.85144663 0.10582332 9
1.8833921 0.87424123 -0.25495067 4
1.8707397 0.86757457 -0.1804124 5
1.8629296 0.86316359 -0.10760273 6
1.8435787 0.85380578 -0.035463288 7
1.8340223 0.84588403 0.03525386 8
1.833896 0.84505069 0.10582332 9
1.8132854 0.83516872 0.17466012 10
1.8882359 0.86849159 -0.25519443 4
1.8699856 0.85970205 -0.18006375 5
1.8694119 0.858648 -0.10781208 6
1.8574524 0.85236979 -0.035672721 7
1.829689 0.83615178 0.035114244 8
1.8404685 0.84030259 0.10603265 9
1.807127 0.82469767 0.17378855 10
1.8984815 0.86518741 -0.25616938 4
1.8802276 0.85647339 -0.18076101 5
1.8687621 0.8504622 -0.10760273 6
1.8676976 0.84919196 -0.035812337 7
1.8362391 0.83141071 0.035184052 8
1.8397514 0.83222622 0.10582332 9
1.8208867 0.82331091 0.17483442 10
1.8870158 0.8520214 -0.25421947 4
1.8869865 0.85121423 -0.18110962 5
1.8680774 0.8422932 -0.10739339 6
1.8633578 0.83938158 -0.035672721 7
1.8500779 0.82990628 0.03539348 8
1.8353547 0.82253242 0.10540463 9
1.8402587 0.82395792 0.17640322 10
1.8827304 0.84218645 -0.25324452 4
1.8863082 0.84299684 -0.18076101 5
1.8748001 0.83706784 -0.10760273 6
1.858972 0.82961279 -0.035533097 7
1.8549343 0.82393199 0.035428386 8
1.8436912 0.8185516 0.10571864 9
1.8267316 0.81025988 0.17483442 10
1.9196254 0.85106164 -0.33257973 3
1.8912492 0.83769244 -0.25397575 4
1.8855959 0.83479369 -0.1804124 5
1.8813634 0.83213562 -0.10781208 6
1.8618567 0.82311827 -0.035533097 7
1.8466754 0.81294155 0.035218958 8
1.8520213 0.81452441 0.10603265 9
1.8313731 0.80467939 0.17500873 10
1.9133943 0.84071839 -0.33101538 3
1.9031055 0.83540523 -0.25519443 4
1.8848492 0.82660568 -0.18006375 5
1.8841127 0.82589167 -0.10781208 6
1.8683823 0.81821805 -0.035602912 7
1.8440031 0.80409217 0.035114244 8
1.8621778 0.81124496 0.10645135 9
1.8358582 0.79939681 0.17518303 10
1.9126946 0.83245802 -0.33038962 3
1.8275918 0.79503959 0.24471366 11
1.9060103 0.82875657 -0.25519443 4
1.8839247 0.81876367 -0.17971513 5
1.8759921 0.81453663 -0.10718405 6
1.8748955 0.81328392 -0.035672721 7
1.8541411 0.80082333 0.03525386 8
1.857663 0.80157411 0.10603265 9
1.8459555 0.79614025 0.17588028 10
1.9065188 0.82186598 -0.32882527 3
1.8979521 0.81738752 -0.253732 4
1.8977519 0.81690872 -0.18076101 5
1.8824933 0.80956179 -0.10739339 6
1.8813978 0.80831259 -0.035742529 7
1.8624412 0.79670519 0.035358574 8
1.8549399 0.79273051 0.10571864 9
1.8505553 0.79047477 0.17605458 10
1.9166434 0.81830812 -0.33007675 3
1.8385751 0.78459871 0.24544489 11
1.9044455 0.81231558 -0.25421947 4
1.9042577 0.81184155 -0.18110962 5
1.8889825 0.8045513 -0.10760273 6
1.8805276 0.80017483 -0.035672721 7
1.8725759 0.79331994 0.035498194 8
1.8558567 0.7854718 0.10561397 9
1.8459636 0.78090483 0.17535736 10
1.919488 0.8116132 -0.33007675 3
1.8504454 0.7820394 0.24666359 11
1.9109269 0.80720723 -0.25470695 4
1.8960667 0.80054015 -0.18006375 5
1.8880992 0.79639971 -0.10739339 6
1.8722528 0.78894609 -0.035463288 7
1.8624258 0.78136259 0.03525386 8
1.8622711 0.78053331 0.10582332 9
1.8450028 0.77291721 0.17500873 10
1.9186651 0.80338258 -0.32945102 3
1.8458388 0.77251017 0.2456886 11
1.9137328 0.80053234 -0.25470695 4
1.895173 0.79237998 -0.17971513 5
1.8982394 0.79288381 -0.10781208 6
1.8860683 0.78702593 -0.035672721 7
1.8559086 0.77102029 0.035079334 8
1.8760526 0.77862126 0.10645135 9
1.8458494 0.76570833 0.17483442 10
1.9141585 0.79365426 -0.32819954 3
1.8503584 0.76682186 0.24593236 11
1.9201837 0.79536611 -0.25519443 4
1.9052908 0.78880876 -0.1804124 5
1.8862307 0.78014553 -0.10697471 6
1.8851079 0.7789107 -0.035602912 7
1.8659861 0.76758069 0.035218958 8
1.8675408 0.76783913 0.10582332 9
1.8614117 0.76455975 0.17605458 10
1.9278816 0.7914685 -0.33007675 3
1.8309857 0.75131565 0.2430075 11
1.9192749 0.78715247 -0.25470695 4
1.9117198 0.78366417 -0.18076101 5
1.8963352 0.77658457 -0.10739339 6
1.898784 0.77720052 -0.035812337 7
1.8777804 0.76516205 0.03539348 8
1.8572611 0.75604385 0.10509061 9
1.8548412 0.75430423 0.17518303 10
1.9341557 0.78655887 -0.33070248 3
1.8426622 0.74897671 0.2442262 11
1.9108398 0.77630097 -0.25324452 4
1.8540363 0.75284594 0.31693625 12
1.9181361 0.77848417 -0.18110962 5
1.9026015 0.77179378 -0.10760273 6
1.8903661 0.76606107 -0.035602912 7
1.876731 0.75710589 0.035323672 8
1.8728558 0.75478256 0.10582332 9
1.8517882 0.74591637 0.17466012 10
1.940554 0.78127849 -0.33132821 3
1.8489484 0.74402261 0.24471366 11
1.9245884 0.77407008 -0.25470695 4
1.8456563 0.74194837 0.31505907 12
1.913313 0.76914614 -0.1804124 5
1.9126978 0.76812452 -0.10802142 6
1.8930284 0.75945824 -0.035602912 7
1.8793623 0.75055069 0.035323672 8
1.8847548 0.75194049 0.10634667 9
1.8488283 0.73723435 0.17413718 10
1.9322594 0.77011234 -0.32945102 3
1.8589109 0.74050194 0.2456886 11
1.9309671 0.76881629 -0.25519443 4
1.8445635 0.73404169 0.31443331 12
1.9085807 0.75951719 -0.17971513 5
1.9153676 0.76144278 -0.10802142 6
1.8993849 0.75432128 -0.035672721 7
1.870813 0.73957443 0.035114244 8
1.8817945 0.74315727 0.10603265 9
1.8550972 0.73223877 0.17448579 10
1.9275857 0.7604624 -0.32819954 3
1.8504039 0.72964084 0.2442262 11
1.9336393 0.76207078 -0.25519443 4
1.843439 0.7261501 0.31380758 12
1.9223431 0.7572313 -0.18076101 5
1.9068624 0.75036448 -0.10739339 6
1.9057282 0.74915117 -0.035742529 7
1.8808322 0.73595369 0.03525386 8
1.8732162 0.73222083 0.10540463 9
1.8669209 0.72938347 0.17535736 10
1.9339082 0.75516665 -0.32882527 3
1.849241 0.72173327 0.2437387 11
1.9251914 0.75098747 -0.253732 4
1.8422815 0.71827614 0.31318185 12
1.9249744 0.75051683 -0.18076101 5
1.9057481 0.74225354 -0.10718405 6
1.9120588 0.74394393 -0.035812337 7
1.892713 0.73299605 0.035428386 8
1.8757609 0.72567713 0.10540463 9
1.8806051 0.72717494 0.17640322 10
1.9475882 0.75268358 -0.33070248 3
1.8573046 0.71741915 0.24446991 11
1.9278007 0.74426401 -0.253732 4
1.8392489 0.70970708 0.31224322 12
1.9350178 0.74666125 -0.18145825 5
1.9157813 0.73847145 -0.10760273 6
1.9034476 0.73295319 -0.035602912 7
1.8896585 0.72423726 0.035323672 8
1.8782824 0.71912545 0.10540463 9
1.8663847 0.7141968 0.17483442 10
1.9538939 0.74729139 -0.33132821 3
1.8597974 0.71093196 0.24446991 11
1.934096 0.73894674 -0.25421947 4
1.8380244 0.70187271 0.31161749 12
1.9301676 0.73705876 -0.18076101 5
1.8745557 0.71544892 0.39001361 13
1.9220799 0.73320282 -0.10781208 6
1.9059944 0.72630489 -0.035602912 7
1.8901802 0.71725696 0.035288766 8
1.8898696 0.71676284 0.10592799 9
1.8706063 0.70870912 0.17500873 10
1.9489714 0.73801118 -0.33007675 3
1.8769972 0.7103824 0.24641983 11
1.9402493 0.73393309 -0.25470695 4
1.8420678 0.69679427 0.31193036 12
1.925146 0.72783697 -0.18006375 5
1.8658985 0.70506525 0.38772389 13
1.9263691 0.72753 -0.10791675 6
1.9157504 0.72313756 -0.035742529 7
1.8831886 0.70746911 0.035114244 8
1.8942299 0.71086276 0.10603265 9
1.8730686 0.70217562 0.17500873 10
1.9440094 0.72876984 -0.32882527 3
1.8737659 0.70206404 0.2456886 11
1.9501083 0.73027998 -0.2556819 4
1.8518889 0.69313008 0.31318185 12
1.9351394 0.72390431 -0.18076101 5
1.8479997 0.69130671 0.38352609 13
1.921288 0.71834058 -0.10749806 6
1.9182626 0.71644634 -0.035742529 7
1.8968928 0.70507193 0.035323672 8
1.8892106 0.70146501 0.10561397 9
1.9748365 0.73325789 -0.40947613 2
1.8772544 0.6966539 0.17518303 10
1.9539497 0.72472781 -0.33007675 3
1.8631763 0.69068867 0.24398245 11
1.9451997 0.7207101 -0.25470695 4
1.8524446 0.68597507 0.31286895 12
1.9413917 0.71852762 -0.18110962 5
1.8761785 0.69439155 0.38886875 13
1.9125443 0.70747244 -0.10687003 6
1.9245033 0.71113169 -0.035812337 7
1.8993427 0.69844574 0.035323672 8
1.8841484 0.69211185 0.10519528 9
1.9627666 0.72060233 -0.40642318 2
1.8835366 0.69114107 0.17553167 10
1.9640114 0.72028142 -0.33132821 3
1.8786217 0.68896562 0.2456886 11
1.9421122 0.7118656 -0.25397575 4
1.8511182 0.67814606 0.31224322 12
1.9438878 0.71174693 -0.18110962 5
1.8787107 0.68751079 0.38886875 13
1.9226276 0.70320159 -0.10728873 6
1.9232177 0.7030369 -0.035742529 7
1.9056485 0.69284666 0.03539348 8
1.8941815 0.68792909 0.10561397 9
1.9615794 0.71240664 -0.40565994 2
1.8709548 0.679124 0.17413718 10
1.970228 0.71476829 -0.331954 3
1.8792684 0.68139839 0.24544489 11
1.9540398 0.70812482 -0.25519443 4
1.8480196 0.66933829 0.31130463 12
1.9351209 0.70088565 -0.18006375 5
1.8847915 0.68228465 0.38963199 13
1.9250704 0.69648653 -0.10728873 6
1.9182593 0.69326413 -0.035602912 7
1.9005286 0.683483 0.03525386 8
1.9022106 0.68333817 0.10592799 9
1.9677497 0.70688206 -0.40642318 2
1.8714389 0.67191523 0.17396286 10
1.9652733 0.70521909 -0.33070248 3
1.8872408 0.67684513 0.24617608 11
1.9639745 0.70397836 -0.25616938 4
1.8503443 0.66288465 0.31130463 12
1.9375551 0.69412786 -0.18006375 5
1.8797681 0.67305458 0.38810554 13
1.9350119 0.69245374 -0.10770741 6
1.9281993 0.68925667 -0.035742529 7
1.8953664 0.67416459 0.035114244 8
1.9119935 0.67970288 0.10634667 9
1.9739051 0.70132303 -0.40718642 2
1.8850378 0.66937929 0.17500873 10
1.9602767 0.69571143 -0.32945102 3
1.8746253 0.66494399 0.2442262 11
1.9625567 0.69613391 -0.2556819 4
1.8655655 0.66136491 0.31349471 12
1.9512345 0.69135219 -0.18110962 5
1.8821063 0.66648835 0.38810554 13
1.9298859 0.68303001 -0.10728873 6
1.9342445 0.68419284 -0.035812337 7
1.9051363 0.67053157 0.03525386 8
1.9029325 0.66938168 0.10571864 9
1.979924 0.6960761 -0.40794963 2
1.8834878 0.66180402 0.17466012 10
1.9700283 0.69182456 -0.33070248 3
1.8768197 0.65872419 0.2442262 11
1.9573619 0.68699282 -0.25470695 4
1.86402 0.65386736 0.31286895 12
1.9535165 0.68487734 -0.18110962 5
1.8843058 0.66024381 0.38810554 13
1.9321402 0.67662692 -0.10728873 6
1.8612933 0.65181667 0.45530096 14
1.9440528 0.68041676 -0.035951961 7
1.9130151 0.66618258 0.035358574 8
1.9014848 0.66142225 0.1055093 9
1.978513 0.68821609 -0.40718642 2
1.906373 0.66275066 0.17657752 10
1.9723115 0.68528837 -0.33070248 3
1.8902453 0.65640342 0.2456886 11
1.9634987 0.68145829 -0.25519443 4
1.8718901 0.64929831 0.31380758 12
1.9596603 0.67935878 -0.18145825 5
1.890195 0.65527713 0.38886875 13
1.9381478 0.67152315 -0.10749806 6
1.8635575 0.64531511 0.45530096 14
1.9312983 0.66839403 -0.035672721 7
1.9228922 0.66210455 0.035498194 8
1.9075589 0.6560812 0.10571864 9
1.977309 0.67968398 -0.40642318 2
1.9012523 0.65317011 0.17588028 10
1.9822832 0.68062133 -0.331954 3
1.8887699 0.64851326 0.24520114 11
1.9621104 0.67331111 -0.25470695 4
1.872277 0.64211899 0.31349471 12
1.9544805 0.66993147 -0.18076101 5
1.8962984 0.64961779 0.38963199 13
1.9481544 0.66700226 -0.10791675 6
1.8788164 0.64289719 0.45845026 14
1.9336193 0.66164976 -0.035672721 7
1.9158401 0.65183228 0.035323672 8
1.921297 0.65294164 0.10634667 9
1.9871042 0.67530584 -0.40794963 2
1.8978609 0.64460659 0.17535736 10
1.9771649 0.67115724 -0.33070248 3
1.8967738 0.64349902 0.24593236 11
1.9683248 0.66739035 -0.25519443 4
1.8858429 0.63905668 0.3153719 12
1.9530333 0.6618256 -0.1804124 5
1.8911165 0.64047587 0.38810554 13
1.9580382 0.66275972 -0.10833544 6
1.8847411 0.63758343 0.45935005 14
1.9436092 0.65711874 -0.035812337 7
1.9124179 0.64322776 0.035218958 8
1.9235646 0.64623058 0.10634667 9
1.9857273 0.6671145 -0.40718642 2
1.9038773 0.63924581 0.17570597 10
1.9720044 0.66173828 -0.32945102 3
1.8933622 0.63498098 0.24520114 11
1.9781712 0.66303849 -0.25616938 4
1.8880621 0.63247043 0.3153719 12
1.9591099 0.65627033 -0.18076101 5
1.8933405 0.63387114 0.38810554 13
1.9489754 0.65211785 -0.10770741 6
1.8869551 0.631001 0.45935005 14
1.9496839 0.65159929 -0.035882145 7
1.9279344 0.64096475 0.035463288 8
1.9181157 0.63732874 0.10592799 9
1.9954972 0.66265339 -0.40871289 2
1.9098788 0.63385165 0.17605458 10
1.985552 0.65858144 -0.33132821 3
1.8899144 0.62649363 0.24446991 11
1.972936 0.65363258 -0.25519443 4
1.8920243 0.62682658 0.3156848 12
1.9651717 0.65067965 -0.18110962 5
1.8992693 0.62849128 0.38886875 13
1.9360698 0.64029408 -0.10687003 6
1.8817453 0.62196368 0.45755047 14
1.9518341 0.6451298 -0.035882145 7
1.9300492 0.63456833 0.035463288 8
1.9184313 0.63000566 0.10582332 9
1.9866059 0.65201086 -0.40642318 2
1.9177591 0.62904441 0.17657752 10
1.991479 0.6532253 -0.331954 3
1.8995271 0.62269598 0.24544489 11
1.9713199 0.6458509 -0.25470695 4
1.8885689 0.61837476 0.31474617 12
1.9712182 0.64505476 -0.18145825 5
1.905075 0.62341022 0.38963199 13
1.9533689 0.63883746 -0.10770741 6
1.8875018 0.61693138 0.45845026 14
1.9426692 0.63458663 -0.035672721 7
1.9379581 0.62968063 0.035568006 8
1.9244179 0.62453866 0.10603265 9
1.9887571 0.64541894 -0.40642318 2
1.914149 0.62083685 0.17605458 10
1.993747 0.64627016 -0.331954 3
1.9035773 0.61667371 0.2456886 11
1.9773395 0.6401881 -0.25519443 4
1.8907161 0.61177814 0.31474617 12
1.9695553 0.63728809 -0.18110962 5
1.9109755 0.61796504 0.39039519 13
1.955587 0.63201445 -0.10770741 6
1.8933529 0.61153644 0.45935005 14
1.9448724 0.62780195 -0.035672721 7
1.9287204 0.61924475 0.035358574 8
1.9360956 0.62086731 0.10655601 9
1.9947367 0.63967234 -0.40718642 2
1.9087151 0.61171955 0.17535736 10
1.9884658 0.63689595 -0.33070248 3
1.9170618 0.61365676 0.24715105 11
1.9833434 0.6344921 -0.2556819 4
1.8984845 0.60697967 0.3156848 12
1.9679722 0.62919611 -0.18076101 5
1.9056404 0.6089009 0.38886875 13
1.9691969 0.62883019 -0.10833544 6
1.8991888 0.60610896 0.46024984 14
1.9584826 0.62465549 -0.035882145 7
1.927058 0.61129862 0.035288766 8
1.9343362 0.61323589 0.10634667 9
2.0044439 0.63507789 -0.40871289 2
1.9165374 0.60685706 0.17588028 10
1.9869103 0.62875861 -0.33007675 3
1.9059433 0.60277164 0.24544489 11
1.9969031 0.63115406 -0.25714433 4
1.9061377 0.60246617 0.31662342 12
1.9739563 0.62352246 -0.18110962 5
1.9002653 0.59988165 0.3873423 13
1.9656661 0.62014931 -0.10802142 6
1.9050103 0.60064745 0.46114969 14
1.9567291 0.61695433 -0.035812337 7
1.9328908 0.60610193 0.035358574 8
2.0232084 0.63403529 -0.48949349 1
1.9288411 0.60409272 0.10592799 9
2.0103958 0.62924957 -0.40947613 2
1.9281515 0.60313779 0.17675185 10
2.0002964 0.62570512 -0.331954 3
1.8946689 0.59230131 0.2437387 11
1.9876163 0.62097716 -0.2556819 4
1.9157712 0.5981642 0.31787488 12
1.9799244 0.61781567 -0.18145825 5
1.9134891 0.59708518 0.38963199 13
1.9638983 0.61243868 -0.10781208 6
1.9014105 0.59258687 0.45979998 14
1.9741446 0.61487806 -0.036091577 7
1.9540961 0.60526818 0.035707623 8
2.0067933 0.621207 -0.48499447 1
1.9252139 0.59558475 0.10561397 9
2.0087204 0.62141836 -0.40871289 2
1.9301411 0.59674001 0.17675185 10
2.0024681 0.6187194 -0.331954 3
1.9100025 0.58978337 0.24544489 11
1.9859784 0.61286408 -0.25519443 4
1.8895328 0.58274126 0.31318185 12
1.989578 0.61359572 -0.1821555 5
1.917438 0.59097993 0.39001361 13
1.9660242 0.6055792 -0.10781208 6
1.899742 0.58480078 0.45890018 14
1.9686339 0.60563076 -0.035951961 7
1.9447241 0.59493303 0.035498194 8
2.0219946 0.61818594 -0.48814377 1
1.9463817 0.59469831 0.10666069 9
2.0071216 0.61325681 -0.40794963 2
1.9284012 0.5888356 0.17640322 10
2.0083942 0.6128782 -0.33257973 3
1.9253403 0.58716738 0.24715105 11
1.9919031 0.60708588 -0.2556819 4
1.8896658 0.57556593 0.31286895 12
1.987896 0.60548544 -0.18180689 5
1.9251238 0.58599782 0.39115849 13
1.9757692 0.60103828 -0.10823077 6
1.9092298 0.58043265 0.46069977 14
1.9592562 0.59526688 -0.035742529 7
1.9467891 0.58814055 0.035498194 8
2.0241401 0.61112452 -0.48814377 1
1.9464313 0.58766276 0.10655601 9
2.0130095 0.60738069 -0.40871289 2
1.9247224 0.58037454 0.17588028 10
2.0029557 0.60358447 -0.33132821 3
1.9311798 0.58158743 0.24763852 11
2.0035145 0.60298908 -0.25690058 4
1.9123715 0.57555819 0.31631052 12
1.9823654 0.59624767 -0.18110962 5
1.9196366 0.5770151 0.38963199 13
1.9778553 0.59413737 -0.10823077 6
1.9149768 0.57488567 0.46159956 14
1.9688798 0.59106761 -0.035882145 7
1.9410638 0.57939404 0.035358574 8
1.9522991 0.58200562 0.10676537 9
2.0188806 0.60147083 -0.40947613 2
1.9248266 0.57308525 0.17570597 10
2.0011599 0.5958122 -0.33070248 3
1.9197794 0.57121682 0.24593236 11
2.0036004 0.59577656 -0.25665686 4
1.9219428 0.57113135 0.31756201 12
1.9844347 0.58932376 -0.18110962 5
1.9177756 0.5695278 0.38886875 13
1.9798144 0.58757567 -0.10823077 6
1.9168726 0.56853259 0.46159956 14
1.9862692 0.58873713 -0.036161385 7
1.9488287 0.57431114 0.035463288 8
1.9465545 0.57327169 0.10634667 9
2.0246308 0.59588069 -0.41023937 2
1.9343623 0.56894743 0.17640322 10
2.0145988 0.59216511 -0.33257973 3
1.919857 0.56395203 0.2456886 11
2.0113816 0.59045684 -0.25738806 4
1.9257216 0.56531066 0.31787488 12
1.9978491 0.58610559 -0.1821555 5
1.92352 0.56393421 0.38963199 13
1.9780201 0.57953858 -0.10802142 6
1.9113649 0.55964714 0.45979998 14
1.9843723 0.58102369 -0.036091577 7
1.9603225 0.57064039 0.035637815 8
1.9427899 0.56480122 0.10603265 9
2.0266981 0.58881116 -0.41023937 2
1.9439901 0.56441331 0.17710046 10
2.0165515 0.58548063 -0.33257973 3
1.9217166 0.55758286 0.2456886 11
1.9999827 0.57991427 -0.2556819 4
1.9238888 0.55748516 0.31724915 12
1.9998829 0.57912761 -0.1821555 5
1.9348081 0.56028324 0.39154008 13
1.9876049 0.57519722 -0.10844011 6
1.9206984 0.55547076 0.46159956 14
1.9787042 0.571872 -0.035951961 7
1.9719121 0.56655455 0.035812337 8
1.9523312 0.56055987 0.10645135 9
2.0210915 0.57992071 -0.40871289 2
1.9420205 0.55686575 0.17675185 10
2.0261786 0.58061498 -0.33383119 3
1.93701 0.55469739 0.2473948 11
2.009629 0.57511365 -0.25665686 4
1.9143319 0.54784161 0.3153719 12
2.0017924 0.57249302 -0.1821555 5
1.932977 0.55244762 0.39077684 13
1.9934418 0.56935221 -0.10864946 6
1.9301214 0.55090177 0.4633992 14
1.9844358 0.56640434 -0.036021769 7
1.962238 0.55673689 0.035602912 8
1.9561975 0.55428642 0.10655601 9
2.0268815 0.57393152 -0.40947613 2
1.9382011 0.54845643 0.17622891 10
2.024291 0.57281744 -0.33320546 3
1.9369283 0.54773116 0.24715105 11
2.0153456 0.56952536 -0.25714433 4
1.9162325 0.54115641 0.3153719 12
1.9961081 0.56333768 -0.18145825 5
1.9347981 0.54603487 0.39077684 13
1.9991636 0.56382227 -0.1088588 6
1.9902501 0.56055862 -0.036091577 7
1.9526151 0.54664981 0.03539348 8
1.9658146 0.54960525 0.10697471 9
2.0325549 0.56826454 -0.41023937 2
1.945766 0.54363388 0.17675185 10
2.0224733 0.56468493 -0.33257973 3
1.9369165 0.54043263 0.24690731 11
2.0249698 0.56462008 -0.25811929 4
1.9314302 0.53817528 0.31756201 12
2.0018041 0.55778432 -0.18180689 5
1.9310186 0.53769743 0.38963199 13
1.9857261 0.55255753 -0.10802142 6
1.9883415 0.55253756 -0.036021769 7
1.9641489 0.54249281 0.035568006 8
1.9580941 0.54008502 0.10645135 9
2.0534518 0.56638676 -0.41405553 2
1.9572555 0.53948611 0.17762341 10
2.0206237 0.55657208 -0.331954 3
1.9311355 0.53156143 0.24593236 11
2.0192726 0.55544168 -0.25714433 4
1.9352018 0.5319531 0.31787488 12
2.0114236 0.55290514 -0.18250412 5
1.9385631 0.53251415 0.39077684 13
1.987643 0.54562211 -0.10802142 6
2.0037577 0.54929477 -0.0362661 7
1.9718186 0.5372107 0.035672721 8
1.9618016 0.53411287 0.10655601 9
1.9610494 0.53317398 0.17779772 10
2.0339913 0.55262327 -0.33383119 3
1.9425579 0.52741736 0.24715105 11
2.0250304 0.54942971 -0.25763181 4
1.940768 0.5265677 0.31850061 12
2.0171871 0.54692376 -0.18285275 5
1.9441999 0.52677041 0.39154008 13
1.9933909 0.53972501 -0.10823077 6
1.9920564 0.53899056 -0.036021769 7
1.9813137 0.53274542 0.035812337 8
1.9675122 0.52829707 0.10676537 9
1.9552008 0.5242607 0.17710046 10
2.0396285 0.54689884 -0.33445692 3
1.9519662 0.5230273 0.248126 11
2.0230062 0.54168504 -0.25714433 4
1.9330529 0.51723737 0.31693625 12
2.0075355 0.53679061 -0.18180689 5
1.9535228 0.52234834 0.39306656 13
2.006747 0.53620559 -0.1088588 6
1.9939258 0.53203315 -0.036021769 7
1.9754298 0.52377558 0.035672721 8
1.9674131 0.52091604 0.10666069 9
1.9530766 0.51675445 0.17675185 10
2.0377059 0.53876549 -0.33383119 3
1.9537797 0.51621181 0.248126 11
2.0287235 0.53563309 -0.25763181 4
1.9443969 0.51300579 0.31850061 12
2.0132499 0.53079706 -0.1821555 5
1.9515369 0.51452637 0.39230329 13
2.0124695 0.53021467 -0.10906815 6
1.9996381 0.52608871 -0.036091577 7
1.9753116 0.51637059 0.035637815 8
1.9769495 0.51606262 0.10707937 9
1.9511015 0.5085879 0.17640322 10
2.0320203 0.52930206 -0.33257973 3
1.9517279 0.50838739 0.24763852 11
2.0382655 0.53054792 -0.25860679 4
1.9423521 0.50522131 0.31787488 12
2.0189471 0.52476817 -0.18250412 5
1.942009 0.50440747 0.39001361 13
2.0027997 0.51982486 -0.10844011 6
2.0014625 0.5191049 -0.036091577 7
1.9733177 0.50813037 0.035568006 8
1.9748704 0.50816268 0.10687003 9
1.9644431 0.50474858 0.17744908 10
2.0453355 0.52515274 -0.33445692 3
1.9458867 0.49925768 0.24666359 11
2.0362587 0.52244449 -0.25811929 4
1.9479309 0.49941882 0.31850061 12
2.0246267 0.5187059 -0.18285275 5
1.9570709 0.50103521 0.39268494 13
2.0007324 0.51184011 -0.10823077 6
2.0148866 0.51508647 -0.036301006 7
1.9885589 0.5050298 0.035812337 8
1.9726726 0.50062978 0.10666069 9
1.9680374 0.49872127 0.17762341 10
2.0508955 0.51933855 -0.33508268 3
1.9552294 0.4947494 0.24763852 11
2.0302825 0.51374078 -0.25714433 4
1.9514912 0.49344113 0.31881347 12
2.0301991 0.51296473 -0.18320136 5
1.9568181 0.49406141 0.39230329 13
2.0101652 0.50715739 -0.10864946 6
2.0049498 0.50546843 -0.036091577 7
1.9882833 0.49794644 0.035777435 8
1.9802213 0.49519393 0.10697471 9
1.9600158 0.4897767 0.17675185 10
1.9645636 0.49018562 0.24861349 11
2.039768 0.50857103 -0.25811929 4
1.934034 0.48185104 0.3156848 12
2.0202892 0.50334096 -0.1821555 5
1.964161 0.48899296 0.39344814 13
2.0157123 0.50145245 -0.1088588 6
2.0067015 0.49846813 -0.036091577 7
1.9822431 0.48908824 0.035637815 8
1.989695 0.49018916 0.10739339 9
1.9655824 0.48388582 0.17710046 10
1.9681903 0.4837983 0.24885722 11
2.0415306 0.50144821 -0.25811929 4
1.9510518 0.47886345 0.31818774 12
2.0259037 0.49723503 -0.18250412 5
1.9639494 0.48166564 0.39306656 13
2.0329692 0.49821684 -0.10969618 6
2.0200839 0.49431166 -0.036301006 7
1.9878244 0.48310986 0.035707623 8
1.9972165 0.48465422 0.10770741 9
1.9788775 0.47983831 0.17814633 10
1.9621499 0.47505713 0.24788228 11
2.0548453 0.49712002 -0.25958171 4
1.9565517 0.47297785 0.31881347 12
2.0315006 0.49109599 -0.18285275 5
1.957985 0.47296369 0.39154008 13
2.0230467 0.48830608 -0.10906815 6
2.0217969 0.48725766 -0.036301006 7
1.9972779 0.47803041 0.035847243 8
1.9852984 0.47442967 0.10697471 9
1.9805405 0.4729273 0.17814633 10
1.9599344 0.46728376 0.2473948 11
2.0488441 0.48810354 -0.25860679 4
1.9639556 0.46751809 0.3197521 12
2.0409551 0.48584777 -0.18355 5
1.9672643 0.46794295 0.39306656 13
2.024739 0.48124081 -0.10906815 6
2.0312681 0.48204368 -0.036440626 7
1.9969878 0.47059646 0.035812337 8
1.9947188 0.46932691 0.10739339 9
1.9899371 0.46783534 0.17884357 10
1.967351 0.46180072 0.248126 11
2.0428045 0.47913599 -0.25763181 4
1.9598057 0.45930794 0.31881347 12
2.0426385 0.47872099 -0.18355 5
2.0341852 0.47599086 -0.10948683 6
2.0251496 0.47313002 -0.036301006 7
2.0161505 0.46768919 0.036126483 8
1.9982909 0.46281129 0.10749806 9
1.9760293 0.45729208 0.17744908 10
1.9844241 0.45850515 0.25007591 11
2.0560701 0.47468114 -0.25909427 4
1.9594723 0.45202056 0.31850061 12
2.0404141 0.47069263 -0.18320136 5
1.9819615 0.4568432 0.39535624 13
2.0358346 0.46888676 -0.10948683 6
2.022891 0.46516225 -0.036231197 7
2.0060732 0.45797861 0.035917051 8
2.0017617 0.45662677 0.10760273 9
1.9776133 0.4503921 0.17744908 10
1.9898839 0.45245612 0.25056338 11
2.0615859 0.46838123 -0.25958171 4
1.9667394 0.44683263 0.3194392 12
2.0420449 0.46356684 -0.18320136 5
2.0452504 0.46354389 -0.10990552 6
2.036124 0.46110189 -0.036440626 7
2.0017278 0.4500083 0.035812337 8
2.0091898 0.45094815 0.10791675 9
1.9908389 0.44609958 0.17849496 10
1.9816875 0.4436858 0.24934469 11
1.9702151 0.44039506 0.3197521 12
2.0475397 0.457304 -0.18355 5
2.0389786 0.45501938 -0.10948683 6
2.0416253 0.45486087 -0.036510434 7
2.0091441 0.44431308 0.035917051 8
2.006851 0.44307131 0.10770741 9
1.9961983 0.44035405 0.17884357 10
1.9735311 0.43463144 0.248126 11
1.9794573 0.43521217 0.32100356 12
2.0607204 0.45307902 -0.18459585 5
2.0327516 0.44618592 -0.10906815 6
2.0510137 0.44944412 -0.036650054 7
2.020453 0.43942246 0.036091577 8
2.0005784 0.43436778 0.10728873 9
1.9977231 0.43338376 0.17884357 10
1.982797 0.42942008 0.24910097 11
1.9809643 0.42830035 0.32100356 12
2.0622892 0.44588345 -0.18459585 5
2.0421059 0.44077256 -0.10948683 6
2.0408411 0.4397541 -0.036440626 7
2.0278411 0.43362099 0.036196291 8
2.0138016 0.42988488 0.10791675 9
1.9933782 0.42516041 0.17832063 10
1.9998162 0.42580482 0.25105089 11
1.9785831 0.42056099 0.32037783 12
2.0599356 0.43785298 -0.18424724 5
2.0553546 0.43612948 -0.11011487 6
2.0423634 0.43262899 -0.036440626 7
2.0156438 0.4236601 0.035951961 8
2.0250635 0.42490295 0.10844011 9
1.9870502 0.4165639 0.17762341 10
2.0090623 0.4204475 0.25202581 11
1.9781053 0.4132483 0.32006493 12
2.0575507 0.42984533 -0.18389861 5
2.0646851 0.43058273 -0.11053354 6
2.0556078 0.42794204 -0.036650054 7
2.0131934 0.41581401 0.035882145 8
2.034359 0.41944432 0.1088588 9
2.0041034 0.41284257 0.1790179 10
1.9988513 0.41103244 0.25056338 11
1.9872762 0.40792924 0.32131645 12
2.0590386 0.42265996 -0.18389861 5
2.0544357 0.42096892 -0.10990552 6
2.0531709 0.41996199 -0.036580246 7
2.0244312 0.41077179 0.036056671 8
2.0279806 0.41075501 0.10844011 9
2.0113907 0.40702942 0.17954083 10
2.0002737 0.40405303 0.25056338 11
1.9906243 0.40137976 0.32162929 12
2.066361 0.41665092 -0.18442155 5
2.0558929 0.41379449 -0.10990552 6
2.0663872 0.41515628 -0.036789671 7
2.0395808 0.4064388 0.036301006 8
2.025414 0.40324816 0.10823077 9
2.0167077 0.40078303 0.17988946 10
2.0055666 0.39784032 0.25105089 11
1.9861313 0.39362571 0.32069072 12
2.0573249 0.40661499 -0.10990552 6
2.0559816 0.40597776 -0.036580246 7
2.0487671 0.40120968 0.036440626 8
2.0306604 0.39729583 0.10844011 9
2.0121591 0.39294696 0.17936651 10
2.0107715 0.39194742 0.25153834 11
1.9874258 0.38703677 0.32069072 12
2.0665042 0.40131384 -0.1103242 6
2.0573168 0.39915708 -0.036580246 7
2.0343769 0.39139161 0.036161385 8
2.0359578 0.39095786 0.10864946 9
2.0114944 0.38589725 0.1791922 10
2.0237584 0.38751671 0.2530008 11
1.9907047 0.38046816 0.32100356 12
2.0795951 0.39670479 -0.11095224 6
2.0665553 0.39346877 -0.036719862 7
2.033766 0.3839165 0.036126483 8
2.0471237 0.38569805 0.10917282 9
2.0167453 0.37961006 0.17954083 10
2.0211968 0.3797175 0.25251329 11
2.0017285 0.37533674 0.32256791 12
2.0731144 0.38797307 -0.11053354 6
2.0679162 0.38625318 -0.036719862 7
2.044925 0.37863573 0.036301006 8
2.0445292 0.37782443 0.10896347 9
2.0278547 0.37437704 0.1804124 10
2.0147009 0.37122148 0.25153834 11
2.0069118 0.36906207 0.32319364 12
2.0705273 0.38001254 -0.1103242 6
2.0810537 0.3811937 -0.036929294 7
2.0501692 0.37220919 0.036370814 8
2.0320787 0.36819324 0.10823077 9
2.0448332 0.37013465 0.18180689 10
2.0198913 0.36489284 0.25202581 11
2.0757725 0.37349051 -0.11053354 6
2.0744987 0.37251386 -0.036789671 7
2.0573623 0.36610195 0.036475532 8
2.0490837 0.36389098 0.10906815 9
2.0264952 0.35951376 0.18006375 10
2.0270169 0.35887754 0.25275704 11
2.0947659 0.36936328 -0.1114756 6
2.0718472 0.36457756 -0.036719862 7
2.0527177 0.35788822 0.036370814 8
2.0601799 0.35844731 0.10959151 9
2.0277376 0.35243917 0.18006375 10
2.0282574 0.35179919 0.25275704 11
2.0770488 0.35802203 -0.036789671 7
2.0480411 0.34971043 0.0362661 8
2.0633876 0.35158974 0.10969618 9
2.0446687 0.34803295 0.18145825 10
2.0275159 0.34438512 0.25251329 11
2.0861728 0.35210121 -0.036929294 7
2.0531938 0.34321913 0.036335908 8
2.0567222 0.34307 0.10927749 9
2.0399754 0.33991167 0.18093532 10
2.0306637 0.33763069 0.25275704 11
2.0913353 0.34546828 -0.036999103 7
2.0681937 0.33830923 0.036580246 8
2.051935 0.33528194 0.10896347 9
2.0470486 0.33374998 0.18145825 10
2.0337892 0.33086047 0.2530008 11
2.0885212 0.33789292 -0.036929294 7
2.0752275 0.33239818 0.036684956 8
2.0629539 0.32969373 0.10948683 9
2.0442662 0.3259744 0.18110962 10
2.0446773 0.32567507 0.25421947 11
2.0857375 0.32997605 -0.036859483 7
2.0605707 0.32267675 0.036405724 8
2.0680392 0.32310677 0.10969618 9
2.0394301 0.31827238 0.1805867 10
2.0536475 0.31975687 0.25519443 11
2.0908291 0.32330406 -0.036929294 7
2.0676143 0.31638986 0.036510434 8
2.0849493 0.31829676 0.11053354 9
2.0464375 0.31205294 0.18110962 10
2.0508261 0.31198871 0.25470695 11
2.0726616 0.30976126 0.036580246 8
2.078146 0.30983934 0.11011487 9
2.0632799 0.30725479 0.18250412 10
2.0401213 0.30307829 0.25324452 11
2.0796664 0.30339083 0.036684956 8
2.0732853 0.30172089 0.10980085 9
2.0663114 0.30033776 0.18267845 10
2.0509894 0.29737973 0.2544632 11
2.0886319 0.29725608 0.03682458 8
2.0822358 0.29560533 0.11021954 9
2.0634017 0.2925632 0.1823298 10
2.0598772 0.29133102 0.25543818 11
2.0757918 0.28804013 0.036580246 8
2.08919 0.28915605 0.11053354 9
2.0585392 0.28418154 0.18180689 10
2.0707142 0.28549406 0.25665686 11
2.0847604 0.28149983 0.036719862 8
2.0961246 0.28266183 0.11084756 9
2.0595188 0.2769936 0.18180689 10
2.0619092 0.27658346 0.25543818 11
2.0797346 0.27380234 0.036615148 8
2.0832369 0.27352372 0.11011487 9
2.0743015 0.27161506 0.18302706 10
2.0881414 0.26675582 0.1103242 9
2.0791438 0.26523861 0.18337567 10
2.0969877 0.26045135 0.1107429 9
2.0780797 0.25773364 0.18320136 10
2.0998669 0.25336856 0.11084756 9
2.0670984 0.24904774 0.1821555 10
2.1126409 0.24743055 0.1114756 9
2.0857649 0.24391487 0.1837243 10
2.1015844 0.23870257 0.11084756 9
2.0945227 0.23753022 0.18442155 10
2.10042 0.23114622 0.1107429 9
2.0953391 0.23021796 0.18442155 10
2.0901861 0.22226983 0.18389861 10
2.0889673 0.21476804 0.1837243 10
2.0956523 0.20806587 0.18424724 10
2.1082656 0.2018884 0.18529311 10
2.1089575 0.1945294 0.18529311 10
2.1135929 0.18751815 0.18564174 10
