# .PCD v0.7 - Point Cloud Data file format
VERSION 0.7
FIELDS x y z intensity
SIZE 4 4 4 4
TYPE F F F F
COUNT 1 1 1 1
WIDTH 570
HEIGHT 1
VIEWPOINT 0 0 0 1 0 0 0
POINTS 570
DATA ascii
2.6113603 -0.021421591 -0.41361275 3
2.5934873 -0.030781573 -0.41079697 3
2.5894136 -0.039773665 -0.41017124 3
2.5932004 -0.049339231 -0.41079697 3
2.5890729 -0.057850063 -0.41017124 3
2.5967538 -0.067091346 -0.4114227 3
2.5807076 -0.075691991 -0.40891972 3
2.5764792 -0.084570281 -0.40829399 3
2.5722201 -0.093419954 -0.40766826 3
2.5758259 -0.10255529 -0.40829399 3
2.5833464 -0.11188787 -0.40954545 3
2.5711217 -0.11990182 -0.40766826 3
2.5667419 -0.12867817 -0.40704253 3
2.5662529 -0.13808489 -0.40704253 3
2.6581638 0.14303148 -0.3268536 4
2.6507163 0.13335221 -0.32587865 4
2.6491828 0.12400641 -0.32563493 4
2.6376798 0.11470378 -0.32417247 4
2.6420312 0.10565381 -0.32465994 4
2.6423669 0.096891195 -0.32465994 4
2.6307855 0.087271444 -0.32319754 4
2.6191685 0.077736214 -0.32173508 4
2.6273737 0.068341762 -0.32271007 4
2.6275861 0.059629224 -0.32271007 4
2.6277781 0.050456177 -0.32271007 4
2.6120594 0.041033067 -0.32076016 4
2.6121922 0.031459693 -0.32076016 4
2.6162522 0.022831099 -0.32124761 4
2.6163161 0.013700335 -0.32124761 4
2.6242874 0.0050387648 -0.32222256 4
2.6084073 -0.0045525339 -0.32027265 4
2.6044078 -0.013182205 -0.31978518 4
2.6003759 -0.022239249 -0.3192977 4
2.6042523 -0.031363931 -0.31978518 4
2.6080894 -0.040971141 -0.32027265 4
2.5960224 -0.04984618 -0.31881022 4
2.5958326 -0.05890768 -0.31881022 4
2.5916424 -0.067864545 -0.31832278 4
2.5953581 -0.077028424 -0.31881022 4
2.5990412 -0.086219087 -0.3192977 4
2.5828543 -0.094708964 -0.31734779 4
2.5884588 -0.10396324 -0.31807902 4
2.5821302 -0.11273824 -0.31734779 4
2.5777764 -0.12111395 -0.31686032 4
2.5813031 -0.13031149 -0.31734779 4
2.5768681 -0.13910712 -0.31686032 4
2.5604863 -0.14763671 -0.31491041 4
2.5639455 -0.15636846 -0.31539789 4
2.5752702 -0.1660839 -0.31686032 4
2.5746746 -0.17507225 -0.31686032 4
2.5661275 -0.18349212 -0.31588537 4
2.5813079 -0.19363645 -0.31783527 4
2.6697266 0.2928552 -0.23497188 5
2.6805894 0.28505316 -0.23584343 5
2.689496 0.27650878 -0.23654069 5
2.6845431 0.2660605 -0.23601775 5
2.6676052 0.25498244 -0.23444894 5
2.6605432 0.2449379 -0.2337517 5
2.6633253 0.23629045 -0.233926 5
2.6601636 0.22665329 -0.23357739 5
2.6649101 0.2176912 -0.233926 5
2.6497993 0.20668347 -0.23253153 5
2.6465306 0.19713597 -0.23218289 5
2.6551526 0.1884602 -0.23288015 5
2.651787 0.17938595 -0.23253153 5
2.6523972 0.17012896 -0.23253153 5
2.6489971 0.16062742 -0.23218289 5
2.6376071 0.15069839 -0.23113704 5
2.6381171 0.1414898 -0.23113704 5
2.6425745 0.13248026 -0.23148565 5
2.6470013 0.12344133 -0.23183426 5
2.6275108 0.11334147 -0.23009115 5
2.6238904 0.10446846 -0.22974254 5
2.6282213 0.095455162 -0.23009115 5
2.6285384 0.086279683 -0.23009115 5
2.626832 0.077045977 -0.22991684 5
2.613143 0.067515239 -0.22869666 5
2.6133628 0.058392562 -0.22869666 5
2.6135509 0.049270418 -0.22869666 5
2.6216755 0.040268824 -0.22939391 5
2.613831 0.031024439 -0.22869666 5
2.6019695 0.02179943 -0.22765081 5
2.594058 0.013129811 -0.22695355 5
2.600065 0.0040834756 -0.22747649 5
2.6060407 -0.0050032451 -0.22799942 5
2.6060073 -0.014099994 -0.22799942 5
2.5939884 -0.023090165 -0.22695355 5
2.5899076 -0.032095354 -0.22660492 5
2.5897725 -0.041587625 -0.22660492 5
2.5975795 -0.050783142 -0.22730216 5
2.5973969 -0.059396747 -0.22730216 5
2.5892072 -0.068252981 -0.22660492 5
2.577004 -0.076933853 -0.22555906 5
2.5807021 -0.086061619 -0.22590767 5
2.5883503 -0.095362864 -0.22660492 5
2.5880017 -0.1043973 -0.22660492 5
2.5796592 -0.11308146 -0.22590767 5
2.563328 -0.12133187 -0.2245132 5
2.5748274 -0.13088566 -0.22555906 5
2.5703762 -0.13965651 -0.22521043 5
2.5738509 -0.14885804 -0.22555906 5
2.561384 -0.15710968 -0.2245132 5
2.5568724 -0.1653455 -0.22416456 5
2.5582676 -0.17440519 -0.22433887 5
2.5616174 -0.18361902 -0.2246875 5
2.5649345 -0.19285838 -0.22503611 5
2.5543144 -0.20102891 -0.22416456 5
2.5456545 -0.20929089 -0.22346732 5
2.5607893 -0.21953708 -0.22486182 5
2.5639763 -0.22882877 -0.22521043 5
2.5591941 -0.23740926 -0.22486182 5
2.6934619 0.38093975 -0.14256316 6
2.704668 0.3728987 -0.14308652 6
2.7119553 0.36378032 -0.14340053 6
2.7092476 0.35379359 -0.14319119 6
2.7045219 0.34357983 -0.14287716 6
2.6977761 0.33315733 -0.14245848 6
2.6869678 0.32278058 -0.14183044 6
2.6940298 0.31409255 -0.14214447 6
2.6892087 0.30354482 -0.14183044 6
2.6942232 0.29459065 -0.14203981 6
2.6912127 0.2852329 -0.14183044 6
2.6842446 0.27502337 -0.14141177 6
2.6792719 0.26459375 -0.14109775 6
2.6901205 0.25618574 -0.14162111 6
2.6770332 0.24598485 -0.14088841 6
2.6758857 0.2364635 -0.14078373 6
2.6667049 0.22674313 -0.14026037 6
2.6695087 0.21712761 -0.14036505 6
2.6742692 0.20765173 -0.1405744 6
2.6749775 0.1983161 -0.1405744 6
2.6716361 0.18916287 -0.14036505 6
2.6443815 0.17795777 -0.13889964 6
2.6489437 0.16944325 -0.13910899 6
2.6515126 0.16031677 -0.13921365 6
2.6560705 0.15082319 -0.139423 6
2.6545861 0.14144515 -0.13931833 6
2.643095 0.1315815 -0.13869029 6
2.6515191 0.12272324 -0.13910899 6
2.6559019 0.11410306 -0.13931833 6
2.6562841 0.10483084 -0.13931833 6
2.6446414 0.095588103 -0.13869029 6
2.6289892 0.085833915 -0.13785292 6
2.6412649 0.076545335 -0.13848096 6
2.641516 0.067325689 -0.13848096 6
2.6457183 0.0586548 -0.13869029 6
2.6299314 0.04912008 -0.13785292 6
2.6221058 0.039361242 -0.13743424 6
2.6262214 0.030253459 -0.13764358 6
2.622313 0.021510934 -0.13743424 6
2.6263666 0.012377852 -0.13764358 6
2.6184044 0.0036565545 -0.1372249 6
2.6104109 -0.0059228442 -0.1368062 6
2.6143713 -0.014601556 -0.13701554 6
2.618299 -0.023763578 -0.1372249 6
2.6181941 -0.033359963 -0.1372249 6
2.6020858 -0.042239629 -0.13638751 6
2.6019135 -0.051776465 -0.13638751 6
2.605721 -0.06049715 -0.13659686 6
2.597508 -0.069379136 -0.13617818 6
2.6092279 -0.078807488 -0.1368062 6
2.5969603 -0.087511323 -0.13617818 6
2.5846634 -0.096130475 -0.13555014 6
2.5922945 -0.10547683 -0.13596882 6
2.5959013 -0.11470133 -0.13617818 6
2.5994966 -0.12349859 -0.13638751 6
2.5830925 -0.13175781 -0.13555014 6
2.574615 -0.14078821 -0.13513145 6
2.5820835 -0.1502385 -0.13555014 6
2.5815711 -0.15880017 -0.13555014 6
2.5849872 -0.16806975 -0.13575949 6
2.5724289 -0.17627275 -0.13513145 6
2.5638299 -0.18467717 -0.13471277 6
2.5671525 -0.19392636 -0.1349221 6
2.5744245 -0.20351583 -0.13534079 6
2.5776792 -0.21282968 -0.13555014 6
2.5610013 -0.22045581 -0.13471277 6
2.5562778 -0.2285914 -0.13450342 6
2.5554643 -0.2375131 -0.13450342 6
2.5585525 -0.247262 -0.13471277 6
2.5616484 -0.25658959 -0.1349221 6
2.5487714 -0.26473874 -0.13429408 6
2.5439074 -0.27276343 -0.13408473 6
2.5469594 -0.28163689 -0.13429408 6
2.5538983 -0.29143149 -0.13471277 6
2.7189872 0.33529505 -0.047819596 7
2.7082279 0.32437563 -0.047610167 7
2.7053714 0.31445771 -0.047540355 7
2.6905556 0.30322 -0.047261119 7
2.699549 0.29469624 -0.047400735 7
2.6965342 0.28532103 -0.047330927 7
2.7094498 0.27712673 -0.047540355 7
2.6905468 0.26523307 -0.047191311 7
2.6755304 0.25432512 -0.04691207 7
2.6803844 0.24534935 -0.046981879 7
2.6851673 0.23681141 -0.047051687 7
2.6899626 0.22777371 -0.047121495 7
2.6787827 0.21741261 -0.04691207 7
2.6675992 0.20666674 -0.046702638 7
2.6683044 0.19735309 -0.046702638 7
2.6769559 0.1885992 -0.046842258 7
2.6775665 0.17972161 -0.046842258 7
2.6582208 0.16910505 -0.04649321 7
2.6587949 0.15982439 -0.04649321 7
2.6593366 0.15054305 -0.04649321 7
2.6638646 0.14100583 -0.046563022 7
2.6603458 0.13150944 -0.04649321 7
2.6447871 0.12195037 -0.046213973 7
2.6451967 0.11271689 -0.046213973 7
2.6455557 0.10394375 -0.046213973 7
2.6459026 0.094710223 -0.046213973 7
2.6542113 0.085731238 -0.046353593 7
2.634506 0.075889289 -0.046004545 7
2.6307569 0.066592045 -0.045934737 7
2.6349714 0.057495125 -0.046004545 7
2.6431534 0.048444137 -0.046144161 7
2.6393077 0.039157484 -0.046074353 7
2.6274307 0.029808782 -0.045864921 7
2.6235197 0.0206063 -0.045795113 7
2.6235735 0.011905555 -0.045795113 7
2.631598 0.0027551774 -0.045934737 7
2.6275918 -0.0064204312 -0.045864921 7
2.6155558 -0.015521202 -0.045655496 7
2.607487 -0.024575712 -0.045515876 7
2.6113849 -0.033729047 -0.045585688 7
2.6152422 -0.043366332 -0.045655496 7
2.6110766 -0.052414708 -0.045585688 7
2.6108775 -0.061528746 -0.045585688 7
2.594655 -0.070209302 -0.045306448 7
2.5983918 -0.079388045 -0.045376256 7
2.6020958 -0.088593729 -0.045446068 7
2.6097641 -0.097976282 -0.045585688 7
2.5934219 -0.1064295 -0.045306448 7
2.5890591 -0.11485176 -0.045236636 7
2.5846477 -0.12369739 -0.045166828 7
2.5881941 -0.13292386 -0.045236636 7
2.5877144 -0.14195752 -0.045236636 7
2.5752256 -0.15029046 -0.045027211 7
2.5706935 -0.15903182 -0.044957399 7
2.5741136 -0.16826512 -0.045027211 7
2.5814903 -0.17779903 -0.045166828 7
2.5808539 -0.18680903 -0.045166828 7
2.5761981 -0.19551408 -0.04509702 7
2.5635393 -0.20355578 -0.044887587 7
2.5628133 -0.21250297 -0.044887587 7
2.5700638 -0.22168782 -0.045027211 7
2.5692744 -0.23065767 -0.045027211 7
2.5545163 -0.23832443 -0.044782877 7
2.5496879 -0.24685448 -0.044713065 7
2.5567245 -0.25699785 -0.044852685 7
2.5597899 -0.26633486 -0.044922493 7
2.5648575 -0.27546254 -0.045027211 7
2.5459926 -0.28242964 -0.044713065 7
2.546978 -0.29154247 -0.044747971 7
2.5459447 -0.30043134 -0.044747971 7
2.548851 -0.30979908 -0.044817779 7
2.5497382 -0.31894249 -0.044852685 7
2.5387497 -0.32612211 -0.044678163 7
2.5375957 -0.33498201 -0.044678163 7
2.6850452 0.27984148 0.047121495 8
2.6840634 0.26979905 0.047086593 8
2.6929958 0.26072976 0.047226213 8
2.6759264 0.25012237 0.04691207 8
2.6688166 0.24006405 0.04677245 8
2.6695979 0.23121315 0.04677245 8
2.6763673 0.22238916 0.046877164 8
2.679158 0.21273719 0.04691207 8
2.6599798 0.20140696 0.046563022 8
2.6566439 0.19229555 0.04649321 8
2.657299 0.18302025 0.04649321 8
2.6658731 0.174731 0.04663283 8
2.6604793 0.1650534 0.046528116 8
2.653054 0.15529747 0.046388499 8
2.6436222 0.14502542 0.046213973 8
2.6401179 0.13559072 0.046144161 8
2.6485648 0.12675712 0.046283782 8
2.6489706 0.11797398 0.046283782 8
2.6333821 0.10806996 0.046004545 8
2.6257327 0.09903454 0.045864921 8
2.6400523 0.090347737 0.046109259 8
2.6383529 0.081070825 0.046074353 8
2.6406312 0.071453646 0.046109259 8
2.6308582 0.062459826 0.045934737 8
2.6210637 0.053072926 0.045760211 8
2.6272309 0.044024438 0.045864921 8
2.6353729 0.034498893 0.046004545 8
2.6294739 0.025701383 0.045899831 8
2.6215491 0.016472945 0.045760211 8
2.6075914 0.0077372226 0.045515876 8
2.6136012 -0.0018246381 0.04562059 8
2.6115816 -0.010483615 0.045585688 8
2.6175277 -0.019644693 0.045690399 8
2.6094449 -0.028693501 0.045550782 8
2.6013243 -0.03814014 0.045411162 8
2.6031747 -0.047256514 0.045446068 8
2.610991 -0.056516107 0.045585688 8
2.6087787 -0.065579563 0.045550782 8
2.5905437 -0.074170426 0.045236636 8
2.5922678 -0.083276853 0.045271542 8
2.5939598 -0.092396252 0.045306448 8
2.5976176 -0.10160661 0.045376256 8
2.5972471 -0.11067338 0.045376256 8
2.5848804 -0.11873498 0.045166828 8
2.5784583 -0.127461 0.045062114 8
2.5760009 -0.13635501 0.045027211 8
2.5834696 -0.14624768 0.045166828 8
2.5829706 -0.15481398 0.045166828 8
2.5764275 -0.16344947 0.045062114 8
2.5698557 -0.17204119 0.044957399 8
2.571234 -0.18115112 0.044992302 8
2.5725803 -0.19027282 0.045027211 8
2.5778816 -0.199715 0.045131925 8
2.5672033 -0.2079052 0.044957399 8
2.5584912 -0.21619163 0.044817779 8
2.5577602 -0.2246747 0.044817779 8
2.5609431 -0.23396544 0.044887587 8
2.568074 -0.24365893 0.045027211 8
2.5552235 -0.25189266 0.044817779 8
2.5443819 -0.25979492 0.044643257 8
2.5534024 -0.2697252 0.044817779 8
2.5485182 -0.27775779 0.044747971 8
2.5554817 -0.28754649 0.044887587 8
2.5445306 -0.29531237 0.044713065 8
2.5395131 -0.3037177 0.044643257 8
2.5324833 -0.31184724 0.044538539 8
2.5432825 -0.32219326 0.044747971 8
2.5521152 -0.33191481 0.044922493 8
2.5291381 -0.3379083 0.044538539 8
2.5259619 -0.34646291 0.044503637 8
2.5266552 -0.35599765 0.044538539 8
2.5293555 -0.36538699 0.044608355 8
2.5359771 -0.37538511 0.044747971 8
2.524766 -0.3827365 0.044573449 8
2.6863246 0.23171718 0.14130709 9
2.669203 0.22085577 0.14036505 9
2.6859229 0.21233095 0.14120242 9
2.6926227 0.20340468 0.14151645 9
2.6793714 0.19299923 0.14078373 9
2.6720264 0.18356733 0.14036505 9
2.6606927 0.1734588 0.13973701 9
2.6612821 0.16416948 0.13973701 9
2.6658266 0.15511146 0.13994636 9
2.6623886 0.14512159 0.13973701 9
2.6509111 0.13521734 0.13910899 9
2.6433649 0.12604587 0.13869029 9
2.6557605 0.11734631 0.13931833 9
2.652144 0.10837503 0.13910899 9
2.6445227 0.098820142 0.13869029 9
2.6408594 0.089452505 0.13848096 9
2.6331699 0.079991609 0.13806225 9
2.6414194 0.071013652 0.13848096 9
2.6416512 0.061792243 0.13848096 9
2.6458445 0.052650809 0.13869029 9
2.6300361 0.043153197 0.13785292 9
2.6221826 0.033869766 0.13743424 9
2.6302733 0.024791028 0.13785292 9
2.6303411 0.016067864 0.13785292 9
2.6323786 0.0068906909 0.1379576 9
2.6184058 -0.0022849904 0.1372249 9
2.6103928 -0.011390059 0.1368062 9
2.6183262 -0.020564705 0.1372249 9
2.6202352 -0.029726902 0.13732956 9
2.6241028 -0.039390299 0.1375389 9
2.6099708 -0.048291244 0.1368062 9
2.6017992 -0.057225782 0.13638751 9
2.6015837 -0.066307403 0.13638751 9
2.6133149 -0.075735368 0.13701554 9
2.6130345 -0.084857076 0.13701554 9
2.6007466 -0.093547001 0.13638751 9
2.5884302 -0.10215216 0.13575949 9
2.5980544 -0.11116204 0.13628285 9
2.5996456 -0.1203226 0.13638751 9
2.6051943 -0.12969425 0.13670154 9
2.5827868 -0.13761832 0.13555014 9
2.5822906 -0.14663309 0.13555014 9
2.5857503 -0.15588644 0.13575949 9
2.5951567 -0.16554719 0.13628285 9
2.586592 -0.17406859 0.13586415 9
2.5740149 -0.18225001 0.13523613 9
2.5673876 -0.19078985 0.1349221 9
2.5667059 -0.19975054 0.1349221 9
2.573956 -0.20935649 0.13534079 9
2.581208 -0.21856493 0.13575949 9
2.5684922 -0.22652093 0.13513145 9
2.5597301 -0.23475564 0.13471277 9
2.566848 -0.24444671 0.13513145 9
2.5659349 -0.25385302 0.13513145 9
2.5690072 -0.26321542 0.13534079 9
2.5641475 -0.2713128 0.13513145 9
2.5512724 -0.27895916 0.13450342 9
2.5542524 -0.28831109 0.13471277 9
2.5552144 -0.29745632 0.13481744 9
2.5601094 -0.30708742 0.13513145 9
2.5471289 -0.31455329 0.13450342 9
2.542109 -0.32249543 0.13429408 9
2.5449288 -0.33188367 0.13450342 9
2.5516729 -0.34182578 0.1349221 9
2.5544214 -0.35127491 0.13513145 9
2.5372961 -0.35840023 0.13429408 9
2.5320761 -0.36668235 0.13408473 9
2.5347321 -0.37610504 0.13429408 9
2.537353 -0.38555065 0.13450342 9
2.5459285 -0.39549568 0.13502678 9
2.5307248 -0.40218586 0.13429408 9
2.5194485 -0.40941548 0.13377072 9
2.5278554 -0.4198437 0.13429408 9
2.5262997 -0.42910591 0.13429408 9
2.6735263 0.18273154 0.23444894 10
2.6721597 0.17326973 0.23427464 10
2.6587992 0.16355182 0.23305444 10
2.6593809 0.15380505 0.23305444 10
2.6638806 0.1447379 0.23340309 10
2.6603899 0.13523532 0.23305444 10
2.6608458 0.12594856 0.23305444 10
2.6493263 0.11613548 0.23200859 10
2.6496968 0.10734989 0.23200859 10
2.6500554 0.098099366 0.23200859 10
2.6483748 0.089244343 0.23183426 10
2.6466928 0.079476498 0.23165996 10
2.6409791 0.070079342 0.23113704 10
2.6312482 0.060631234 0.23026547 10
2.6354189 0.05198323 0.2306141 10
2.6435599 0.04245213 0.23131134 10
2.643692 0.03322342 0.23131134 10
2.635823 0.023923237 0.2306141 10
2.627918 0.015137022 0.22991684 10
2.6259627 0.0059585646 0.22974254 10
2.6259673 -0.0032082261 0.22974254 10
2.6339097 -0.012412098 0.23043977 10
2.6179154 -0.021018421 0.22904527 10
2.6178207 -0.030613421 0.22904527 10
2.615706 -0.039720885 0.22887097 10
2.6195269 -0.049382765 0.2292196 10
2.6233325 -0.058157474 0.22956821 10
2.6111634 -0.067007594 0.22852236 10
2.60693 -0.076005705 0.22817372 10
2.6026661 -0.084975101 0.22782511 10
2.6023538 -0.094059579 0.22782511 10
2.6079819 -0.10337967 0.22834805 10
2.6016338 -0.112225 0.22782511 10
2.5872948 -0.12065603 0.22660492 10
2.5968299 -0.12973221 0.22747649 10
2.5983264 -0.1393559 0.22765081 10
2.5998132 -0.14853853 0.22782511 10
2.5873466 -0.15688916 0.22677925 10
2.5828354 -0.16521385 0.22643061 10
2.5882065 -0.174631 0.22695355 10
2.581619 -0.18324126 0.22643061 10
2.5889113 -0.19284368 0.22712786 10
2.5782907 -0.20110483 0.22625631 10
2.573601 -0.20977975 0.22590767 10
2.5748384 -0.21893083 0.226082 10
2.5800126 -0.22844456 0.22660492 10
2.5752728 -0.23663434 0.22625631 10
2.5624881 -0.24493408 0.22521043 10
2.5556693 -0.25328785 0.2246875 10
2.5606697 -0.26326445 0.22521043 10
2.5657263 -0.27238551 0.22573337 10
2.5687208 -0.28177437 0.226082 10
2.5558937 -0.28894812 0.22503611 10
2.5489326 -0.29717594 0.2245132 10
2.5439234 -0.30559626 0.22416456 10
2.5547051 -0.31594157 0.22521043 10
2.5634687 -0.32611442 0.226082 10
2.5445349 -0.33273563 0.2245132 10
2.5394681 -0.34064201 0.22416456 10
2.5401764 -0.35021946 0.22433887 10
2.5507748 -0.36075824 0.22538476 10
2.5416129 -0.36851633 0.2246875 10
2.5363698 -0.37680045 0.22433887 10
2.5330691 -0.38535205 0.22416456 10
2.5336773 -0.39449829 0.22433887 10
2.5322847 -0.4033401 0.22433887 10
2.5289667 -0.41141528 0.22416456 10
2.5313728 -0.42133591 0.2245132 10
2.5181012 -0.42816556 0.22346732 10
2.5244434 -0.43831611 0.22416456 10
2.5268219 -0.44782081 0.2245132 10
2.5272036 -0.45699283 0.2246875 10
2.5177557 -0.46436617 0.22399026 10
2.5063291 -0.47131085 0.22311871 10
2.5007551 -0.47930664 0.22277008 10
2.6705186 0.13481568 0.32831606 11
2.6634417 0.11628853 0.32734108 11
2.6638315 0.10699122 0.32734108 11
2.6562366 0.097865246 0.32636613 11
2.6486261 0.088327289 0.32539117 11
2.6509023 0.07914111 0.32563493 11
2.6551435 0.06952779 0.3261224 11
2.6593285 0.06081266 0.32660985 11
2.6396773 0.051145509 0.32417247 11
2.6338851 0.041836977 0.32344127 11
2.6399758 0.032255102 0.32417247 11
2.644038 0.023536319 0.32465994 11
2.644104 0.014306055 0.32465994 11
2.6282568 0.0055038244 0.32271007 11
2.6183333 -0.0041128714 0.32149133 11
2.6302159 -0.012853762 0.32295379 11
2.6361101 -0.022084741 0.32368499 11
2.6280773 -0.031192116 0.32271007 11
2.6219907 -0.040731784 0.32197884 11
2.6079392 -0.049619656 0.32027265 11
2.6236269 -0.059080284 0.32222256 11
2.619436 -0.068134852 0.32173508 11
2.6231506 -0.077395059 0.32222256 11
2.6089764 -0.086092807 0.32051641 11
2.5987411 -0.094837338 0.3192977 11
2.606328 -0.10422534 0.32027265 11
2.6059484 -0.11332248 0.32027265 11
2.6055584 -0.12196349 0.32027265 11
2.5971866 -0.13065889 0.3192977 11
2.5887859 -0.13929734 0.31832278 11
2.5882578 -0.14878477 0.31832278 11
2.6036017 -0.15833087 0.32027265 11
2.5931282 -0.16678111 0.31905395 11
2.5905497 -0.17569751 0.31881022 11
2.582 -0.18417417 0.31783527 11
2.5734231 -0.19259331 0.31686032 11
2.5905466 -0.20297061 0.31905395 11
2.5819087 -0.21136419 0.31807902 11
2.5712655 -0.21953112 0.31686032 11
2.5705233 -0.22805652 0.31686032 11
2.5657582 -0.23666325 0.31637284 11
2.5787489 -0.24694259 0.31807902 11
2.575851 -0.25619602 0.31783527 11
2.5670426 -0.26437244 0.31686032 11
2.5582082 -0.27249044 0.31588537 11
2.5553174 -0.28075549 0.31564164 11
2.5641842 -0.29079193 0.31686032 11
2.5690684 -0.30043256 0.31759155 11
2.556179 -0.30797371 0.31612909 11
2.5452383 -0.3156729 0.31491041 11
2.548059 -0.32505792 0.31539789 11
2.5509036 -0.33402127 0.31588537 11
2.5536571 -0.34345278 0.31637284 11
2.5347447 -0.34992141 0.31417918 11
2.5334451 -0.35920936 0.31417918 11
2.5341406 -0.36833611 0.31442294 11
2.6593852 0.087756813 0.42143452 12
2.6461098 0.068829112 0.41924441 12
2.6463339 0.059592601 0.41924441 12
2.650476 0.050429262 0.41987014 12
2.650636 0.041177623 0.41987014 12
2.6428626 0.03182907 0.41861868 12
2.6212292 0.022418285 0.41517711 12
2.6331413 0.01378844 0.41705433 12
2.6331732 0.0045962767 0.41705433 12
2.6331732 -0.0045957584 0.41705433 12
2.6173384 -0.013704476 0.41455138 12
2.6093733 -0.022771657 0.41329992 12
2.6171789 -0.031976461 0.41455138 12
2.6091437 -0.041443199 0.41329992 12
2.622808 -0.050818421 0.41549 12
2.604841 -0.059566978 0.41267416 12
2.5967185 -0.068450987 0.4114227 12
2.6043618 -0.077750593 0.41267416 12
2.6080229 -0.086972721 0.41329992 12
2.6077034 -0.096075892 0.41329992 12
2.5994573 -0.1048594 0.41204843 12
2.5931745 -0.11322044 0.41110981 12
2.5927634 -0.12227163 0.41110981 12
2.5962667 -0.13152121 0.41173556 12
2.5898745 -0.14026257 0.41079697 12
2.5933132 -0.14952949 0.4114227 12
2.5789735 -0.15773679 0.40923262 12
2.5902348 -0.16750294 0.41110981 12
2.5837221 -0.1761405 0.41017124 12
2.5870321 -0.18544076 0.41079697 12
2.5725803 -0.19343328 0.40860689 12
2.5679505 -0.20210211 0.40798113 12
