# .PCD v0.7 - Point Cloud Data file format
VERSION 0.7
FIELDS x y z intensity
SIZE 4 4 4 4
TYPE F F F F
COUNT 1 1 1 1
WIDTH 483
HEIGHT 1
VIEWPOINT 0 0 0 1 0 0 0
POINTS 483
DATA ascii
2.8475645 0.85322672 -0.26007274 5
2.8715413 0.84949946 -0.26199016 5
2.8552182 0.83438432 -0.26024702 5
2.8561995 0.82385981 -0.26007274 5
2.8435867 0.81001627 -0.25867823 5
2.8463964 0.80008596 -0.25867823 5
2.8536332 0.80104542 -0.15533313 6
2.8530116 0.79121071 -0.25902686 5
2.8525622 0.79001403 -0.1551238 6
2.8634431 0.78335077 -0.25972411 5
2.8610826 0.78163016 -0.1554378 6
2.8507714 0.76919758 -0.25832963 5
2.8657219 0.7721585 -0.15554248 6
2.8380361 0.75514263 -0.25693512 5
2.8664699 0.76163697 -0.1554378 6
2.8702319 0.76156563 -0.051833645 7
2.8522177 0.74826556 -0.25798097 5
2.8536544 0.74757797 -0.15460044 6
2.8650038 0.75001687 -0.051694028 7
2.8509545 0.73730642 -0.25763237 5
2.8483827 0.73611242 -0.15418173 6
2.8559871 0.73701286 -0.051484596 7
2.8533838 0.72784883 -0.25763237 5
2.850935 0.72616446 -0.15418173 6
2.8584154 0.72753859 -0.051484596 7
2.8480532 0.7164377 -0.25693512 5
2.8572011 0.7176801 -0.15439108 6
2.8530543 0.71610767 -0.05134498 7
2.8349428 0.70315272 -0.25554064 5
2.8556883 0.70724028 -0.15418173 6
2.8477712 0.70422608 -0.051205363 7
2.8372223 0.69688892 0.050995931 8
2.8451214 0.69514477 -0.25623786 5
2.8542588 0.69632167 -0.1539724 6
2.8579838 0.69617355 -0.05134498 7
2.8435247 0.68792188 0.051065743 8
2.8485618 0.6859839 -0.35975835 4
2.8514054 0.68614072 -0.25658652 5
2.8450198 0.68355519 -0.15334436 6
2.8603964 0.6861937 -0.05134498 7
2.8439634 0.67752773 0.051030833 8
2.8412814 0.67374557 -0.35853964 4
2.8537829 0.67618394 -0.25658652 5
2.8473887 0.67361933 -0.15334436 6
2.8472052 0.67252654 -0.051065743 7
2.8443644 0.66714036 0.050995931 8
2.8436158 0.66382408 -0.35853964 4
2.840719 0.66210097 -0.25519201 5
2.8497226 0.66367656 -0.15334436 6
2.8456402 0.66167736 -0.050995931 7
2.8447275 0.656757 0.050961025 8
2.8590064 0.65900254 0.15376306 9
2.8497853 0.6547823 -0.35902712 4
2.8352447 0.65039963 -0.25449476 5
2.8521361 0.65322661 -0.15334436 6
2.8479323 0.65174073 -0.050995931 7
2.8315146 0.64278525 0.050681788 8
2.8593411 0.64857745 0.15365838 9
2.848181 0.64395577 -0.35853964 4
2.8374979 0.64049804 -0.25449476 5
2.8466055 0.64151108 -0.15292569 6
2.8501904 0.64179486 -0.050995931 7
2.8414371 0.63513619 0.050821409 8
2.8439336 0.63517308 0.15271634 9
2.8386745 0.6319198 -0.35707721 4
2.8434961 0.63195008 -0.25484338 5
2.838968 0.62990391 -0.15240233 6
2.8523028 0.63234037 -0.050995931 7
2.8435276 0.62571073 0.050821409 8
2.8461332 0.62524265 0.15271634 9
2.8292284 0.61945891 -0.35561478 4
2.8456845 0.6220212 -0.25484338 5
2.8429923 0.62091285 -0.15250699 6
2.8466773 0.6206767 -0.050856311 7
2.8456941 0.61578172 0.050821409 8
2.8482988 0.61530322 0.15271634 9
2.8391361 0.61124974 -0.35658973 4
2.8361514 0.6095714 -0.25379753 5
2.8491547 0.61132723 -0.15271634 6
2.8410056 0.60905868 -0.050716694 7
2.8401079 0.60368383 0.050681788 8
2.8505347 0.60486019 0.15271634 9
2.8339443 0.6008231 0.2534489 10
2.8394151 0.60042965 -0.35634598 4
2.8304646 0.59801948 -0.25310028 5
2.8512714 0.60137737 -0.15271634 6
2.8432188 0.59864247 -0.050716694 7
2.8304536 0.59131336 0.05047236 8
2.856539 0.59572101 0.15292569 9
2.8340738 0.59052128 0.25327459 10
2.843437 0.59091908 -0.35658973 4
2.8364363 0.58894771 -0.2534489 5
2.84553 0.58980006 -0.15229765 6
2.8452911 0.58871335 -0.050716694 7
2.8364182 0.58223307 0.050542168 8
2.8428464 0.58303559 0.1520883 9
2.8439255 0.58222252 0.25397182 10
2.8338127 0.57860649 -0.35512727 4
2.8365226 0.57864416 -0.25327459 5
2.8358293 0.57747179 -0.15166962 6
2.8550658 0.58087003 -0.050856311 7
2.8402934 0.57322013 0.050577074 8
2.8331165 0.57074261 0.15146028 9
2.8557069 0.57425499 0.25484338 10
2.8240385 0.5668627 -0.35366488 4
2.842432 0.56952274 -0.25362319 5
2.8396866 0.56845719 -0.15177429 6
2.8413887 0.56776643 -0.050577074 7
2.8363922 0.56213653 0.05047236 8
2.8429289 0.56239939 0.15187897 9
2.8400044 0.56130582 0.25327459 10
2.8337903 0.55853617 -0.3546398 4
2.8247566 0.55624354 -0.25188008 5
2.8416538 0.55854064 -0.15177429 6
2.8394284 0.55707389 -0.050507262 7
2.8285229 0.55032194 0.050297838 8
2.8448746 0.55247289 0.15187897 9
2.8341227 0.54987162 0.25257733 10
2.8570647 0.5532881 0.35732093 11
2.8396206 0.54939574 -0.35512727 4
2.8208125 0.54524612 -0.25135714 5
2.8494697 0.54975373 -0.1520883 6
2.8452833 0.54791462 -0.050577074 7
2.8206058 0.53856921 0.050123312 8
2.8507097 0.54328609 0.1520883 9
2.8379822 0.54034722 0.25275165 10
2.8376207 0.53873897 -0.3546398 4
2.8305285 0.5368821 -0.25205442 5
2.8297849 0.53571647 -0.1509369 6
2.8393185 0.53649485 -0.050437454 7
2.8263993 0.52945715 0.050193124 8
2.8447359 0.53186435 0.15166962 9
2.8418097 0.53080398 0.25292596 10
2.8393915 0.52932668 0.3546398 11
2.8277748 0.52665043 -0.3531774 4
2.836303 0.52772659 -0.25240302 5
2.8277102 0.52510667 -0.15072757 6
2.8490388 0.5280388 -0.050577074 7
2.8321638 0.52030981 0.050262932 8
2.8249652 0.51796943 0.15051822 9
2.8416855 0.52052122 0.25275165 10
2.8392692 0.51905578 0.3543961 11
2.8159263 0.51427913 -0.35147122 4
2.8381279 0.51782203 -0.25240302 5
2.8393509 0.51702118 -0.15125093 6
2.8390598 0.51594585 -0.050367646 7
2.8339624 0.51042253 0.050262932 8
2.8306875 0.50881124 0.15072757 9
2.8317187 0.50848645 0.2517058 10
2.8508337 0.5108918 0.35561478 11
2.8313825 0.50689602 -0.3531774 4
2.8281503 0.505808 -0.25135714 5
2.8313072 0.5053528 -0.15072757 6
2.825094 0.50322634 -0.050088406 7
2.8219423 0.49809313 0.050018597 8
2.8362932 0.50011444 0.1509369 9
2.8295517 0.49790883 0.25135714 10
2.8443878 0.50000632 -0.45741442 3
2.846734 0.49990797 0.35488355 11
2.8292241 0.49632415 -0.35268989 4
2.8387253 0.49799091 0.45647582 12
2.8181241 0.49386853 -0.25031129 5
2.8369884 0.49615532 -0.1509369 6
2.8346267 0.49523103 -0.050228026 7
2.8117561 0.48668543 0.049809169 8
2.8380215 0.49021283 0.1509369 9
2.8312726 0.48802805 0.25135714 10
2.8285103 0.4875519 -0.45459861 3
2.8405507 0.48911825 0.3539086 11
2.8347676 0.48761165 -0.3531774 4
2.8237579 0.48470455 -0.25065991 5
2.8366501 0.48640651 -0.15083225 6
2.8402798 0.48600984 -0.050297838 7
2.8252676 0.47887188 0.050018597 8
2.8278999 0.47830406 0.15030889 9
2.8368049 0.4792996 0.2517058 10
2.826299 0.47701865 -0.45397288 3
2.8304963 0.47721902 0.35244617 11
2.824707 0.47573459 -0.35171497 4
2.8292794 0.47599828 -0.25100854 5
2.8343914 0.47583964 -0.15062289 6
2.8518202 0.47774363 -0.05047236 7
2.8308673 0.4696635 0.050088406 8
2.8216703 0.46712434 0.14989018 9
2.8345287 0.46874622 0.25135714 10
2.8279471 0.46714938 -0.45397288 3
2.8282278 0.46668866 0.35195872 11
2.8165567 0.4642593 -0.35049626 4
2.8289578 0.46579489 -0.25083423 5
2.8360345 0.4659448 -0.15062289 6
2.8337374 0.46455026 -0.050123312 7
2.8344636 0.46009871 0.050123312 8
2.8232837 0.45727262 0.14989018 9
2.8302474 0.45789364 0.25083423 10
2.8295605 0.45727441 -0.45397288 3
2.8415976 0.45871219 0.35342112 11
2.8279593 0.45600417 -0.35171497 4
2.8207314 0.45433223 -0.24996266 5
2.8179243 0.45287248 -0.14957617 6
2.8274436 0.45338994 -0.049983691 7
2.8261774 0.4486348 0.049948789 8
2.8288081 0.44803888 0.15009953 9
2.8239567 0.4467667 0.25013697 10
2.8233345 0.44616318 -0.45272139 3
2.8431816 0.4487896 0.35342112 11
2.8295338 0.4461306 -0.35171497 4
2.8144274 0.44324538 -0.24926542 5
2.8332996 0.44520277 -0.15030889 6
2.8369114 0.44475573 -0.050123312 7
2.8138936 0.43661982 0.049704451 8
2.8343024 0.43877345 0.15030889 9
2.8294373 0.43751469 0.2504856 10
2.8131618 0.4344953 -0.4508442 3
2.8368833 0.43765223 0.35244617 11
2.8271499 0.43564555 -0.35122749 4
2.8238342 0.4346301 -0.24996266 5
2.8170691 0.43258232 -0.14936683 6
2.8384466 0.4348509 -0.050123312 7
2.8233092 0.42799297 0.049844075 8
2.8219931 0.42678723 0.14957617 9
2.8309474 0.42763469 0.2504856 10
2.8185678 0.42526293 -0.45146993 3
2.8285792 0.42626855 0.35122749 11
2.8247275 0.42518258 -0.35073999 4
2.8213935 0.4241786 -0.24961405 5
2.8126364 0.42185676 -0.14905281 6
2.8478575 0.42612445 -0.050262932 7
2.8267639 0.41842851 0.049878977 8
2.8195138 0.41634971 0.14936683 9
2.8324227 0.41775084 0.2504856 10
2.8200352 0.41542098 -0.45146993 3
2.8300498 0.41639164 0.35122749 11
2.8144104 0.41358876 -0.34927759 4
2.8267996 0.4149054 -0.24996266 5
2.83583 0.41521975 -0.15020421 6
2.8295407 0.41329014 -0.049913883 7
2.8262284 0.40827349 0.049844075 8
2.8249037 0.40707558 0.14957617 9
2.8259752 0.40672657 0.24978836 10
2.8214681 0.40557393 -0.45146993 3
2.8413107 0.40792149 0.35244617 11
2.8236969 0.40488973 -0.35025251 4
2.8203421 0.40390497 -0.24926542 5
2.833308 0.4047527 -0.14999487 6
2.8171082 0.40143654 -0.049669549 7
2.8177352 0.39701119 0.049669549 8
2.8263075 0.39721158 0.14957617 9
2.8214586 0.39602935 0.24926542 10
2.8228664 0.39572325 -0.45146993 3
2.8387856 0.39744973 0.35195872 11
2.817229 0.39393172 -0.34927759 4
2.8138416 0.39295605 -0.24856818 5
2.8386598 0.39541182 -0.15020421 6
2.8244345 0.39242536 -0.049774267 7
2.8131607 0.38635606 0.049564835 8
2.835592 0.38842836 0.14999487 9
2.8169019 0.3853673 0.24874248 10
2.8085732 0.38372722 -0.44896698 3
2.834255 0.38673356 0.35122749 11
2.822521 0.38463068 -0.34976503 4
2.8151965 0.38313079 -0.24856818 5
2.8281479 0.38388938 -0.14957617 6
2.8337133 0.38363755 -0.049913883 7
2.8144925 0.37653318 0.049564835 8
2.8210926 0.37641397 0.14915749 9
2.8340294 0.37763664 0.25013697 10
2.8177278 0.37496537 -0.45021844 3
2.823781 0.37526798 0.34976503 11
2.8140073 0.37346932 -0.34854636 4
2.8184912 0.37356526 -0.24874248 5
2.8255105 0.37349069 -0.14936683 6
2.8310704 0.37322026 -0.049844075 7
2.8237212 0.36774004 0.049704451 8
2.8184285 0.36604899 0.14894815 9
2.8313787 0.36722982 0.24978836 10
2.8229375 0.36563408 -0.4508442 3
2.8329484 0.36642662 0.35073999 11
2.819231 0.36415353 -0.34903383 4
2.8316343 0.36525318 -0.24978836 5
2.826797 0.36362615 -0.14936683 6
2.8244221 0.36231717 -0.049704451 7
2.8249876 0.35788041 0.049704451 8
2.8196266 0.35670263 0.14894815 9
2.8247366 0.35634601 0.2490911 10
2.8241968 0.3557772 -0.4508442 3
2.8283017 0.35579428 0.35000879 11
2.8164842 0.35430765 -0.34854636 4
2.8091693 0.35239014 -0.24769662 5
2.8280492 0.35375583 -0.14936683 6
2.8137026 0.35146254 -0.049495026 7
2.8182204 0.34753206 0.049564835 8
2.8247583 0.34783921 0.14915749 9
2.8199701 0.34624904 0.24856818 10
2.8135967 0.34496942 -0.44896698 3
2.8373473 0.34737742 0.35098374 11
2.8294661 0.34641254 -0.35000879 4
2.8004336 0.34186736 -0.24682505 5
2.8292067 0.3443763 -0.14936683 6
2.8227928 0.34309429 -0.049634643 7
2.8094299 0.33699304 0.049390312 8
2.8299217 0.33845043 0.14936683 9
2.8191245 0.33665875 0.24839386 10
2.8029561 0.33423313 -0.44708973 3
2.8286278 0.33679363 0.34976503 11
2.8227732 0.33559555 -0.34903383 4
2.8095243 0.3330273 -0.24752231 5
2.8184328 0.33358315 -0.1487388 6
2.8239729 0.33324078 -0.049634643 7
2.8105888 0.32718617 0.049390312 8
2.8231502 0.32764834 0.14894815 9
2.8242977 0.32678246 0.24874248 10
2.812012 0.32486364 -0.44834125 3
2.8238704 0.32623363 0.34903383 11
2.8160391 0.32483223 -0.34805888 4
2.812649 0.32344511 -0.24769662 5
2.8116992 0.3223415 -0.14832011 6
2.8330662 0.32429016 -0.049774267 7
2.8157439 0.31732845 0.04946012 8
2.8123682 0.31645235 0.14832011 9
2.8274012 0.3171432 0.2489168 10
2.817055 0.31548622 -0.44896698 3
2.8191285 0.31522027 0.3483026 11
2.8132653 0.3140662 -0.3475714 4
2.819701 0.31428781 -0.24821955 5
2.8207479 0.31340635 -0.1487388 6
2.8222558 0.31307667 -0.049564835 7
2.8147926 0.30777392 0.049425215 8
2.8174267 0.30706546 0.14852946 9
2.8185873 0.30619648 0.24804525 10
2.8180859 0.306142 -0.44896698 3
2.8339732 0.30736753 0.35000879 11
2.8142912 0.30473593 -0.3475714 4
2.8088961 0.30315983 -0.24717368 5
2.8336859 0.30533507 -0.14936683 6
2.8153784 0.30236831 -0.049425215 7
2.8118727 0.29752502 0.049355406 8
2.822454 0.29764849 0.1487388 9
2.8116612 0.29601416 0.24734798 10
2.8112788 0.29547787 -0.44771552 3
2.8291059 0.29685238 0.34927759 11
2.8192863 0.29532456 -0.34805888 4
2.8020105 0.29252619 -0.24647643 5
2.8347342 0.2954424 -0.14936683 6
2.820395 0.29295146 -0.049495026 7
2.806926 0.28709677 0.049250688 8
2.8234758 0.2877937 0.1487388 9
2.8246207 0.28691563 0.24839386 10
2.8202043 0.28596842 -0.44896698 3
2.8242002 0.28637362 0.34854636 11
2.8203001 0.28548089 -0.34805888 4
2.8069792 0.28314272 -0.24682505 5
2.8199 0.28345317 -0.14852946 6
2.8253794 0.28350452 -0.049564835 7
2.8059695 0.27661142 0.049215786 8
2.8165607 0.27666286 0.14832011 9
2.8216391 0.2766645 0.24804525 10
2.8134246 0.27437195 -0.3470839 4
2.8079505 0.27334338 -0.24682505 5
2.8089449 0.27245051 -0.14790143 6
2.8343611 0.27391714 -0.049704451 7
2.820853 0.26813892 0.04946012 8
2.809556 0.26607558 0.14790143 9
2.8225877 0.26681271 0.24804525 10
2.8064597 0.26380575 -0.34610897 4
2.8108711 0.26372686 -0.24699937 5
2.8218102 0.2637583 -0.14852946 6
2.8153894 0.26216689 -0.049355406 7
2.8217719 0.25829127 0.04946012 8
2.8144009 0.25712126 0.14811078 9
2.8115969 0.25587556 0.24699937 10
2.8152714 0.25472385 -0.3470839 4
2.7978845 0.25265843 -0.24577919 5
2.8187356 0.25354949 -0.14832011 6
2.8202267 0.25318745 -0.049425215 7
2.8046851 0.24735197 0.049145978 8
2.8232393 0.24799526 0.14852946 9
2.8124728 0.24605894 0.24699937 10
2.8141229 0.24521491 -0.3468402 4
2.7987492 0.24289103 -0.24577919 5
2.8354793 0.24558008 -0.14915749 6
2.8171086 0.24299836 -0.049355406 7
2.8015463 0.23722211 0.049076166 8
2.8240879 0.23813805 0.14852946 9
2.8132734 0.23673165 0.24699937 10
2.8248529 0.23621665 -0.34805888 4
2.7995801 0.23311932 -0.24577919 5
2.8084536 0.23336469 -0.14769208 6
2.8259115 0.23382218 -0.049495026 7
2.8023572 0.22744204 0.049076166 8
2.8209205 0.22795621 0.14832011 9
2.8180938 0.22673909 0.24734798 10
2.8003769 0.2233448 -0.24577919 5
2.8053081 0.22275406 -0.14748274 6
2.8227232 0.22363983 -0.049425215 7
2.8131406 0.21794225 0.049250688 8
2.8018236 0.21608035 0.14727339 9
2.8248277 0.21735854 0.24787092 10
2.8090858 0.21417612 -0.24647643 5
2.8100514 0.21326189 -0.14769208 6
2.8115602 0.21238939 -0.049215786 7
2.817873 0.20841549 0.049320504 8
2.814512 0.2071792 0.14790143 9
2.813647 0.20662183 0.24682505 10
2.7978935 0.20350134 -0.24543057 5
2.8267152 0.2046058 -0.14852946 6
2.8122845 0.20257317 -0.049215786 7
2.80462 0.1975935 0.049076166 8
2.8152182 0.19735405 0.14790143 9
2.8103762 0.19652039 0.24647643 10
2.7906363 0.19318382 -0.24473332 5
2.8154571 0.19391331 -0.14790143 6
2.8089843 0.19248374 -0.049145978 7
2.7953162 0.18713507 0.048901644 8
2.8158898 0.18752514 0.14790143 9
2.8070691 0.18644565 0.24612781 10
2.7992461 0.1839634 -0.24543057 5
2.8161168 0.18408495 -0.14790143 6
2.8136301 0.18293612 -0.049215786 7
2.8018775 0.17873354 0.049006358 8
2.8084919 0.17817256 0.14748274 9
2.8136063 0.17800267 0.24665076 10
2.8236721 0.17666185 -0.24752231 5
2.8047206 0.17449205 -0.14727339 6
2.8181825 0.17434208 -0.049285594 7
2.8164568 0.16979501 0.049250688 8
2.8051093 0.16812961 0.14727339 9
2.8201768 0.16853742 0.24717368 10
2.8093004 0.16493538 -0.14748274 6
2.8067961 0.16380531 -0.049076166 7
2.8210254 0.16019005 0.049320504 8
2.8056791 0.15833619 0.14727339 9
2.8127909 0.15824507 0.24647643 10
2.8138745 0.15485646 -0.14769208 6
2.8073509 0.15400735 -0.049076166 7
2.8056183 0.14900027 0.049041264 8
2.8142185 0.14847331 0.14769208 9
2.8073831 0.14762002 0.24595349 10
2.8184125 0.14474756 -0.14790143 6
2.8078961 0.14371748 -0.049076166 7
2.800154 0.1384206 0.04893655 8
2.8147197 0.1386482 0.14769208 9
2.8039253 0.13713543 0.24560487 10
2.8029408 0.13414536 -0.14706406 6
2.8063836 0.13381922 -0.049041264 7
2.7985997 0.12904264 0.048901644 8
2.8111961 0.1286388 0.14748274 9
2.8123484 0.12770785 0.24630213 10
2.8053653 0.12493915 -0.14716873 6
2.8168223 0.12446291 -0.049215786 7
2.807025 0.11961271 0.049041264 8
2.7996347 0.11880965 0.14685471 9
2.8127565 0.11838163 0.24630213 10
2.8012354 0.11446737 -0.04893655 7
2.8094041 0.11038135 0.049076166 8
2.8080153 0.10934649 0.14727339 9
2.8031979 0.10817899 0.24543057 10
2.7976213 0.10454111 -0.048866738 7
2.7997801 0.10021829 0.048901644 8
2.8103762 0.099614024 0.14737807 9
2.7995586 0.098742753 0.24508193 10
2.8019662 0.094909593 -0.04893655 7
2.7981143 0.090379313 0.048866738 8
2.8047178 0.089612618 0.14706406 9
2.7939279 0.088290364 0.24455902 10
2.8142731 0.085493244 -0.049145978 7
2.796428 0.080066502 0.048831832 8
2.7970276 0.079593785 0.14664535 9
2.8061686 0.078874983 0.24560487 10
2.8046746 0.070994407 0.048971456 8
2.7972884 0.06983044 0.14664535 9
2.8029058 0.061159458 0.04893655 8
2.8054919 0.060727365 0.14706406 9
2.7970953 0.051753931 0.048831832 8
2.8056867 0.050933257 0.14706406 9
2.7932599 0.041930489 0.048762023 8
2.8058474 0.041138522 0.14706406 9
2.7913952 0.031668998 0.048727117 8
2.7939966 0.030723156 0.14643602 9
2.7940867 0.020970691 0.14643602 9
2.8021319 0.011248707 0.14685471 9
2.8101428 0.0019625805 0.14727339 9
2.806138 -0.0078362357 0.14706406 9
2.8040965 -0.017618889 0.14695938 9
