# .PCD v0.7 - Point Cloud Data file format
VERSION 0.7
FIELDS x y z intensity
SIZE 4 4 4 4
TYPE F F F F
COUNT 1 1 1 1
WIDTH 1072
HEIGHT 1
VIEWPOINT 0 0 0 1 0 0 0
POINTS 1072
DATA ascii
1.9058607 0.8089897 -0.25421947 4
1.9050126 0.80079395 -0.253732 4
1.9077966 0.79413885 -0.253732 4
1.8977098 0.78217977 -0.25202581 4
1.8974538 0.78168684 -0.17954083 5
1.8894007 0.77105075 -0.25056338 4
1.9038609 0.77656329 -0.17988946 5
1.8920809 0.76445037 -0.25056338 4
1.9084067 0.77066016 -0.18006375 5
1.8872337 0.75522125 -0.24958843 4
1.8888851 0.75511831 -0.17797202 5
1.893549 0.75009239 -0.25007591 4
1.8802642 0.74444926 -0.17692617 5
1.9259794 0.76177263 -0.10854478 6
1.8887637 0.74057907 -0.24910097 4
1.8865615 0.7393347 -0.17727478 5
1.9025894 0.74485111 -0.10707937 6
1.8876358 0.73254555 -0.24861349 4
1.8928453 0.73418719 -0.17762341 5
1.8884172 0.73171043 -0.10613733 6
1.8790628 0.72168118 -0.24715105 4
1.8916768 0.72614694 -0.17727478 5
1.8835001 0.72225404 -0.10571864 6
1.8815707 0.7151171 -0.24715105 4
1.8792995 0.71387964 -0.17588028 5
1.9065506 0.72346896 -0.10687003 6
1.8840553 0.70854527 -0.24715105 4
1.8780503 0.70591289 -0.17553167 5
1.9090643 0.71680987 -0.10687003 6
1.9172606 0.7191239 -0.035742529 7
1.8809355 0.69988799 -0.24641983 4
1.8805031 0.69935244 -0.17553167 5
1.8928323 0.70318669 -0.10582332 6
1.910385 0.70894873 -0.035568006 7
1.8757622 0.69126141 -0.31662342 3
1.8777782 0.69126099 -0.2456886 4
1.8829328 0.69278443 -0.17553167 5
1.8915262 0.69519669 -0.10561397 6
1.909094 0.70089716 -0.035498194 7
1.8781636 0.68470997 -0.31662342 3
1.8726001 0.68231148 -0.24471366 4
1.8815945 0.68484491 -0.17518303 5
1.8901873 0.68722534 -0.10540463 6
1.90389 0.6918301 -0.035358574 7
1.8897148 0.68182969 -0.31818774 3
1.8748523 0.67609829 -0.24471366 4
1.8726088 0.67454976 -0.17413718 5
1.8886971 0.67960042 -0.10519528 6
1.8986468 0.68280631 -0.035218958 7
1.8940686 0.67780203 0.035114244 8
1.852898 0.66161013 -0.31161749 3
1.8809404 0.670883 -0.24520114 4
1.8673286 0.66565973 -0.17343993 5
1.8984665 0.67601389 -0.10561397 6
1.9010186 0.67617506 -0.035218958 7
1.8813419 0.66584921 0.034835003 8
1.8570588 0.65579647 -0.31193036 3
1.879527 0.662992 -0.24471366 4
1.8658823 0.65781385 -0.17309129 5
1.8819764 0.66274828 -0.10456725 6
1.9033674 0.66953468 -0.035218958 7
1.8949795 0.66324115 0.035044432 8
1.8593367 0.64930958 -0.31193036 3
1.8668349 0.65119708 -0.24276376 4
1.8756927 0.65391976 -0.17378855 5
1.8767335 0.65354794 -0.10414857 6
1.9093541 0.66453409 -0.035288766 7
1.9047267 0.65957123 0.035184052 8
1.8577458 0.64184964 -0.31130463 3
1.8652309 0.64370799 -0.24227627 4
1.8741965 0.64607012 -0.17343993 5
1.8826668 0.64862245 -0.10435791 6
1.8927535 0.65135849 -0.034939718 7
1.901342 0.65097481 0.035079334 8
1.9124812 0.65404284 0.10592799 9
1.8674518 0.63791645 -0.31255612 3
1.8674667 0.63719273 -0.24227627 4
1.8687855 0.63727963 -0.17274268 5
1.8849196 0.64204627 -0.10435791 6
1.8950157 0.64474714 -0.034939718 7
1.8884497 0.63920528 0.034800097 8
1.9128605 0.64672285 0.10582332 9
1.854695 0.62633723 -0.31005314 3
1.8696793 0.63067055 -0.24227627 4
1.8634468 0.62820601 -0.17204544 5
1.8909349 0.63673788 -0.10456725 6
1.9010458 0.63940287 -0.035009526 7
1.8830841 0.63007092 0.034660477 8
1.9132116 0.63940996 0.10571864 9
1.8531222 0.61860871 -0.30942741 3
1.8718696 0.62413979 -0.24227627 4
1.8618482 0.62043732 -0.17169681 5
1.8817759 0.62634832 -0.10393922 6
1.9013685 0.63213259 -0.034974623 7
1.8871703 0.62412214 0.034695383 8
1.8983638 0.62708908 0.10477659 9
1.8552705 0.61213583 -0.30942741 3
1.858954 0.61263174 -0.24032637 4
1.8640023 0.61393487 -0.17169681 5
1.8725673 0.61603141 -0.10331119 6
1.9035633 0.62549216 -0.034974623 7
1.8912382 0.61815256 0.034730289 8
1.8929465 0.61797971 0.10435791 9
1.8536401 0.60443074 -0.30880168 3
1.8573062 0.60490906 -0.23983888 4
1.8699232 0.60865736 -0.17204544 5
1.8747064 0.60949063 -0.10331119 6
1.8829118 0.61143273 -0.034555767 7
1.8990933 0.61339051 0.034835003 8
1.8893899 0.60952824 0.10404389 9
1.8943708 0.61077017 0.17413718 10
1.8594987 0.59916866 -0.30942741 3
1.8594062 0.59842259 -0.23983888 4
1.8606563 0.59846646 -0.17099957 5
1.8806254 0.6041652 -0.10352053 6
1.8774184 0.60241205 -0.034416147 7
1.8878875 0.60250229 0.034590669 8
1.9009148 0.60629433 0.10456725 9
1.8775072 0.59810662 0.17239405 10
1.8502854 0.58907807 -0.30755019 3
1.8614838 0.59192878 -0.23983888 4
1.8551388 0.58955371 -0.17030232 5
1.8827227 0.5975973 -0.10352053 6
1.8832181 0.59739178 -0.034485955 7
1.8708049 0.59022146 0.034241624 8
1.9030194 0.59965563 0.10456725 9
1.9042901 0.59932441 0.17466012 10
1.8409231 0.57938135 -0.30567297 3
1.8710116 0.58813322 -0.24081384 4
1.8590864 0.58367169 -0.17047663 5
1.869449 0.58656675 -0.10268316 6
1.8891083 0.59201086 -0.034555767 7
1.876672 0.58487695 0.034311432 8
1.8860312 0.58707267 0.10352053 9
1.9024622 0.59182209 0.17431147 10
1.8467069 0.57412505 -0.3062987 3
1.8540952 0.57571143 -0.23837645 4
1.8648171 0.57868487 -0.17082524 5
1.8676699 0.5788545 -0.10247381 6
1.8911631 0.58541346 -0.034555767 7
1.8748796 0.57714736 0.034241624 8
1.8804328 0.57813734 0.10310185 9
1.844664 0.56714022 -0.3751305 2
1.9083252 0.58634931 0.17466012 10
1.8524766 0.5688346 -0.30692446 3
1.8939489 0.58120769 0.24325122 11
1.8522974 0.56807315 -0.23788899 4
1.8725407 0.57392293 -0.17134818 5
1.8658592 0.57116365 -0.10226447 6
1.8817211 0.57529998 -0.034346335 7
1.8787961 0.5711804 0.034276526 8
1.8861618 0.57305914 0.10331119 9
1.835361 0.55727577 -0.37284079 2
1.891295 0.57389867 0.17291699 10
1.8544511 0.56236428 -0.30692446 3
1.9206631 0.58207816 0.24641983 11
1.8504695 0.56045264 -0.2374015 4
1.8592771 0.562765 -0.16995369 5
1.8716652 0.56580251 -0.10247381 6
1.8721334 0.56558645 -0.034136906 7
1.8711042 0.56206989 0.034102004 8
1.8824111 0.56475115 0.10299717 9
1.8316535 0.54917371 -0.37169594 2
1.8894697 0.56614906 0.17256837 10
1.8449519 0.55281001 -0.30504724 3
1.9149761 0.57342839 0.24544489 11
1.8561217 0.55545086 -0.23788899 4
1.8555032 0.5545612 -0.16943076 5
1.8735313 0.55959219 -0.10247381 6
1.8779283 0.56019258 -0.034206714 7
1.8653859 0.55326194 0.033962384 8
1.8901162 0.55987817 0.10331119 9
1.8353468 0.54365468 -0.37207755 2
1.8913363 0.55988151 0.17256837 10
1.8392935 0.5441255 -0.30379578 3
1.9074481 0.56392592 0.2442262 11
1.8618563 0.5500946 -0.23837645 4
1.8592429 0.54896873 -0.16960508 5
1.8639793 0.54965895 -0.10184578 6
1.883709 0.55476332 -0.034276526 7
1.8634677 0.54562283 0.033892576 8
1.8805571 0.549914 0.10268316 9
1.8315803 0.5355922 -0.3709327 2
1.8971043 0.55439335 0.17291699 10
1.844974 0.53880888 -0.30442151 3
1.8922541 0.55225921 0.24203253 11
1.8523312 0.5402568 -0.23691402 4
1.8611479 0.54247493 -0.16960508 5
1.8658862 0.54315042 -0.10184578 6
1.8856338 0.54818499 -0.034276526 7
1.8730452 0.54133511 0.034032192 8
1.8728708 0.54057646 0.1021598 9
1.8258938 0.52701724 -0.36940622 2
1.8990279 0.54776734 0.17291699 10
1.8506396 0.53346008 -0.30504724 3
1.8960781 0.54619962 0.24227627 11
1.8427601 0.53049219 -0.23545158 4
1.9192603 0.55215228 0.31631052 12
1.8668594 0.53707707 -0.16995369 5
1.8639318 0.53553045 -0.10163644 6
1.8760031 0.5382899 -0.034067098 7
1.8691545 0.53314865 0.033927478 8
1.8824298 0.53622377 0.10257848 9
1.8163936 0.5174129 -0.36711654 2
1.8913471 0.53840804 0.17204544 10
1.8524904 0.52699727 -0.30504724 3
1.8998828 0.54012012 0.24252002 11
1.8484197 0.52514189 -0.23593907 4
1.8495563 0.52511603 -0.16821058 5
1.8696327 0.5301109 -0.10184578 6
1.8740227 0.53064799 -0.033997286 7
1.8671544 0.52553666 0.03385767 8
1.8822746 0.52943897 0.10247381 9
1.8219684 0.51213223 -0.36787975 2
1.8836242 0.52910817 0.17117387 10
1.8429075 0.51732391 -0.30317003 3
1.9036677 0.53402156 0.24276376 11
1.8501511 0.51900893 -0.23593907 4
1.9020516 0.53321016 0.31286895 12
1.8437041 0.51650631 -0.16751333 5
1.8714719 0.52358091 -0.10184578 6
1.8719205 0.52335417 -0.033927478 7
1.8650334 0.51827163 0.033787858 8
1.8859445 0.52372807 0.10257848 9
1.8274401 0.50713784 -0.36864299 2
1.8834485 0.52232689 0.17099957 10
1.829384 0.5069896 -0.30066708 3
1.8920364 0.52399749 0.24105757 11
1.855688 0.5139308 -0.23642655 4
1.9171361 0.53058851 0.31505907 12
1.8492473 0.51145208 -0.16786195 5
1.8654969 0.51524544 -0.10142709 6
1.8775009 0.51820725 -0.033997286 7
1.8609564 0.51049656 0.033683144 8
1.8819824 0.51555818 0.10226447 9
1.8310056 0.50159335 -0.36902463 2
1.8909354 0.51765591 0.1715225 10
1.8424871 0.50404829 -0.3025443 3
1.8918492 0.51719636 0.24081384 11
1.8459814 0.50431073 -0.23496412 4
1.8922973 0.51661009 0.31067887 12
1.8548657 0.50604218 -0.16821058 5
1.8517799 0.50485319 -0.10058971 6
1.8792982 0.5116508 -0.033997286 7
1.8685179 0.50556475 0.033787858 8
1.8683456 0.50481832 0.10142709 9
1.8195639 0.49129698 -0.36635327 2
1.8889728 0.50968421 0.17117387 10
1.8443223 0.49729139 -0.3025443 3
1.8936428 0.51058984 0.24081384 11
1.8400633 0.4957985 -0.23398916 4
1.8864594 0.50794667 0.30942741 12
1.8604687 0.50060022 -0.16855921 5
1.9300404 0.51895875 0.38848713 13
1.8536178 0.49806306 -0.10058971 6
1.8656228 0.50093871 -0.03371805 7
1.8761551 0.50025803 0.033892576 8
1.8720262 0.49880812 0.10153177 9
1.8174736 0.48393175 -0.36559007 2
1.8772627 0.49950072 0.16995369 10
1.8441378 0.49034321 -0.3022314 3
1.8935832 0.50313556 0.2405701 11
1.84562 0.49039152 -0.23447664 4
1.8824936 0.49983731 0.30848882 12
1.8506501 0.49103752 -0.16751333 5
1.9242495 0.51020539 0.38696066 13
1.8592066 0.4926123 -0.10079906 6
1.8596272 0.49237737 -0.033578429 7
1.8642662 0.49047342 0.033648241 8
1.8775333 0.49361265 0.10174111 9
1.8190683 0.4779025 -0.36559007 2
1.8750542 0.49226218 0.16960508 10
1.8285574 0.47971323 -0.29941559 3
1.9029218 0.49886742 0.24154507 11
1.8472359 0.4842689 -0.23447664 4
1.8822298 0.49309173 0.30817595 12
1.8445586 0.48287895 -0.16681609 5
1.9069374 0.49885324 0.3831445 13
1.8608301 0.4864437 -0.10079906 6
1.868989 0.48822907 -0.03371805 7
1.8581401 0.48227862 0.033508621 8
1.8811785 0.4875564 0.10184578 9
1.8206432 0.47186708 -0.36559007 2
1.8766766 0.48604107 0.16960508 10
1.830138 0.47364724 -0.29941559 3
1.8853472 0.48758358 0.23910768 11
1.8489151 0.47781828 -0.23447664 4
1.8839394 0.48651895 0.30817595 12
1.846233 0.47643685 -0.16681609 5
1.9123832 0.49350747 0.38390771 13
1.8508285 0.47727919 -0.10017103 6
1.866809 0.48070428 -0.033648241 7
1.8617498 0.47628468 0.033543523 8
1.8712579 0.47802219 0.10121775 9
1.8223604 0.46519133 -0.36559007 2
1.876515 0.47866651 0.16943076 10
1.8318616 0.46693665 -0.29941559 3
1.879343 0.47903955 0.23813272 11
1.837106 0.46793109 -0.23277046 4
1.889455 0.48091379 0.30880168 12
1.8478847 0.46999067 -0.16681609 5
1.9141791 0.48649538 0.38390771 13
1.8486941 0.46950862 -0.099961683 6
1.8684752 0.47418627 -0.033648241 7
1.865422 0.46994674 0.033578429 8
1.867187 0.46969739 0.10090373 9
1.8087417 0.45499527 -0.36253712 2
1.8801066 0.47259942 0.16960508 10
1.8334804 0.46053895 -0.29941559 3
1.8868625 0.47359657 0.23886393 11
1.8291814 0.45878041 -0.23155177 4
1.8835403 0.47206485 0.30755019 12
1.849514 0.46353698 -0.16681609 5
1.9196744 0.48076403 0.38467094 13
1.8503217 0.46305302 -0.099961683 6
1.8546805 0.46345508 -0.033369001 7
1.8670512 0.46343184 0.033578429 8
1.8668761 0.46269765 0.10079906 9
1.8141297 0.44962466 -0.36330032 2
1.877877 0.46507531 0.16925645 10
1.8408296 0.45555922 -0.30035421 3
1.8885039 0.46700862 0.23886393 11
1.8346261 0.45334446 -0.23203924 4
1.8755878 0.46311903 0.30598584 12
1.8472524 0.45612243 -0.16646746 5
1.9213407 0.47406152 0.38467094 13
1.855805 0.45754707 -0.10017103 6
1.9262223 0.4745518 0.45800033 14
1.8562868 0.45697948 -0.033369001 7
1.8570025 0.45406237 0.033369001 8
1.8762412 0.45807254 0.10121775 9
1.8118738 0.44235766 -0.36253712 2
1.8620683 0.45426798 0.16768765 10
1.8251359 0.44492054 -0.2975384 3
1.888194 0.45994335 0.23862019 11
1.8439126 0.44881508 -0.2330142 4
1.8829514 0.45797014 0.30692446 12
1.8410894 0.44778851 -0.16577022 5
1.9115376 0.46456954 0.38238126 13
1.8612728 0.45200852 -0.10038038 6
1.920292 0.46598735 0.45620075 14
1.8617575 0.45143905 -0.033438813 7
1.856632 0.4471097 0.033334095 8
1.7942411 0.43175268 -0.42605728 1
1.8739448 0.45058697 0.10100841 9
1.8172245 0.43694869 -0.36330032 2
1.8713915 0.44962755 0.16838489 10
1.8247572 0.43808529 -0.29722553 3
1.8820666 0.45149764 0.23764524 11
1.8377461 0.44052619 -0.23203924 4
1.8806964 0.45047382 0.3062987 12
1.8426414 0.44135869 -0.16577022 5
1.9016916 0.45515272 0.38009155 13
1.8472991 0.4417935 -0.099542998 6
1.9219069 0.45928091 0.45620075 14
1.8633221 0.44493708 -0.033438813 7
1.8562357 0.44016427 0.033299193 8
1.7900486 0.4241395 -0.42470759 1
1.8618248 0.44114637 0.1002757 9
1.8149178 0.4296976 -0.36253712 2
1.8748887 0.44355068 0.16855921 10
1.8243529 0.43125898 -0.29691264 3
1.8778356 0.44355577 0.23691402 11
1.8314693 0.43260378 -0.2310643 4
1.8821799 0.44423509 0.3062987 12
1.8364139 0.43309501 -0.16507298 5
1.9032688 0.4485113 0.38009155 13
1.8410537 0.43351096 -0.099124312 6
1.9082444 0.4493323 0.45260152 14
1.8686802 0.43967196 -0.033508621 7
1.8576853 0.43400583 0.033299193 8
1.7933427 0.41864449 -0.42515749 1
1.8593872 0.43406215 0.10006636 9
1.8010373 0.4201093 -0.35948417 2
1.8744088 0.43687806 0.16838489 10
1.8219249 0.42431107 -0.29628691 3
1.8773627 0.43687665 0.23667029 11
1.8251599 0.42472869 -0.23008935 4
1.8759465 0.43620107 0.30504724 12
1.8456026 0.42880684 -0.16577022 5
1.9162202 0.44486067 0.38238126 13
1.8463725 0.42830557 -0.099333659 6
1.8983339 0.44035912 0.44990209 14
1.8545436 0.42986089 -0.033229381 7
1.8610628 0.42829284 0.033334095 8
1.8004189 0.41400492 -0.4265072 1
1.8667308 0.42891032 0.10038038 9
1.8062476 0.41501334 -0.3602474 2
1.8603123 0.42709374 0.1669904 10
1.8310236 0.42003322 -0.2975384 3
1.8826709 0.43153515 0.23715776 11
1.8305014 0.41924095 -0.23057681 4
1.8716809 0.42832854 0.30410865 12
1.8354348 0.41969663 -0.16472435 5
1.913857 0.4376289 0.38161799 13
1.8477827 0.4221808 -0.099333659 6
1.9112587 0.43633282 0.45260152 14
1.8482345 0.42160532 -0.033089764 7
1.8547451 0.42002672 0.033194479 8
1.7999521 0.40728801 -0.42605728 1
1.8682166 0.42239198 0.10038038 9
1.8039262 0.40752545 -0.35948417 2
1.8579782 0.41939461 0.16664177 10
1.820989 0.41071209 -0.29566118 3
1.8783565 0.42365092 0.23642655 11
1.8319536 0.41284913 -0.23057681 4
1.8731648 0.42179203 0.30410865 12
1.8291136 0.41153738 -0.16402711 5
1.8962936 0.42630565 0.37780184 13
1.853215 0.41628048 -0.099542998 6
1.9090424 0.42847079 0.45170173 14
1.8535973 0.41602656 -0.033159573 7
1.8523684 0.41235733 0.033124667 8
1.7919217 0.39857212 -0.42380777 1
1.8716294 0.41630125 0.10048504 9
1.8091711 0.4020775 -0.3602474 2
1.8652657 0.41420352 0.16716471 10
1.8146977 0.40264112 -0.29440969 3
1.8740826 0.41547415 0.23569533 11
1.8334545 0.40613234 -0.23057681 4
1.876554 0.4156794 0.30442151 12
1.8344294 0.40601155 -0.16437572 5
1.8958533 0.41925934 0.37742022 13
1.8429552 0.40722474 -0.098914966 6
1.9105263 0.42180479 0.45170173 14
1.855038 0.40955415 -0.033159573 7
1.8537257 0.40621185 0.033124667 8
1.7837154 0.39054406 -0.42155826 1
1.8594135 0.40677714 0.099752344 9
1.8048095 0.39450252 -0.35910255 2
1.8667003 0.40768954 0.16716471 10
1.8198825 0.39746448 -0.29503542 3
1.8657529 0.40714052 0.23447664 11
1.819275 0.39666653 -0.22862691 4
1.8818538 0.40996692 0.30504724 12
1.8358357 0.39960524 -0.16437572 5
1.8991517 0.41338718 0.37780184 13
1.8286825 0.39771488 -0.098077588 6
1.9062016 0.41422585 0.45035201 14
1.8603648 0.40392444 -0.033229381 7
1.8570874 0.40015942 0.033159573 8
1.7850678 0.38431486 -0.42155826 1
1.8607521 0.40060925 0.099752344 9
1.7945917 0.38603848 -0.35681283 2
1.86999 0.40191522 0.16733903 10
1.821259 0.39110899 -0.29503542 3
1.8729851 0.40187597 0.23520786 11
1.8167669 0.38948098 -0.22813943 4
1.8638881 0.39958292 0.30191854 12
1.841047 0.39435014 -0.16472435 5
1.9121015 0.40922189 0.38009155 13
1.8378723 0.39299923 -0.098496281 6
1.8962016 0.40512601 0.44765261 14
1.8538718 0.39608216 -0.033089764 7
1.8603601 0.39441398 0.033194479 8
1.7958643 0.38041365 -0.42380777 1
1.862139 0.39411196 0.099752344 9
1.7940074 0.37936518 -0.35643122 2
1.8596855 0.39291364 0.16629316 10
1.822546 0.38506684 -0.29503542 3
1.8801345 0.39689228 0.23593907 11
1.8219328 0.38427389 -0.22862691 4
1.8652717 0.3930738 0.30191854 12
1.8307145 0.38545871 -0.16367848 5
1.9096057 0.40206936 0.37932828 13
1.8430743 0.38772517 -0.09870562 6
1.905163 0.40043855 0.44945222 14
1.8435009 0.38714305 -0.032880332 7
1.8519373 0.38587859 0.033019952 8
1.8009971 0.37493649 -0.42470759 1
1.8674142 0.38842243 0.099961683 9
1.7952558 0.37341344 -0.35643122 2
1.8512244 0.38471884 0.16542161 10
1.8142081 0.37669587 -0.2934711 3
1.8795649 0.38992321 0.23569533 11
1.8271506 0.37871802 -0.22911438 4
1.8666321 0.38656166 0.30191854 12
1.8241786 0.37776995 -0.16298124 5
1.9052302 0.39420727 0.37818345 13
1.8444165 0.38128877 -0.09870562 6
1.9141827 0.3953639 0.4512518 14
1.8448411 0.38070515 -0.032880332 7
1.8434778 0.37740594 0.03284543 8
1.7946582 0.36708498 -0.42290798 1
1.8648448 0.38110307 0.099752344 9
1.800395 0.36793202 -0.35719445 2
1.8545082 0.3786526 0.1655959 10
1.8097057 0.36917582 -0.2925325 3
1.8692435 0.38098258 0.23423289 11
1.8284615 0.37233728 -0.22911438 4
1.8660345 0.37964925 0.30160567 12
1.829391 0.37219402 -0.16332985 5
1.8950512 0.38520834 0.37589374 13
1.8339924 0.37246358 -0.098077588 6
1.907912 0.38712916 0.44945222 14
1.8500785 0.37505817 -0.032950144 7
1.8487049 0.37175664 0.032915238 8
1.7882862 0.35928321 -0.42110837 1
1.8583311 0.37301847 0.099333659 9
1.7978188 0.36087197 -0.35643122 2
1.8577721 0.3725681 0.16577022 10
1.8148569 0.36363307 -0.29315823 3
1.8666692 0.37367555 0.23374543 11
1.8200176 0.36400545 -0.22789569 4
1.8654114 0.37274662 0.30129281 12
1.8345865 0.36658719 -0.16367848 5
1.9021598 0.3797445 0.3770386 13
1.8274467 0.36449632 -0.097658902 6
1.924541 0.38351414 0.45305145 14
1.8552986 0.36937919 -0.033019952 7
1.8558766 0.36646464 0.033019952 8
1.7895297 0.35303828 -0.42110837 1
1.8557028 0.36575645 0.099124312 9
1.7894366 0.35269547 -0.35452312 2
1.864926 0.36723623 0.16629316 10
1.8199918 0.35805801 -0.29378396 3
1.8660145 0.36677405 0.23350169 11
1.8115376 0.35573798 -0.226677 4
1.8667012 0.36623234 0.30129281 12
1.8358551 0.36018059 -0.16367848 5
1.9073271 0.37385717 0.37780184 13
1.8287078 0.35811549 -0.097658902 6
1.8448015 0.36059856 -0.032810524 7
1.8571446 0.35998368 0.033019952 8
1.7926641 0.34716037 -0.42155826 1
1.8530464 0.35851824 0.098914966 9
1.7983668 0.3479391 -0.3560496 2
1.8544594 0.35845587 0.16524729 10
1.8134725 0.35020414 -0.2925325 3
1.8731307 0.36138675 0.23423289 11
1.8127683 0.34941277 -0.226677 4
1.8602093 0.35821947 0.30004135 12
1.827319 0.3518858 -0.16280691 5
1.9009088 0.36571383 0.37627536 13
1.8377922 0.35323828 -0.098077588 6
1.842121 0.35340366 -0.032740716 7
1.8426739 0.35050979 0.032740716 8
1.7996085 0.34199166 -0.42290798 1
1.8640977 0.35390991 0.099438325 9
1.7937841 0.34056047 -0.35490477 2
1.8439542 0.34975308 0.16420141 10
1.8069204 0.34240106 -0.29128101 3
1.8685296 0.35373786 0.23350169 11
1.8256799 0.34529674 -0.22813943 4
1.8614483 0.35172433 0.30004135 12
1.8226628 0.34439573 -0.16228399 5
1.8963863 0.35798317 0.3751305 13
1.8311633 0.34534001 -0.097658902 6
1.8433436 0.34697083 -0.032740716 7
1.8379891 0.3429746 0.032636002 8
1.7854654 0.33285108 -0.41930875 1
1.8653216 0.34740123 0.099438325 9
1.7930317 0.33393782 -0.35452312 2
1.8510402 0.3444072 0.16472435 10
1.8042202 0.33537003 -0.29065526 3
1.8638977 0.34612641 0.23277046 11
1.8171152 0.33711085 -0.22692074 4
1.8646069 0.34558487 0.30035421 12
1.8238539 0.33803174 -0.16228399 5
1.8841114 0.3488597 0.3724592 13
1.8245018 0.33749318 -0.097240217 6
1.8524094 0.34198681 -0.032880332 7
1.7995234 0.32962483 -0.49020329 0
1.8470434 0.33799607 0.032775622 8
1.7789484 0.32521519 -0.41750914 1
1.8547344 0.33873448 0.0988103 9
1.7980493 0.32838193 -0.35528636 2
1.8463511 0.33687043 0.16420141 10
1.8014933 0.32836205 -0.29002953 3
1.8572828 0.33819512 0.2317955 11
1.8163279 0.33041009 -0.226677 4
1.8658018 0.33907449 0.30035421 12
1.8328639 0.33308864 -0.16298124 5
1.8853177 0.34228033 0.3724592 13
1.8256688 0.33112192 -0.097240217 6
1.8496565 0.33480576 -0.032810524 7
1.7949586 0.32231736 -0.48865038 0
1.8482118 0.33154699 0.032775622 8
1.7858274 0.32003433 -0.41885886 1
1.8479837 0.33117321 0.098391607 9
1.7875893 0.32002807 -0.35299668 2
1.8514383 0.33112535 0.16455004 10
1.8104068 0.32346091 -0.29128101 3
1.8623604 0.33240795 0.232283 11
1.809653 0.32267445 -0.22570205 4
1.8591372 0.33149785 0.29910272 12
1.8300923 0.32598937 -0.16263261 5
1.8961654 0.33741742 0.37436727 13
1.8268135 0.32474753 -0.097240217 6
1.842881 0.327272 -0.032670904 7
1.7827543 0.31370664 -0.4850269 0
1.8532399 0.32610977 0.03284543 8
1.7849597 0.31377265 -0.41840896 1
1.8530626 0.3254118 0.098600946 9
1.7828944 0.31276897 -0.35185182 2
1.840808 0.32259658 0.16350417 10
1.8192526 0.31881905 -0.2925325 3
1.8673631 0.3269144 0.23277046 11
1.8146238 0.31735599 -0.22618952 4
1.8563914 0.32432583 0.29847699 12
1.8194427 0.31754342 -0.16158675 5
1.90501 0.33247727 0.37589374 13
1.8278803 0.31868815 -0.097240217 6
1.8321916 0.31878003 -0.032461476 7
1.7837849 0.30779257 -0.4850269 0
1.8386019 0.31692082 0.03256619 8
1.7918053 0.30853337 -0.41975865 1
1.8581241 0.31961811 0.0988103 9
1.7916611 0.30818573 -0.3533783 2
1.8418676 0.31649083 0.16350417 10
1.8008852 0.30912608 -0.2894038 3
1.8684927 0.32039449 0.23277046 11
1.819634 0.31168965 -0.226677 4
1.859459 0.31817827 0.29878986 12
1.8126303 0.31016526 -0.16088949 5
1.8906775 0.32317963 0.37284079 13
1.8211067 0.31096056 -0.096821532 6
1.8411782 0.31372651 -0.032601096 7
1.781039 0.30091998 -0.48399165 0
1.8337815 0.30950299 0.032461476 8
1.7755768 0.2993606 -0.41570953 1
1.8631675 0.313793 0.099019639 9
1.794662 0.30225536 -0.35375988 2
1.8390316 0.30939889 0.16315554 10
1.7941611 0.30152789 -0.28815234 3
1.8558961 0.31156918 0.2310643 11
1.8148375 0.30435145 -0.22594579 4
1.8644547 0.31233785 0.29941559 12
1.8176321 0.30449399 -0.16123812 5
1.8801761 0.31463328 0.37055111 13
1.822181 0.30460221 -0.096821532 6
1.8383174 0.30663916 -0.032531288 7
1.7858901 0.29533276 -0.4850269 0
1.8249861 0.30146995 0.032286953 8
1.7785339 0.29347765 -0.41615945 1
1.8484329 0.30501175 0.098182261 9
1.7918317 0.29535159 -0.35299668 2
1.8479642 0.30427188 0.1638528 10
1.8029996 0.29654515 -0.2894038 3
1.8530544 0.30444661 0.23057681 11
1.8021766 0.29576376 -0.2242396 4
1.863531 0.30583295 0.29910272 12
1.8226161 0.29879156 -0.16158675 5
1.8890125 0.30933869 0.37207755 13
1.8114066 0.2963047 -0.096193492 6
1.843271 0.30118668 -0.032601096 7
1.7850033 0.28878805 -0.48450929 0
1.8358458 0.29701364 0.032461476 8
1.7833449 0.28819948 -0.41705924 1
1.8455429 0.29792151 0.097972922 9
1.7889754 0.28846958 -0.35223341 2
1.8490152 0.29781893 0.1638528 10
1.8078736 0.29119229 -0.29002953 3
1.8618935 0.29956079 0.23155177 11
1.8070673 0.29041624 -0.22472709 4
1.8548354 0.29776013 0.2975384 12
1.823648 0.29242802 -0.16158675 5
1.890028 0.30307224 0.37207755 13
1.8163235 0.29092839 -0.096402846 6
1.8324633 0.29285759 -0.032391667 7
1.7745028 0.28105342 -0.48140347 0
1.8329209 0.28997895 0.032391667 8
1.7843399 0.28197393 -0.41705924 1
1.8465717 0.29147702 0.097972922 9
1.7821653 0.28131065 -0.35070693 2
1.840152 0.29013547 0.16298124 10
1.8088788 0.28488109 -0.29002953 3
1.8550839 0.29182529 0.23057681 11
1.8080702 0.28410614 -0.22472709 4
1.8480573 0.29005983 0.29628691 12
1.8167844 0.28482568 -0.16088949 5
1.8871953 0.29586434 0.37131432 13
1.8212745 0.28520396 -0.096612185 6
1.829523 0.28584144 -0.032321859 7
1.7697934 0.27366242 -0.47985053 0
1.8260171 0.28235629 0.032252047 8
1.793017 0.27693304 -0.41885886 1
1.8515255 0.28563893 0.098182261 9
1.787065 0.27537516 -0.3514702 2
1.8412031 0.28338856 0.16298124 10
1.8040533 0.27734837 -0.28909093 3
1.8639394 0.28655502 0.23155177 11
1.8129749 0.27839604 -0.22521456 4
1.8588214 0.28510407 0.29785126 12
1.8098898 0.27727568 -0.16019225 5
1.8805044 0.28775799 0.36978784 13
1.8262563 0.27913067 -0.096821532 6
1.8305098 0.27945298 -0.032321859 7
1.7764685 0.26834819 -0.48140347 0
1.8230852 0.27506542 0.032182239 8
1.772823 0.26716548 -0.41390994 1
1.8466351 0.27795851 0.097868249 9
1.7918983 0.26971942 -0.35223341 2
1.8402107 0.27666399 0.16280691 10
1.7835224 0.26782295 -0.28564936 3
1.8571247 0.27854314 0.23057681 11
1.8139831 0.27174968 -0.22521456 4
1.8579001 0.27799731 0.2975384 12
1.8108466 0.2709567 -0.16019225 5
1.8679056 0.27916026 0.36711654 13
1.8153671 0.27098531 -0.096193492 6
1.8354774 0.27333143 -0.032391667 7
1.827991 0.26928237 0.032252047 8
1.7718168 0.26069143 -0.41346005 1
1.8377138 0.27005932 0.09734489 9
1.7928287 0.26346329 -0.35223341 2
1.8391939 0.26994893 0.16263261 10
1.7883554 0.2621682 -0.28627509 3
1.850229 0.27090892 0.22960186 11
1.8109922 0.26484108 -0.22472709 4
1.8588593 0.27150986 0.2975384 12
1.8196673 0.26578537 -0.16088949 5
1.8785821 0.27405578 0.36902463 13
1.8083965 0.26349446 -0.095774807 6
1.840378 0.2674984 -0.032461476 7
1.8308994 0.26318392 0.032286953 8
1.776574 0.2550593 -0.41435984 1
1.8326682 0.26311263 0.097030871 9
1.7820771 0.25553194 -0.34994373 2
1.8480142 0.26465663 0.16332985 10
1.7970815 0.25704327 -0.28752658 3
1.8491983 0.26416755 0.22935812 11
1.8001148 0.25683513 -0.22326466 4
1.8558383 0.26478562 0.29691264 12
1.8205839 0.25943232 -0.16088949 5
1.887302 0.26860264 0.37055111 13
1.8132601 0.25774208 -0.095984153 6
1.8333355 0.26027012 -0.032321859 7
1.8258209 0.25627831 0.032182239 8
1.77741 0.24916606 -0.41435984 1
1.8434656 0.25809801 0.097554229 9
1.7790695 0.24876639 -0.34918046 2
1.8331407 0.2560001 0.16193536 10
1.7940112 0.25053561 -0.28690085 3
1.8539962 0.25858271 0.2298456 11
1.8088207 0.25196016 -0.2242396 4
1.8469687 0.25694537 0.29534832 12
1.8096379 0.25143009 -0.15984364 5
1.8842931 0.26180264 0.36978784 13
1.8141048 0.25172803 -0.095984153 6
1.8263097 0.25277185 -0.032182239 7
1.8167982 0.24854775 0.032007713 8
1.7840614 0.24375115 -0.41570953 1
1.848313 0.25220194 0.097763576 9
1.7798848 0.24286494 -0.34918046 2
1.8339797 0.24992014 0.16193536 10
1.7890029 0.2434722 -0.28596222 3
1.8548875 0.25210986 0.2298456 11
1.8096892 0.24564503 -0.2242396 4
1.8537266 0.25129223 0.29628691 12
1.8065557 0.24457753 -0.159495 5
1.8715769 0.2533803 0.36711654 13
1.8189309 0.24592966 -0.096193492 6
1.827181 0.24639484 -0.032182239 7
1.8156728 0.24193983 0.031972811 8
1.786833 0.23778042 -0.41615945 1
1.8491821 0.2457481 0.097763576 9
1.7846553 0.23685583 -0.34994373 2
1.8368584 0.24345879 0.16210969 10
1.7879249 0.23665473 -0.28564936 3
1.8439487 0.2440702 0.22838317 11
1.8105358 0.23932604 -0.2242396 4
1.8526341 0.24456276 0.29597405 12
1.8073986 0.23826952 -0.159495 5
1.8666538 0.2457497 0.36597168 13
1.8039782 0.23717891 -0.095356122 6
1.8359606 0.24105696 -0.032321859 7
1.8165473 0.23528384 0.031972811 8
1.8362045 0.23717828 0.097030871 9
1.7854712 0.23062517 -0.34994373 2
1.8475772 0.23831943 0.16298124 10
1.7926586 0.2309165 -0.28627509 3
1.842862 0.2370573 0.22813943 11
1.7956495 0.23066555 -0.22228971 4
1.8495996 0.23726682 0.29534832 12
1.8082193 0.23195857 -0.159495 5
1.8713949 0.23973167 0.36673489 13
1.8047953 0.23087992 -0.095356122 6
1.8328644 0.23382051 -0.032252047 7
1.8252934 0.22994071 0.032112427 8
1.827113 0.22952209 0.096507512 9
1.7784737 0.22341201 -0.34841725 2
1.8424671 0.23112427 0.1624583 10
1.8012937 0.22564092 -0.28752658 3
1.8476177 0.23111536 0.22862691 11
1.8003833 0.22488776 -0.22277717 4
1.848456 0.23056586 0.29503542 12
1.8129719 0.22613977 -0.15984364 5
1.8761166 0.23368265 0.36749816 13
1.8095541 0.22507115 -0.095565468 6
1.8217627 0.22594395 -0.032042619 7
1.8340244 0.22454026 0.032252047 8
1.8258815 0.22321992 0.096402846 9
1.7753451 0.21672806 -0.34765401 2
1.8353517 0.22372749 0.16176106 10
1.8020705 0.21935138 -0.28752658 3
1.8484132 0.22466405 0.22862691 11
1.8011572 0.21860225 -0.22277717 4
1.8354837 0.22276838 0.29284537 12
1.8018829 0.21837121 -0.15879777 5
1.8769211 0.22713186 0.36749816 13
1.8103287 0.21875365 -0.095565468 6
1.8185313 0.2194228 -0.031972811 7
1.8109311 0.21562046 0.03183319 8
1.8325995 0.21755174 0.096716851 9
1.77999 0.21099132 -0.34841725 2
1.8301858 0.21661654 0.16123812 10
1.7910179 0.21198072 -0.28564936 3
1.8511194 0.21876749 0.22887065 11
1.7999009 0.21239594 -0.22253343 4
1.8499827 0.21797755 0.29503542 12
1.8026341 0.21208052 -0.15879777 5
1.8640151 0.21930201 0.3648268 13
1.8189787 0.21368162 -0.095984153 6
1.8192862 0.21307312 -0.031972811 7
1.8116727 0.20929733 0.03183319 8
1.8352951 0.21170266 0.096821532 9
1.7806799 0.20508702 -0.34841725 2
1.8328733 0.21077421 0.16141243 10
1.7760471 0.20392533 -0.28314641 3
1.842011 0.21117358 0.22765194 11
1.8065481 0.2067886 -0.22326466 4
1.852658 0.21206662 0.29534832 12
1.8033276 0.2061011 -0.15879777 5
1.8628187 0.21257098 0.36444521 13
1.803838 0.20552164 -0.095146775 6
1.8319039 0.2083955 -0.032182239 7
1.8103695 0.20306504 0.031798285 8
1.8241134 0.20396286 0.096193492 9
1.8296376 0.20393395 0.16106381 10
1.78064 0.19847262 -0.28377217 3
1.8348095 0.20418625 0.226677 11
1.7993321 0.19991937 -0.22228971 4
1.8455336 0.20472755 0.29409683 12
1.811957 0.20068273 -0.159495 5
1.8713186 0.20725732 0.36597168 13
1.8005395 0.19909924 -0.094937436 6
1.8326201 0.20200007 -0.032182239 7
1.8190536 0.19729123 0.031937905 8
1.8188918 0.19663134 0.09587948 9
1.8343002 0.19797319 0.16141243 10
1.7970674 0.19363745 -0.28627509 3
1.839493 0.19788414 0.22716448 11
1.7921578 0.19247563 -0.22131474 4
1.8403792 0.19732969 0.29315823 12
1.8126465 0.19435613 -0.159495 5
1.8720658 0.20039672 0.36597168 13
1.8012571 0.192499 -0.094937436 6
1.8253946 0.19443415 -0.032042619 7
1.8217201 0.19114941 0.031972811 8
1.8215535 0.19048914 0.095984153 9
1.8270537 0.19074197 0.16071519 10
1.7898735 0.18654464 -0.28502363 3
1.8480704 0.19228402 0.22813943 11
1.7928187 0.18621819 -0.22131474 4
1.8312327 0.18988606 0.29159388 12
1.8053869 0.18720604 -0.15879777 5
1.8058914 0.18662038 -0.095146775 6
1.814127 0.18683238 -0.03183319 7
1.8144183 0.18398184 0.03183319 8
1.8281363 0.18505052 0.096298166 9
1.8197789 0.18356286 0.16001794 10
1.7826521 0.17950357 -0.28377217 3
1.846755 0.18563373 0.22789569 11
1.7934577 0.17995933 -0.22131474 4
1.8397143 0.18460082 0.29284537 12
1.7901697 0.17931382 -0.15740328 5
1.8105066 0.18071263 -0.095356122 6
1.8147367 0.18081498 -0.03183319 7
1.8070579 0.17718379 0.03169357 8
1.8287711 0.17866838 0.096298166 9
1.8243746 0.17759599 0.16036656 10
1.7911018 0.17435701 -0.28502363 3
1.8414332 0.17893216 0.22716448 11
1.801948 0.17477795 -0.22228971 4
1.8403474 0.17817827 0.29284537 12
1.7987171 0.17383087 -0.15810052 5
1.8031439 0.17394105 -0.094937436 6
1.8233188 0.17524491 -0.031972811 7
1.8076652 0.17087443 0.03169357 8
1.82143 0.17153417 0.09587948 9
1.8249534 0.17154467 0.16036656 10
1.8341408 0.17176244 0.22618952 11
1.7926646 0.16756272 -0.22107102 4
1.8448917 0.17212054 0.2934711 12
1.7993131 0.16755064 -0.15810052 5
1.7918079 0.16653633 -0.094309397 6
1.8199371 0.16851005 -0.031902999 7
1.8162167 0.16528881 0.03183319 8
1.8220177 0.16517553 0.09587948 9
1.8315229 0.16539271 0.16088949 10
1.8347291 0.16535942 0.22618952 11
1.7873073 0.16077097 -0.22033979 4
1.8336767 0.16461936 0.29159388 12
1.8038559 0.16162398 -0.15844914 5
1.8003635 0.16067851 -0.09472809 6
1.8165307 0.16180095 -0.03183319 7
1.814818 0.15845738 0.031798285 8
1.8226109 0.15849592 0.09587948 9
1.8201796 0.1579653 0.15984364 10
1.8471892 0.15965886 0.22765194 11
1.79184 0.15456066 -0.22082727 4
1.8342676 0.1578979 0.29159388 12
1.7924987 0.15430234 -0.15740328 5
1.8048935 0.15473381 -0.094937436 6
1.8131266 0.15480211 -0.031763379 7
1.8053966 0.15128611 0.031623758 8
1.8311142 0.15279843 0.096298166 9
1.8147633 0.15111423 0.1593207 10
1.8398219 0.15255514 0.226677 11
1.800282 0.14895932 -0.22180222 4
1.8348078 0.15149365 0.29159388 12
1.7890551 0.14771603 -0.15705465 5
1.8054227 0.14843298 -0.094937436 6
1.8096697 0.14814712 -0.03169357 7
1.7979405 0.14434262 0.031484142 8
1.8336018 0.14688438 0.096402846 9
1.821238 0.14525333 0.15984364 10
1.8324279 0.14550301 0.22570205 11
1.7908964 0.14188986 -0.22058353 4
1.8372691 0.14556389 0.29190674 12
1.7935324 0.14178456 -0.15740328 5
1.7939831 0.14118926 -0.094309397 6
1.8260995 0.14339711 -0.031972811 7
1.8063844 0.13899365 0.031623758 8
1.8241463 0.13971987 0.09587948 9
1.8197473 0.13874494 0.15966932 10
1.8289415 0.13912401 0.22521456 11
1.8377659 0.13915099 0.29190674 12
1.7979896 0.13582279 -0.15775189 5
1.7904582 0.1349396 -0.094100058 6
1.8226008 0.13672228 -0.031902999 7
1.808853 0.1328342 0.031658668 8
1.816655 0.13276963 0.095460795 9
1.8201975 0.13270916 0.15966932 10
1.831396 0.13288215 0.22545831 11
1.8303596 0.1321656 0.29065526 12
1.8024046 0.13014704 -0.15810052 5
1.7988869 0.12926188 -0.094518751 6
1.8110994 0.12950316 -0.03169357 7
1.8132955 0.1267978 0.031728476 8
1.8230847 0.12684377 0.095774807 9
1.8186619 0.12621625 0.159495 10
1.8338289 0.12662658 0.22570205 11
1.8268683 0.12550525 0.29002953 12
1.7889339 0.12289917 -0.15688033 5
1.7953417 0.12270893 -0.094309397 6
1.80356 0.12263818 -0.03155395 7
1.8037504 0.11980518 0.03155395 8
1.8235164 0.12047875 0.095774807 9
1.8091509 0.11921253 0.15862344 10
1.8362406 0.12035388 0.22594579 11
1.8292664 0.11925555 0.29034239 12
1.7794112 0.11600533 -0.15600878 5
1.7997453 0.11670014 -0.094518751 6
1.807968 0.1165996 -0.031623758 7
1.7961745 0.11300632 0.03141433 8
1.8259192 0.11423786 0.09587948 9
1.8194988 0.11351739 0.159495 10
1.8267431 0.11332928 0.22472709 11
1.8336151 0.11311226 0.29096815 12
1.8016801 0.11114225 -0.1579262 5
1.7921677 0.10992754 -0.094100058 6
1.808364 0.11028829 -0.031623758 7
1.7985543 0.10685392 0.031449236 8
1.8103565 0.106921 0.095042109 9
1.8139172 0.10681362 0.15897207 10
1.8231641 0.10671957 0.2242396 11
1.8339986 0.10671144 0.29096815 12
1.7885525 0.10344078 -0.093890712 6
1.8167237 0.10443382 -0.031763379 7
1.7969197 0.1004639 0.03141433 8
1.8127129 0.1007122 0.095146775 9
1.8242255 0.10103248 0.15984364 10
1.8274897 0.10057257 0.22472709 11
1.8225253 0.099661298 0.28909093 12
1.7889028 0.097197309 -0.093890712 6
1.8050965 0.097444393 -0.03155395 7
1.8052472 0.094609015 0.03155395 8
1.8030807 0.093864389 0.094623417 9
1.812629 0.094044253 0.15879777 10
1.8317946 0.09439753 0.22521456 11
1.8228619 0.093300149 0.28909093 12
1.7932206 0.091154598 -0.094100058 6
1.8014313 0.090941578 -0.031484142 7
1.7935828 0.087721221 0.031344522 8
1.811377 0.087956883 0.095042109 9
1.8029957 0.087235369 0.1579262 10
1.8321129 0.088002317 0.22521456 11
1.8231766 0.086936116 0.28909093 12
1.8015079 0.08527264 -0.094518751 6
1.8057327 0.084840074 -0.03155395 7
1.7958757 0.081550144 0.031379428 8
1.8156492 0.082130529 0.095251448 9
1.8032892 0.080940731 0.1579262 10
1.8284427 0.081431128 0.22472709 11
1.8293753 0.081151895 0.29002953 12
1.7958086 0.078720801 -0.094204731 6
1.8099997 0.079026394 -0.031623758 7
1.7921402 0.075426541 0.031309616 8
1.8039516 0.075292885 0.094623417 9
1.8115236 0.074974664 0.15862344 10
1.8168024 0.07487639 0.22326466 11
1.8296474 0.074765198 0.29002953 12
1.8102645 0.072708212 -0.031623758 7
1.7923926 0.069170721 0.031309616 8
1.8002119 0.068842337 0.094414078 9
1.8137532 0.069044039 0.15879777 10
1.82102 0.068683259 0.22375213 11
1.8160791 0.067862988 0.28783944 12
1.802514 0.066095181 -0.031484142 7
1.7986186 0.063123621 0.03141433 8
1.8024372 0.062628597 0.094518751 9
1.8040271 0.06236776 0.1579262 10
1.8311682 0.062666148 0.22497083 11
1.8084081 0.061255302 0.28658798 12
1.7987365 0.059669755 -0.03141433 7
1.7928318 0.056654923 0.031309616 8
1.8166188 0.056772768 0.095251448 9
1.800251 0.055945892 0.15757757 10
1.8254232 0.056091275 0.2242396 11
1.8007131 0.054702863 0.28533649 12
1.8109266 0.05374781 -0.031623758 7
1.7850232 0.050172921 0.031169999 8
1.8128129 0.050319918 0.095042109 9
1.8004353 0.049661886 0.15757757 10
1.8097333 0.049286198 0.22228971 11
1.7891855 0.044039659 0.031239808 8
1.80099 0.044014856 0.094414078 9
1.8125486 0.043665171 0.15862344 10
1.8039407 0.042827781 0.22155848 11
1.7933202 0.038190916 0.031309616 8
1.7991357 0.037686508 0.094309397 9
1.814682 0.037379339 0.15879777 10
1.8040727 0.036844965 0.22155848 11
1.7954421 0.031966805 0.031344522 8
1.8072442 0.03154593 0.09472809 9
1.8008513 0.031119959 0.15757757 10
1.8022056 0.030514127 0.22131474 11
1.7875447 0.025584402 0.031204903 8
1.8053463 0.025209773 0.094623417 9
1.7949765 0.02443747 0.15705465 10
1.8181806 0.024436872 0.22326466 11
1.8094207 0.018633351 0.094832763 9
1.7970433 0.018192232 0.15722896 10
1.8023778 0.017617062 0.22131474 11
1.7974914 0.012235988 0.094204731 9
1.8050652 0.011971644 0.1579262 10
1.7984581 0.011300914 0.22082727 11
1.7935288 0.0059477715 0.093995392 9
1.8050959 0.0056719589 0.1579262 10
1.7965016 0.0050170314 0.22058353 11
1.7975332 -0.0003137287 0.094204731 9
1.7951428 -0.00062662305 0.15705465 10
1.8064336 -0.0012611287 0.22180222 11
1.7975222 -0.0062745614 0.094204731 9
1.7871614 -0.0065503181 0.15635739 10
1.8103898 -0.0072674085 0.22228971 11
1.7911123 -0.01281715 0.15670602 10
1.792488 -0.013452723 0.22009605 11
1.7990259 -0.019154068 0.15740328 10
1.7864751 -0.019644111 0.21936484 11
1.8049244 -0.025518218 0.1579262 10
1.7923504 -0.02596622 0.22009605 11
1.7908798 -0.031572592 0.15670602 10
1.8021727 -0.032400951 0.22131474 11
1.7728313 -0.037445072 0.15513723 10
1.8080025 -0.03881935 0.22204597 11
1.7899957 -0.044684365 0.21985231 11
1.7878444 -0.050875872 0.21960858 11
1.8094809 -0.057813622 0.22228971 11
1.7894297 -0.063426353 0.21985231 11
