# .PCD v0.7 - Point Cloud Data file format
VERSION 0.7
FIELDS x y z intensity
SIZE 4 4 4 4
TYPE F F F F
COUNT 1 1 1 1
WIDTH 1325
HEIGHT 1
VIEWPOINT 0 0 0 1 0 0 0
POINTS 1325
DATA ascii
1.4505146 0.081604637 -0.28239733 2
1.4720548 0.082558759 0.12899049 10
1.4535826 0.081268288 -0.23058443 3
1.4805664 0.082517006 0.18207282 11
1.4627423 0.081268236 -0.17987917 4
1.4641548 0.081090406 -0.12829326 5
1.4697559 0.080885343 -0.077143207 6
1.4875509 0.081343867 -0.026004087 7
1.4776921 0.078477003 0.025829561 8
1.4419978 0.076328985 -0.33337748 1
1.47193 0.077656493 0.07724788 9
1.4429486 0.07612747 -0.28087085 2
1.4802928 0.077837922 0.12968774 10
1.4597754 0.076503597 -0.23152302 3
1.4669684 0.07662455 0.18036664 11
1.4570699 0.075851835 -0.17914794 4
1.4684085 0.076185137 -0.12864187 5
1.46604 0.07554917 -0.076933861 6
1.4798373 0.075743005 -0.025864467 7
1.4779571 0.073318727 0.025829561 8
1.4442018 0.07139153 -0.33382738 1
1.4741744 0.072873175 0.077352546 9
1.435362 0.070703432 -0.27934438 2
1.4686155 0.072083823 0.12864187 10
1.4600335 0.071407869 -0.23152302 3
1.4811063 0.072179399 0.18207282 11
1.4593087 0.070861146 -0.1793917 4
1.4567251 0.070481561 -0.12759601 5
1.4702848 0.070622541 -0.077143207 6
1.4660984 0.070165701 -0.025620133 7
1.4741971 0.068231925 0.025759753 8
1.4463772 0.066692039 -0.33427727 1
1.4863907 0.06827639 0.077980585 9
1.4395224 0.06587176 -0.28010762 2
1.4608968 0.066595048 0.12794463 10
1.4464492 0.065936446 -0.22933295 3
1.4892697 0.067627266 0.18304777 11
1.4654846 0.066290908 -0.1801229 4
1.4529814 0.065217145 -0.12724738 5
1.470511 0.065746807 -0.077143207 6
1.47033 0.065224491 -0.025689943 7
1.4704306 0.062914953 0.025689943 8
1.4427074 0.061476521 -0.33337748 1
1.4886044 0.063432284 0.078085259 9
1.443656 0.061265226 -0.28087085 2
1.4730533 0.062254533 0.12899049 10
1.4466705 0.060886614 -0.22933295 3
1.4815633 0.06209543 0.18207282 11
1.475624 0.061589222 -0.18134159 4
1.4492084 0.060233343 -0.12689877 5
1.4667403 0.060449183 -0.076933861 6
1.4825262 0.060840599 -0.025899371 7
1.4746274 0.058196492 0.025759753 8
1.4370615 0.056462072 -0.33202776 1
1.4788381 0.057845693 0.0775619 9
1.443861 0.056225169 -0.28087085 2
1.4732616 0.057111848 0.12899049 10
1.4488384 0.056165066 -0.22964582 3
1.4738265 0.056876849 0.18109787 11
1.4619347 0.056162406 -0.17963544 4
1.4653374 0.055780914 -0.12829326 5
1.4589493 0.055282753 -0.076515175 6
1.4827296 0.055664849 -0.025899371 7
1.4748214 0.053048331 0.025759753 8
1.4430923 0.051655568 -0.33337748 1
1.467055 0.052256253 0.076933861 9
1.4361916 0.051156901 -0.27934438 2
1.4714519 0.052155741 0.12881619 10
1.4450773 0.050969072 -0.22902009 3
1.4740161 0.051731497 0.18109787 11
1.4522026 0.050712179 -0.17841674 4
1.49051 0.051790185 0.23621608 12
1.4575584 0.050389849 -0.12759601 5
1.4631257 0.050326664 -0.076724522 6
1.4749206 0.05021695 -0.025759753 7
1.4749976 0.047900233 0.025759753 8
1.4432639 0.046617538 -0.33337748 1
1.4752134 0.047391079 0.077352546 9
1.4324447 0.045767572 -0.27858114 2
1.4676503 0.046636019 0.12846756 10
1.4630239 0.04623273 -0.23183592 3
1.478156 0.046710912 0.18158534 11
1.4603071 0.045892462 -0.1793917 4
1.4650143 0.045784462 0.23214878 12
1.4457768 0.044929996 -0.12655014 5
1.4633002 0.044964023 -0.076724522 6
1.4710896 0.044945691 -0.025689943 7
1.467168 0.042263079 0.025620133 8
1.4434251 0.041327719 -0.33337748 1
1.471377 0.04212803 0.077143207 9
1.4365208 0.040878441 -0.27934438 2
1.4618294 0.041343313 0.12794463 10
1.4454051 0.040627033 -0.22902009 3
1.4743485 0.041182358 0.18109787 11
1.4624497 0.040594563 -0.17963544 4
1.4671398 0.040724751 0.23246165 12
1.4439332 0.039828394 -0.12637582 5
1.4674413 0.039964233 -0.076933861 6
1.4692384 0.03975657 -0.025655037 7
1.4633019 0.037295938 0.025550324 8
1.4396579 0.036441896 -0.33247766 1
1.4795016 0.037192084 0.0775619 9
1.4405799 0.03596209 -0.28010762 2
1.4639566 0.036290001 0.12811893 10
1.4415822 0.035735365 -0.22839434 3
1.4724926 0.036244463 0.18085413 11
1.4705144 0.035938278 -0.18061039 4
1.4731975 0.035747297 0.23340026 12
1.4500389 0.034932137 -0.12689877 5
1.4555857 0.03481089 -0.076305829 6
1.4753656 0.034769379 -0.025759753 7
1.4674217 0.032276087 0.025620133 8
1.4358798 0.031330924 -0.33157787 1
1.4676416 0.031768408 0.076933861 9
1.4446169 0.03127002 -0.28087085 2
1.4700447 0.031563051 0.12864187 10
1.449598 0.030870937 -0.22964582 3
1.4666561 0.030978831 0.1801229 11
1.4587228 0.030555878 -0.17914794 4
1.4772632 0.030686313 0.23402599 12
1.4521388 0.030164417 -0.12707306 5
1.4556983 0.029730039 -0.076305829 6
1.4834752 0.029779322 -0.025899371 7
1.4715241 0.027227232 0.025689943 8
1.4379288 0.026354587 -0.33202776 1
1.4637498 0.026572296 0.076724522 9
1.4368656 0.026084254 -0.27934438 2
1.4721379 0.026467567 0.12881619 10
1.4496968 0.025811013 -0.22964582 3
1.4727097 0.025963642 0.18085413 11
1.4548512 0.025394816 -0.17866047 4
1.4655108 0.025325043 0.23214878 12
1.4562193 0.025164479 -0.12742169 5
1.4637811 0.024784077 -0.076724522 6
1.463576 0.024269607 -0.025550324 7
1.4756089 0.022150824 0.025759753 8
1.4380121 0.021334738 -0.33202776 1
1.4698248 0.021550145 0.077038541 9
1.4290957 0.020952987 -0.2778179 2
1.4582763 0.021126963 0.12759601 10
1.4557036 0.020834895 -0.23058443 3
1.4727914 0.020822376 0.18085413 11
1.4589007 0.020372024 -0.17914794 4
1.4616398 0.020154437 0.23152302 12
1.4463407 0.019691015 -0.12655014 5
1.4638587 0.019674685 -0.076724522 6
1.4596527 0.019107884 -0.025480513 7
1.4676791 0.016907321 0.025620133 8
1.4419749 0.016359525 -0.33292755 1
1.4678938 0.016397368 0.076933861 9
1.4291629 0.015715266 -0.2778179 2
1.4523669 0.015716918 0.12707306 10
1.4379928 0.015310378 -0.22776861 3
1.4788101 0.01574496 0.18158534 11
1.4589629 0.015278998 -0.17914794 4
1.4656519 0.015093232 0.23214878 12
1.4384315 0.014561853 -0.1258529 5
1.4880731 0.014804667 0.28926644 13
1.4679153 0.014347909 -0.076933861 6
1.4717082 0.014128113 -0.025689943 7
1.4597328 0.011465396 0.025480513 8
1.4361793 0.01102905 -0.33157787 1
1.4819225 0.011380333 0.077666566 9
1.4409881 0.010815168 -0.28010762 2
1.4603823 0.010705845 0.12777032 10
1.4380375 0.01029037 -0.22776861 3
1.4709176 0.010268934 0.18061039 11
1.4590091 0.0099318512 -0.17914794 4
1.4716218 0.010017709 0.23308739 12
1.4504277 0.0096195992 -0.12689877 5
1.4841894 0.0095844809 0.28850323 13
1.4599675 0.0091739511 -0.076515175 6
1.4757477 0.009014844 -0.025759753 7
1.435351 0.0065135015 -0.38460511 0
1.463762 0.0066424287 0.025550324 8
1.4303617 0.0062412256 -0.33022815 1
1.4639781 0.0061331033 0.076724522 9
1.4370908 0.0057689687 -0.27934438 2
1.4643954 0.0056230058 0.12811893 10
1.4420145 0.0055370671 -0.22839434 3
1.4610182 0.0053557507 0.1793917 11
1.4451385 0.0050446377 -0.17744178 4
1.473623 0.0048868875 0.23340026 12
1.4504524 0.0045576007 -0.12689877 5
1.4861763 0.0046698521 0.28888482 13
1.452001 0.0043083648 -0.07609649 6
1.4757702 0.003863075 -0.025759753 7
1.4566151 0.0017799244 -0.39029911 0
1.4677757 0.0015367023 0.025620133 8
1.4342724 0.0012519967 -0.33112797 1
1.4619932 0.0012761946 0.076619849 9
1.4292489 0.00099817559 -0.2778179 2
1.4683909 0.00076854462 0.12846756 10
1.4420249 0.00050376682 -0.22839434 3
1.4749236 0.00025785263 0.18109787 11
1.4491174 -0 -0.17792925 4
1.4657296 -0 0.23214878 12
1.4624139 -0.00025523937 -0.12794463 5
1.482257 -0.00051740534 0.28812161 13
1.4599962 -0.00076445227 -0.076515175 6
1.455778 -0.001016325 -0.025410704 7
1.4334303 -0.0032523556 -0.38408747 0
1.4717722 -0.0033393509 0.025689943 8
1.4420635 -0.0035236329 -0.33292755 1
1.4659832 -0.0038379433 0.076829188 9
1.4213908 -0.0039692819 -0.27629143 2
1.4624075 -0.0043390631 0.12794463 10
1.4499202 -0.0043020127 -0.22964582 3
1.4709462 -0.004621129 0.18061039 11
1.4530797 -0.0048186127 -0.17841674 4
1.4597946 -0.0050956649 0.23121016 12
1.4424802 -0.0052869902 -0.12620151 5
1.4861736 -0.0054471353 0.28888482 13
1.4639801 -0.0056213075 -0.076724522 6
1.4637643 -0.0061314376 -0.025550324 7
1.425683 -0.0082114348 -0.38201693 0
1.4617516 -0.0086743105 0.025515417 8
1.4381435 -0.0087852273 -0.33202776 1
1.4659592 -0.009211014 0.076829188 9
1.429221 -0.0089801783 -0.2778179 2
1.4544139 -0.0093923258 0.12724738 10
1.4419934 -0.0095638027 -0.22839434 3
1.4709194 -0.010012385 0.18061039 11
1.4490821 -0.010116665 -0.17792925 4
1.4577907 -0.01043191 0.23089729 12
1.4384685 -0.01029364 -0.1258529 5
1.4782909 -0.010836632 0.28735834 13
1.4639497 -0.010987025 -0.076724522 6
1.4597328 -0.011464948 -0.025480513 7
1.4353044 -0.013277294 -0.38460511 0
1.4517144 -0.01368249 0.025340894 8
1.4303094 -0.013730408 -0.33022815 1
1.4719096 -0.014386673 0.077143207 9
1.4331073 -0.014007413 -0.27858114 2
1.4583571 -0.014508764 0.12759601 10
1.4380007 -0.014557247 -0.22776861 3
1.4589655 -0.015024144 0.17914794 11
1.456978 -0.015257993 -0.17890421 4
1.4616959 -0.015562546 0.23152302 12
1.4424082 -0.015357193 -0.12620151 5
1.4782441 -0.015996765 0.28735834 13
1.4559139 -0.016009254 -0.076305829 6
1.467682 -0.01665104 -0.025620133 7
1.4487711 -0.018459652 -0.3882286 0
1.4616554 -0.018878967 0.025515417 8
1.4302528 -0.018723035 -0.33022815 1
1.4638622 -0.019418541 0.076724522 9
1.4330496 -0.019009804 -0.27858114 2
1.4662663 -0.019706391 0.12829326 10
1.4379411 -0.019576717 -0.22776861 3
1.4589041 -0.020116793 0.17914794 11
1.4469913 -0.020205121 -0.17768551 4
1.4616326 -0.020664722 0.23152302 12
1.4503146 -0.020504706 -0.12689877 5
1.4781792 -0.021156702 0.28735834 13
1.447861 -0.020975517 -0.075887144 6
1.4886776 -0.021826716 0.34372523 14
1.4636161 -0.021714775 -0.025550324 7
1.4467663 -0.02348534 -0.38771093 0
1.4655795 -0.024046594 0.025585229 8
1.4379727 -0.023844674 -0.33202776 1
1.4577944 -0.024427865 0.076410502 9
1.4251226 -0.02388039 -0.27705467 2
1.4622043 -0.024757037 0.12794463 10
1.4418142 -0.024663519 -0.22839434 3
1.4627947 -0.025277792 0.17963544 11
1.4409575 -0.025152005 -0.1769543 4
1.4615517 -0.025766646 0.23152302 12
1.4502342 -0.025567126 -0.12689877 5
1.4859482 -0.026456175 0.28888482 13
1.4557666 -0.026172977 -0.076305829 6
1.4827471 -0.026916925 0.34237552 14
1.455534 -0.026677037 -0.025410704 7
1.4273608 -0.028154373 -0.38253456 0
1.4694852 -0.029241843 0.025655037 8
1.433984 -0.028785771 -0.33112797 1
1.4616941 -0.029597236 0.076619849 9
1.4289564 -0.028934343 -0.2778179 2
1.4581251 -0.029779568 0.12759601 10
1.4496192 -0.029858958 -0.22964582 3
1.4746056 -0.030631101 0.18109787 11
1.4507842 -0.030389596 -0.17817299 4
1.4381845 -0.03037679 -0.1258529 5
1.4819211 -0.031559341 0.28812161 13
1.4556664 -0.031254392 -0.076305829 6
1.4787475 -0.032008175 0.34147573 14
1.4554319 -0.031757638 -0.025410704 7
1.4311165 -0.0332263 -0.38356987 0
1.4573793 -0.034090541 0.025445608 8
1.4319265 -0.033745218 -0.33067805 1
1.4655752 -0.034794129 0.076829188 9
1.4288467 -0.033922158 -0.2778179 2
1.4460613 -0.034583379 0.12655014 10
1.4396319 -0.034681026 -0.22808148 3
1.4744896 -0.035778247 0.18109787 11
1.4526539 -0.035502099 -0.17841674 4
1.4514623 -0.03572645 0.22995868 12
1.4360778 -0.035347778 -0.12567857 5
1.4778767 -0.036634713 0.28735834 13
1.4595417 -0.036435109 -0.076515175 6
1.4786268 -0.037169769 0.34147573 14
1.4633085 -0.037040256 -0.025550324 7
1.4329296 -0.038023118 -0.38408747 0
1.4492624 -0.038709633 0.025305988 8
1.4279107 -0.038388729 -0.32977825 1
1.4734379 -0.039870057 0.07724788 9
1.4365765 -0.038872615 -0.27934438 2
1.4539052 -0.039595459 0.12724738 10
1.4296359 -0.039184216 -0.22651713 3
1.4584881 -0.04022976 0.17914794 11
1.4584811 -0.040484317 -0.17914794 4
1.4572597 -0.040704947 0.23089729 12
1.4478954 -0.040696286 -0.12672445 5
1.4620472 -0.04109405 0.28430542 13
1.451427 -0.041049074 -0.07609649 6
1.4862871 -0.042294595 0.34327531 14
1.4591798 -0.041778099 -0.025480513 7
1.4385736 -0.043449778 -0.38564041 0
1.4611111 -0.044130486 0.025515417 8
1.4258201 -0.043313663 -0.32932836 1
1.4593154 -0.044586118 0.076515175 9
1.4364244 -0.044137672 -0.27934438 2
1.4537504 -0.044924021 0.12724738 10
1.4373804 -0.044669271 -0.22776861 3
1.4543706 -0.045197271 0.17866047 11
1.4424579 -0.045079064 -0.17719805 4
1.463032 -0.04597763 0.23183592 12
1.4557099 -0.046001852 -0.12742169 5
1.4775848 -0.04695126 0.28735834 13
1.4432819 -0.046113417 -0.075677805 6
1.4744357 -0.047366392 0.3405759 14
1.4670197 -0.047128152 -0.025620133 7
1.4422746 -0.048601188 -0.38667569 0
1.4569424 -0.049350034 0.025445608 8
1.4256518 -0.048539262 -0.32932836 1
1.4591421 -0.049934473 0.076515175 9
1.4244888 -0.048748571 -0.27705467 2
1.4555758 -0.050066773 0.12742169 10
1.4352416 -0.049618144 -0.22745575 3
1.4541953 -0.050527502 0.17866047 11
1.4363314 -0.050157793 -0.17646682 4
1.4490345 -0.050854616 0.22964582 12
1.459523 -0.051222716 -0.12777032 5
1.4852601 -0.05238552 0.28888482 13
1.4431121 -0.051151127 -0.075677805 6
1.4742614 -0.052512851 0.3405759 14
1.4508497 -0.051932476 -0.025340894 7
1.422791 -0.052917361 -0.38149929 0
1.4627563 -0.05465943 0.025550324 8
1.4352105 -0.05388096 -0.33157787 1
1.4549674 -0.054876976 0.076305829 9
1.4243098 -0.053720668 -0.27705467 2
1.4494195 -0.054921057 0.12689877 10
1.4469032 -0.055078615 -0.22933295 3
1.4639281 -0.055982567 0.17987917 11
1.4401147 -0.055323627 -0.1769543 4
1.4449004 -0.055760033 0.22902009 12
1.443408 -0.055702444 -0.12637582 5
1.4850682 -0.057569724 0.28888482 13
1.4509077 -0.056499083 -0.07609649 6
1.4740691 -0.057658665 0.3405759 14
1.4506596 -0.056996573 -0.025340894 7
1.4863688 -0.058659412 0.39858136 15
1.4303186 -0.058197662 -0.38356987 0
1.4565624 -0.059520133 0.025445608 8
1.4311194 -0.05873064 -0.33067805 1
1.4607642 -0.059947208 0.076619849 9
1.4241138 -0.058692109 -0.27705467 2
1.4452375 -0.059815358 0.12655014 10
1.4249918 -0.059226569 -0.2258914 3
1.4657071 -0.061175067 0.1801229 11
1.4498297 -0.060765859 -0.17817299 4
1.4427338 -0.060468454 0.22870721 12
1.4352423 -0.060405407 -0.12567857 5
1.4730891 -0.062255841 0.28659514 13
1.4546926 -0.061732709 -0.076305829 6
1.4777529 -0.062969707 0.34147573 14
1.4464669 -0.061636556 -0.025271084 7
1.4784458 -0.063257731 0.39651078 15
1.4320368 -0.06327533 -0.38408747 0
1.448366 -0.063996851 0.025305988 8
1.4211828 -0.063044272 -0.32842854 1
1.460546 -0.065045856 0.076619849 9
1.4317453 -0.0640136 -0.27858114 2
1.4569623 -0.065395854 0.12759601 10
1.4228141 -0.063863114 -0.22557852 3
1.4516147 -0.065409698 0.17841674 11
1.4496202 -0.065573335 -0.17817299 4
1.4444873 -0.065593787 0.22902009 12
1.4469646 -0.065959342 -0.12672445 5
1.4689521 -0.066961631 0.28583187 13
1.4385184 -0.065825924 -0.075468451 6
1.4814292 -0.068048596 0.34237552 14
1.4582285 -0.067237929 -0.025480513 7
1.4878647 -0.068864673 0.39909899 15
1.4279596 -0.067840435 -0.3830522 0
1.4541261 -0.069337942 0.025410704 8
1.4190074 -0.067911588 -0.32797864 1
1.4523302 -0.069760419 0.076201163 9
1.4276034 -0.068572707 -0.2778179 2
1.4607174 -0.070418827 0.12794463 10
1.4304749 -0.069211125 -0.22683001 3
1.4493947 -0.070380092 0.17817299 11
1.4374859 -0.070053309 -0.17671056 4
1.4600335 -0.071407557 0.23152302 12
1.446738 -0.070757292 -0.12672445 5
1.4726312 -0.072281323 0.28659514 13
1.43828 -0.070846885 -0.075468451 6
1.4695046 -0.072642051 0.33967611 14
1.4579848 -0.072327688 -0.025480513 7
1.4837565 -0.073865771 0.39806372 15
1.4315729 -0.073021352 -0.38408747 0
1.4558723 -0.074515574 0.025445608 8
1.4246004 -0.073164284 -0.32932836 1
1.4460939 -0.074521214 0.075887144 9
1.4214731 -0.073252432 -0.27667305 2
1.4564834 -0.075311489 0.12759601 10
1.4341701 -0.074408695 -0.22745575 3
1.4610347 -0.076058194 0.17963544 11
1.4293031 -0.074656464 -0.17573561 4
1.4420214 -0.075573146 0.22870721 12
1.4504614 -0.076015465 -0.12707306 5
1.4762911 -0.077627502 0.28735834 13
1.4380239 -0.07586699 -0.075468451 6
1.4653499 -0.077565119 0.33877629 14
1.4497359 -0.076992363 -0.025340894 7
1.4834896 -0.079044603 0.39806372 15
1.4158773 -0.077176861 -0.37994638 0
1.4635901 -0.080033809 0.025585229 8
1.4282279 -0.078350112 -0.33022815 1
1.453802 -0.080007561 0.076305829 9
1.4192487 -0.078105979 -0.27629143 2
1.4462649 -0.079845957 0.12672445 10
1.4378462 -0.079632893 -0.22808148 3
1.4607602 -0.081157692 0.17963544 11
1.4409261 -0.08030799 -0.17719805 4
1.435832 -0.080275469 0.22776861 12
1.4422301 -0.080633178 -0.12637582 5
1.4838519 -0.08321999 0.28888482 13
1.4457268 -0.081334919 -0.075887144 6
1.4650702 -0.082679674 0.33877629 14
1.4494582 -0.08205241 -0.025340894 7
1.4754896 -0.083784372 0.39599317 15
1.4117422 -0.081894979 -0.37891111 0
1.445335 -0.084096804 0.025271084 8
1.4260002 -0.08322154 -0.32977825 1
1.4594954 -0.085431926 0.076619849 9
1.4287667 -0.083633214 -0.27819952 2
1.4400103 -0.084543556 0.12620151 10
1.4257278 -0.083954714 -0.22620426 3
1.4644314 -0.086490273 0.1801229 11
1.440637 -0.085337274 -0.17719805 4
1.4414587 -0.085638426 0.22870721 12
1.4379621 -0.085430689 -0.12602721 5
1.4678739 -0.087464876 0.28583187 13
1.4494215 -0.086619243 -0.07609649 6
1.4725537 -0.088259578 0.3405759 14
1.449163 -0.087111466 -0.025340894 7
1.4790449 -0.089166783 0.39702842 15
1.4191606 -0.087296821 -0.38098165 0
1.4470286 -0.089264579 0.025305988 8
1.419866 -0.087837726 -0.32842854 1
1.4651686 -0.090896994 0.076933861 9
1.4284661 -0.088620029 -0.27819952 2
1.4476607 -0.090064473 0.12689877 10
1.4234544 -0.088807918 -0.2258914 3
1.4561957 -0.091105752 0.17914794 11
1.4462738 -0.090738408 -0.17792925 4
1.4549514 -0.091537774 0.23089729 12
1.4376551 -0.090449587 -0.12602721 5
1.4675597 -0.092588186 0.28583187 13
1.433164 -0.090669297 -0.075259112 6
1.4761264 -0.093645982 0.34147573 14
1.4488502 -0.092169456 -0.025340894 7
1.4787246 -0.094329074 0.39702842 15
1.4188472 -0.092250086 -0.38098165 0
1.4506992 -0.094575293 0.0253758 8
1.4156616 -0.092539228 -0.32752874 1
1.4508915 -0.095096461 0.076201163 9
1.4242301 -0.09334898 -0.27743632 2
1.45529 -0.095639825 0.12759601 10
1.427078 -0.094035931 -0.22651713 3
1.4420035 -0.095272198 0.17744178 11
1.4301023 -0.094736584 -0.17597936 4
1.452652 -0.096485049 0.23058443 12
1.4413067 -0.095731489 -0.12637582 5
1.4672275 -0.097710356 0.28583187 13
1.4328389 -0.095671415 -0.075259112 6
1.4641241 -0.098017044 0.33877629 14
1.45251 -0.09749417 -0.025410704 7
1.4860963 -0.10000907 0.39909899 15
1.4262257 -0.09773048 -0.3830522 0
1.45834 -0.10018681 0.025515417 8
1.4231066 -0.098015845 -0.32932836 1
1.4525431 -0.10029801 0.076305829 9
1.4238955 -0.098319896 -0.27743632 2
1.4549472 -0.10071915 0.12759601 10
1.4326531 -0.099427082 -0.22745575 3
1.4476029 -0.10071849 0.17817299 11
1.4258022 -0.099451743 -0.17549187 4
1.4444242 -0.10100397 0.22933295 12
1.4449389 -0.10103996 -0.12672445 5
1.4707946 -0.10310593 0.28659514 13
1.4324962 -0.10067239 -0.075259112 6
1.463773 -0.10312719 0.33877629 14
1.4441819 -0.10200025 -0.025271084 7
1.4818842 -0.10492301 0.39806372 15
1.4143147 -0.10187558 -0.37994638 0
1.4659594 -0.10585283 0.025655037 8
1.4305303 -0.10354557 -0.33112797 1
1.4521842 -0.10536772 0.076305829 9
1.4196273 -0.10300545 -0.27667305 2
1.4426638 -0.10493005 0.12655014 10
1.4342673 -0.104571 -0.22776861 3
1.4512023 -0.10606034 0.17866047 11
1.4432646 -0.10573347 -0.17768551 4
1.4361824 -0.10546663 0.22808148 12
1.432655 -0.10520761 -0.12567857 5
1.4723836 -0.10838347 0.28697675 13
1.4321359 -0.10567211 -0.075259112 6
1.4634042 -0.10823609 0.33877629 14
1.4358402 -0.10644937 -0.025131466 7
1.4738027 -0.10952245 0.39599317 15
1.4100978 -0.1065208 -0.37891111 0
1.4456412 -0.10945956 0.025305988 8
1.4340464 -0.10883335 -0.33202776 1
1.4518076 -0.11043614 0.076305829 9
1.415344 -0.10766243 -0.27590984 2
1.4422888 -0.10996526 0.12655014 10
1.4279846 -0.10912534 -0.22683001 3
1.4626988 -0.11203496 0.1801229 11
1.4389281 -0.11046686 -0.17719805 4
1.437775 -0.11063077 0.22839434 12
1.4362521 -0.11051358 -0.12602721 5
1.4661238 -0.11306949 0.28583187 13
1.4397237 -0.11128625 -0.075677805 6
1.4669033 -0.1136447 0.33967611 14
1.4434347 -0.11207997 -0.025271084 7
1.4695593 -0.11436653 0.39495787 15
1.4174209 -0.11205129 -0.38098165 0
1.4412634 -0.11418924 0.02523618 8
1.4220021 -0.11291293 -0.32932836 1
1.4593771 -0.11613699 0.076724522 9
1.4227879 -0.11322522 -0.27743632 2
1.4458684 -0.11531592 0.12689877 10
1.4197186 -0.11347969 -0.22557852 3
1.4425113 -0.11555494 0.17768551 11
1.4385338 -0.11548898 -0.17719805 4
1.4452562 -0.11628256 0.22964582 12
1.4398296 -0.11584594 -0.12637582 5
1.4578928 -0.11755538 0.28430542 13
1.4194188 -0.11470241 -0.07463108 6
1.478152 -0.11970828 0.34237552 14
1.4430346 -0.11711781 -0.025271084 7
1.4730022 -0.11980879 0.39599317 15
1.4131703 -0.11668038 -0.37994638 0
1.4448419 -0.11954929 0.025305988 8
1.413831 -0.11723183 -0.32752874 1
1.4510013 -0.1205689 0.076305829 9
1.4262969 -0.11851613 -0.27819952 2
1.449428 -0.12069289 0.12724738 10
1.4193139 -0.11843476 -0.22557852 3
1.4381429 -0.1202587 0.17719805 11
1.4341655 -0.12017818 -0.17671056 4
1.442873 -0.12116142 0.22933295 12
1.4433873 -0.12120461 -0.12672445 5
1.4652988 -0.12330212 0.28583187 13
1.421 -0.11982422 -0.074735753 6
1.4621905 -0.1235546 0.33877629 14
1.4505874 -0.12282912 -0.025410704 7
1.4764248 -0.12527646 0.39702842 15
1.4243028 -0.12260666 -0.3830522 0
1.4523848 -0.1252794 0.025445608 8
1.4172961 -0.12250193 -0.32842854 1
1.4386327 -0.1245991 0.075677805 9
1.414139 -0.12247772 -0.27590984 2
1.4569376 -0.12644067 0.12794463 10
1.4247956 -0.12390176 -0.22651713 3
1.4515575 -0.12648427 0.17890421 11
1.4297822 -0.12483826 -0.17622308 4
1.4365377 -0.12568076 0.22839434 12
1.4350162 -0.12554763 -0.12602721 5
1.4648595 -0.12841621 0.28583187 13
1.4424585 -0.12670615 -0.075887144 6
1.4617504 -0.12865783 0.33877629 14
1.4421818 -0.12718916 -0.025271084 7
1.4798273 -0.13076949 0.39806372 15
1.4123213 -0.12654325 -0.37994638 0
1.455922 -0.13070601 0.025515417 8
1.4246235 -0.12814681 -0.33022815 1
1.4461458 -0.13033724 0.07609649 9
1.4097921 -0.12706077 -0.27514657 2
1.4425973 -0.13027123 0.12672445 10
1.4341911 -0.1297645 -0.22808148 3
1.4451761 -0.13101269 0.17817299 11
1.4332916 -0.13018753 -0.17671056 4
1.441992 -0.13123155 0.22933295 12
1.4306008 -0.13019486 -0.12567857 5
1.4722229 -0.13424188 0.28735834 13
1.4340516 -0.13101366 -0.075468451 6
1.4612923 -0.13375953 0.33877629 14
1.4377464 -0.13185729 -0.025201276 7
1.4678192 -0.13487366 0.39495787 15
1.4080241 -0.13111418 -0.37891111 0
1.4435108 -0.13467281 0.025305988 8
1.4319286 -0.13384435 -0.33202776 1
1.4556248 -0.13631554 0.076619849 9
1.4210684 -0.13307941 -0.27743632 2
1.4322153 -0.13437545 0.1258529 10
1.4199625 -0.13347587 -0.2258914 3
1.4585444 -0.13735938 0.17987917 11
1.436781 -0.13556279 -0.17719805 4
1.4395586 -0.13607836 0.22902009 12
1.4261705 -0.1348128 -0.12532996 5
1.4600183 -0.13826947 0.28506866 13
1.4415388 -0.13677324 -0.075887144 6
1.4685764 -0.13959721 0.3405759 14
1.4372774 -0.13687517 -0.025201276 7
1.4634933 -0.1396295 0.3939226 15
1.4190952 -0.1371433 -0.38201693 0
1.4410415 -0.13951807 0.025271084 8
1.4159355 -0.13733684 -0.32842854 1
1.4611037 -0.14197525 0.076933861 9
1.4205952 -0.13803905 -0.27743632 2
1.4396695 -0.14014615 0.12655014 10
1.419488 -0.13843165 -0.2258914 3
1.4462022 -0.14129169 0.17841674 11
1.4402504 -0.140964 -0.17768551 4
1.4390749 -0.14110252 0.22902009 12
1.4336227 -0.14056793 -0.12602721 5
1.4595268 -0.14336504 0.28506866 13
1.4172008 -0.13945723 -0.07463108 6
1.4680803 -0.14472263 0.3405759 14
1.4407709 -0.14228441 -0.025271084 7
1.4706869 -0.14549798 0.39599317 15
1.4224522 -0.14248109 -0.3830522 0
1.4465148 -0.14514637 0.0253758 8
1.4076916 -0.14149891 -0.32662892 1
1.4447017 -0.14547381 0.07609649 9
1.4240113 -0.1433904 -0.27819952 2
1.4431362 -0.14557061 0.12689877 10
1.4189961 -0.14338575 -0.2258914 3
1.435825 -0.14533943 0.17719805 11
1.4278997 -0.14478898 -0.17622308 4
1.4503651 -0.1473227 0.23089729 12
1.4291589 -0.14516866 -0.12567857 5
1.4590174 -0.14845887 0.28506866 13
1.4206793 -0.14480837 -0.074840426 6
1.463689 -0.14945042 0.33967611 14
1.444244 -0.1477197 -0.025340894 7
1.4740136 -0.15102454 0.39702842 15
1.4334755 -0.14864102 -0.38615805 0
1.4459994 -0.15019473 0.0253758 8
1.4149423 -0.1472185 -0.32842854 1
1.4441851 -0.15051587 0.07609649 9
1.4156914 -0.1475462 -0.27667305 2
1.4386561 -0.15019345 0.12655014 10
1.4224163 -0.14874901 -0.22651713 3
1.4412318 -0.15097095 0.17792925 11
1.4273856 -0.14977241 -0.17622308 4
1.4243028 -0.14970025 0.22683001 12
1.4405324 -0.15140606 -0.12672445 5
1.4623952 -0.15396199 0.28583187 13
1.4221513 -0.14997606 -0.074945092 6
1.4515305 -0.15333045 0.33697668 14
1.4357653 -0.15191852 -0.025201276 7
1.4773197 -0.15657611 0.39806372 15
1.4118186 -0.15137835 -0.38046399 0
1.4474545 -0.15545483 0.025410704 8
1.4144198 -0.15215667 -0.32842854 1
1.4436508 -0.15555611 0.07609649 9
1.4073598 -0.15164569 -0.27514657 2
1.4401039 -0.15542819 0.12672445 10
1.431708 -0.15477481 -0.22808148 3
1.4485903 -0.15685566 0.17890421 11
1.4327747 -0.15539613 -0.1769543 4
1.4316267 -0.15552442 0.22808148 12
1.4241492 -0.15471211 -0.12532996 5
1.4657525 -0.15949051 0.28659514 13
1.4394886 -0.15688692 -0.075887144 6
1.4548609 -0.15881927 0.3378765 14
1.4272749 -0.15605994 -0.025061656 7
1.4614011 -0.16004945 0.3939226 15
1.4132018 -0.15651825 -0.38098165 0
1.4449155 -0.16028599 0.0253758 8
1.4216273 -0.15795377 -0.33022815 1
1.4510391 -0.16147803 0.076515175 9
1.4146268 -0.15742591 -0.27667305 2
1.4336122 -0.15979201 0.12620151 10
1.4134904 -0.15779898 -0.22526565 3
1.4618435 -0.16345534 0.18061039 11
1.4381418 -0.16105929 -0.17768551 4
1.4330382 -0.16074099 0.22839434 12
1.4196404 -0.15923817 -0.12498133 5
1.4534808 -0.16329087 0.28430542 13
1.4488559 -0.16302736 -0.076410502 6
1.4620436 -0.16476966 0.33967611 14
1.4346697 -0.16193826 -0.025201276 7
1.4608335 -0.16514972 0.3939226 15
1.4126469 -0.16145031 -0.38098165 0
1.4403738 -0.16487387 0.025305988 8
1.413323 -0.16202739 -0.32842854 1
1.4524509 -0.16676995 0.076619849 9
1.4140687 -0.16236292 -0.27667305 2
1.4409631 -0.16570576 0.12689877 10
1.412931 -0.16273201 -0.22526565 3
1.445488 -0.16673735 0.17866047 11
1.433627 -0.16562273 -0.17719805 4
1.4403176 -0.16665043 0.22964582 12
1.4230344 -0.16465069 -0.12532996 5
1.4529021 -0.16836347 0.28430542 13
1.4403422 -0.16716281 -0.075991817 6
1.4692024 -0.17077214 0.34147573 14
1.4380683 -0.16740766 -0.025271084 7
1.4640858 -0.17069541 0.39495787 15
1.4216675 -0.16751067 -0.38356987 0
1.4397894 -0.16990072 0.025305988 8
1.4127488 -0.16695982 -0.32842854 1
1.4359925 -0.16996092 0.07578247 9
1.4173927 -0.16775949 -0.27743632 2
1.444333 -0.17120367 0.12724738 10
1.4143159 -0.16789594 -0.22557852 3
1.4330698 -0.1703759 0.17719805 11
1.4212129 -0.16921781 -0.17573561 4
1.4397272 -0.17167705 0.22964582 12
1.4204726 -0.1693811 -0.12515564 5
1.4562043 -0.17389962 0.28506866 13
1.4357837 -0.17171517 -0.07578247 6
1.4569877 -0.17450905 0.33877629 14
1.4474024 -0.17361721 -0.025445608 7
1.4634811 -0.17580497 0.39495787 15
1.4114853 -0.17130843 -0.38098165 0
1.4431579 -0.17540805 0.0253758 8
1.4179609 -0.17259663 -0.32977825 1
1.4314253 -0.17448907 0.075573131 9
1.4090031 -0.17175584 -0.27590984 2
1.4397712 -0.17576145 0.12689877 10
1.4176428 -0.17331123 -0.22620426 3
1.4324664 -0.17537722 0.17719805 11
1.4206136 -0.17417774 -0.17573561 4
1.4234338 -0.1747757 0.22714287 12
1.439648 -0.17676656 -0.12689877 5
1.4594854 -0.17946085 0.28583187 13
1.4431047 -0.17770234 -0.076201163 6
1.4525017 -0.1791168 0.3378765 14
1.4388492 -0.1776882 -0.025305988 7
1.4705275 -0.18186082 0.39702842 15
1.4147125 -0.17671329 -0.38201693 0
1.454442 -0.18193373 0.025585229 8
1.4154162 -0.17730296 -0.32932836 1
1.4447112 -0.18097262 0.076305829 9
1.4064471 -0.17642877 -0.27552822 2
1.4351952 -0.18028945 0.12655014 10
1.4209491 -0.1787518 -0.22683001 3
1.4397235 -0.18136881 0.17817299 11
1.4259369 -0.17963204 -0.17646682 4
1.4326456 -0.18073121 0.22870721 12
1.4271623 -0.1802925 -0.1258529 5
1.45885 -0.18455431 0.28583187 13
1.4484199 -0.18349166 -0.076515175 6
1.4518996 -0.1839325 0.3378765 14
1.4342844 -0.18195529 -0.02523618 7
1.4622506 -0.18576242 0.39495787 15
1.3987895 -0.17943722 -0.3778758 0
1.4419305 -0.18522717 0.0253758 8
1.4206188 -0.18274157 -0.33067805 1
1.4421222 -0.18550766 0.076201163 9
1.4136429 -0.18209501 -0.27705467 2
1.4306374 -0.18453796 0.12620151 10
1.4125121 -0.18245061 -0.22557852 3
1.4450203 -0.18690604 0.17890421 11
1.4351767 -0.18563282 -0.17768551 4
1.4242026 -0.18446609 0.22745575 12
1.4265565 -0.18502417 -0.1258529 5
1.4543364 -0.18888529 0.28506866 13
1.4557258 -0.18932413 -0.076933861 6
1.4551467 -0.1892488 0.33877629 14
1.4336731 -0.18671055 -0.02523618 7
1.4577953 -0.19011079 0.3939226 15
1.4020176 -0.18457913 -0.37891111 0
1.4333781 -0.18896231 0.02523618 8
1.4084132 -0.18592128 -0.32797864 1
1.4474059 -0.19132565 0.076515175 9
1.4130312 -0.18678182 -0.27705467 2
1.4339678 -0.189804 0.12655014 10
1.4040662 -0.18609548 -0.22432704 3
1.4463603 -0.19195805 0.17914794 11
1.4345201 -0.1906414 -0.17768551 4
1.4392147 -0.19152094 0.22995868 12
1.4121102 -0.18791406 -0.12463271 5
1.4498099 -0.1931884 0.28430542 13
1.4392523 -0.19203725 -0.07609649 6
1.4660667 -0.19587548 0.34147573 14
1.4369768 -0.19224419 -0.025305988 7
1.4647818 -0.19622427 0.39599317 15
1.4013647 -0.18947196 -0.37891111 0
1.436673 -0.19450115 0.025305988 8
1.4019623 -0.19005108 -0.32662892 1
1.4328755 -0.19449639 0.07578247 9
1.4123707 -0.19171309 -0.27705467 2
1.4411935 -0.19588162 0.12724738 10
1.4151522 -0.19259375 -0.22620426 3
1.43388 -0.19539739 0.17768551 11
1.4259783 -0.19457415 -0.17671056 4
1.4424518 -0.19707838 0.23058443 12
1.4351343 -0.1960786 -0.12672445 5
1.4569072 -0.1993124 0.28583187 13
1.4267005 -0.19543366 -0.075468451 6
1.4499288 -0.19887334 0.3378765 14
1.4442213 -0.19834732 -0.025445608 7
1.4640878 -0.20133613 0.39599317 15
1.4121759 -0.19595559 -0.38201693 0
1.4458885 -0.20089085 0.025480513 8
1.4109411 -0.19628626 -0.32887843 1
1.4341661 -0.19977243 0.075887144 9
1.4116929 -0.19664201 -0.27705467 2
1.4405009 -0.20091113 0.12724738 10
1.4105585 -0.19698595 -0.22557852 3
1.4351552 -0.20067628 0.17792925 11
1.4174268 -0.19844957 -0.17573561 4
1.4358864 -0.20128958 0.22964582 12
1.4304949 -0.20053378 -0.12637582 5
1.4620353 -0.20521544 0.28697675 13
1.4299653 -0.20096852 -0.075677805 6
1.4530851 -0.20447643 0.33877629 14
1.4395599 -0.20282939 -0.0253758 7
1.4710279 -0.20752497 0.39806372 15
1.4095707 -0.20061158 -0.38149929 0
1.4412192 -0.20537248 0.025410704 8
1.4141059 -0.20176068 -0.32977825 1
1.4413687 -0.20590718 0.076305829 9
1.4012802 -0.20018032 -0.27514657 2
1.4319016 -0.20480977 0.12655014 10
1.421595 -0.20358877 -0.22745575 3
1.440341 -0.20652996 0.17866047 11
1.4206554 -0.20396031 -0.17622308 4
1.4214882 -0.20433307 0.22745575 12
1.4218976 -0.20439194 -0.12567857 5
1.4632533 -0.21059732 0.28735834 13
1.4332087 -0.20652853 -0.075887144 6
1.4523625 -0.2095474 0.33877629 14
1.4348848 -0.20728135 -0.025305988 7
1.4588226 -0.21099931 0.39495787 15
1.3993038 -0.20413634 -0.37891111 0
1.4345574 -0.209535 0.025305988 8
1.3998953 -0.20472169 -0.32662892 1
1.4366889 -0.21035855 0.07609649 9
1.4044222 -0.20588447 -0.27590984 2
1.4272354 -0.20922881 0.12620151 10
1.4130578 -0.20740235 -0.22620426 3
1.4396113 -0.21155643 0.17866047 11
1.4317185 -0.21065184 -0.17768551 4
1.4305376 -0.21073319 0.22902009 12
1.417197 -0.20902069 -0.12532996 5
1.4508184 -0.21423823 0.28506866 13
1.4363937 -0.21236435 -0.07609649 6
1.4593333 -0.21575585 0.3405759 14
1.4341525 -0.21228878 -0.025305988 7
1.4504334 -0.21495742 0.39288735 15
1.3985462 -0.20926367 -0.37891111 0
1.4238915 -0.21331015 0.025131466 8
1.3991355 -0.20985121 -0.32662892 1
1.4477588 -0.2174024 0.076724522 9
1.4114238 -0.21219808 -0.27743632 2
1.4323697 -0.21534716 0.12672445 10
1.4025213 -0.21110995 -0.22463992 3
1.4388262 -0.21683146 0.17866047 11
1.4368255 -0.21678643 -0.17841674 4
1.4356152 -0.2168601 0.22995868 12
1.4183912 -0.21451151 -0.12550427 5
1.4461411 -0.21896647 0.28430542 13
1.427707 -0.21643017 -0.075677805 6
1.4623863 -0.22168732 0.34147573 14
1.4412729 -0.21874401 -0.025445608 7
1.4572755 -0.22143292 0.39495787 15
1.4015888 -0.21497394 -0.37994638 0
1.4329829 -0.22004513 0.025305988 8
1.3829482 -0.21260899 -0.32302973 1
1.4351083 -0.22088429 0.07609649 9
1.4145553 -0.21772088 -0.27819952 2
1.4414166 -0.22211277 0.12759601 10
1.4095472 -0.21745375 -0.2258914 3
1.4301745 -0.22089154 0.17768551 11
1.4203269 -0.21962442 -0.17646682 4
1.4328586 -0.22181824 0.22964582 12
1.4196028 -0.21976613 -0.12567857 5
1.4492482 -0.22461447 0.28506866 13
1.4269427 -0.22141248 -0.075677805 6
1.4500099 -0.22525088 0.33877629 14
1.4483653 -0.22525431 -0.025585229 7
1.4679073 -0.2285559 0.39806372 15
1.4008298 -0.2198651 -0.37994638 0
1.4322062 -0.22504583 0.025305988 8
1.3918229 -0.21894926 -0.32527924 1
1.4343284 -0.22589241 0.07609649 9
1.4079686 -0.22174099 -0.27705467 2
1.4386642 -0.22683257 0.12742169 10
1.4146333 -0.22329669 -0.22683001 3
1.427434 -0.22557257 0.17744178 11
1.4136695 -0.22365035 -0.17573561 4
1.4340266 -0.22712752 0.22995868 12
1.4227628 -0.2253435 -0.12602721 5
1.4523332 -0.23028685 0.28583187 13
1.4301062 -0.22701831 -0.075887144 6
1.4415165 -0.22908755 0.33697668 14
1.4278218 -0.22716665 -0.02523618 7
1.4594692 -0.23246299 0.39599317 15
1.3886092 -0.22291633 -0.37684056 0
1.4333861 -0.2303611 0.025340894 8
1.3929741 -0.22411583 -0.32572913 1
1.4335715 -0.23064755 0.07609649 9
1.3974947 -0.22509336 -0.27514657 2
1.4299959 -0.2305844 0.12672445 10
1.4157952 -0.22854811 -0.22714287 3
1.4383959 -0.23245405 0.17890421 11
1.4227185 -0.22992048 -0.1769543 4
1.4101667 -0.22839719 -0.12498133 5
1.4631484 -0.2372404 0.28812161 13
1.433248 -0.232649 -0.07609649 6
1.4484432 -0.23511551 0.33877629 14
1.4310082 -0.23254173 -0.025305988 7
1.4586904 -0.23730147 0.39599317 15
1.3916752 -0.22814496 -0.3778758 0
1.4247212 -0.23381771 0.025201276 8
1.407607 -0.23126134 -0.32932836 1
1.4406821 -0.23669536 0.076515175 9
1.4064267 -0.23131952 -0.27705467 2
1.4252915 -0.23467776 0.12637582 10
1.4052842 -0.23163544 -0.22557852 3
1.4395757 -0.23754586 0.17914794 11
1.4199896 -0.23431394 -0.17671056 4
1.4266419 -0.23566744 0.22902009 12
1.4113674 -0.23339729 -0.12515564 5
1.4507321 -0.24016716 0.28583187 13
1.4364095 -0.23805359 -0.076305829 6
1.4553456 -0.24119185 0.3405759 14
1.4341747 -0.23794045 -0.0253758 7
1.4502724 -0.24087127 0.3939226 15
1.3947219 -0.23339638 -0.37891111 0
1.423938 -0.23854101 0.025201276 8
1.3914571 -0.23334938 -0.32572913 1
1.4437864 -0.2423842 0.076724522 9
1.4037156 -0.23565708 -0.27667305 2
1.4264702 -0.23973313 0.12655014 10
1.4045084 -0.23629427 -0.22557852 3
1.427035 -0.24034023 0.17768551 11
1.4230781 -0.23992927 -0.17719805 4
1.433602 -0.24196091 0.23027156 12
1.4125503 -0.23840787 -0.12532996 5
1.4421846 -0.24366838 0.28430542 13
1.4316736 -0.24214943 -0.07609649 6
1.4544948 -0.24627049 0.3405759 14
1.4333354 -0.24294518 -0.0253758 7
1.4570413 -0.24722487 0.39599317 15
1.397707 -0.23891443 -0.37994638 0
1.4290098 -0.24452183 0.025305988 8
1.382951 -0.236889 -0.32392952 1
1.4291519 -0.24505962 0.075991817 9
1.4106246 -0.24188273 -0.27819952 2
1.4295522 -0.24538511 0.12689877 10
1.4075687 -0.24186455 -0.22620426 3
1.4261873 -0.24532008 0.17768551 11
1.4144065 -0.24354783 -0.17622308 4
1.4405351 -0.24830578 0.23152302 12
1.4175999 -0.24435243 -0.1258529 5
1.4490638 -0.25003633 0.28583187 13
1.422947 -0.24578564 -0.075677805 6
1.4459454 -0.250018 0.33877629 14
1.4443009 -0.24999328 -0.025585229 7
1.4599764 -0.25296903 0.39702842 15
1.4044769 -0.24512045 -0.38201693 0
1.4320873 -0.25019681 0.0253758 8
1.3878745 -0.24272214 -0.32527924 1
1.424353 -0.24935798 0.07578247 9
1.4020363 -0.24545103 -0.27667305 2
1.4365368 -0.25174937 0.12759601 10
1.4144986 -0.24814171 -0.22745575 3
1.433143 -0.2516703 0.17866047 11
1.4096376 -0.24779615 -0.17573561 4
1.4299321 -0.25162098 0.22995868 12
1.4343983 -0.25240687 -0.12742169 5
1.4481822 -0.25509295 0.28583187 13
1.4299481 -0.25213844 -0.07609649 6
1.4412256 -0.25438634 0.3378765 14
1.4355426 -0.25364158 -0.025445608 7
1.4628893 -0.2587367 0.39806372 15
1.3922013 -0.24798881 -0.37891111 0
1.4371111 -0.25624728 0.025480513 8
1.392774 -0.24859248 -0.32662892 1
1.4274062 -0.25503096 0.075991817 9
1.3973058 -0.24965298 -0.27590984 2
1.4238815 -0.25465766 0.12655014 10
1.4136238 -0.25307769 -0.22745575 3
1.4361637 -0.25737166 0.17914794 11
1.408764 -0.2527152 -0.17573561 4
1.4193238 -0.2548652 0.22839434 12
1.4197813 -0.25494736 -0.12620151 5
1.4550122 -0.26153582 0.28735834 13
1.4290593 -0.25712833 -0.07609649 6
1.4460825 -0.26045188 0.33922619 14
1.4228407 -0.25652221 -0.02523618 7
1.4505702 -0.26178294 0.39495787 15
1.3913271 -0.25284702 -0.37891111 0
1.4244034 -0.2591148 0.025271084 8
1.3957323 -0.25415087 -0.32752874 1
1.4304371 -0.26072827 0.076201163 9
1.4002886 -0.25523305 -0.27667305 2
1.4190638 -0.25891116 0.12620151 10
1.4049588 -0.25659102 -0.22620426 3
1.4391619 -0.2630972 0.17963544 11
1.415684 -0.25906047 -0.17671056 4
1.4223117 -0.26052985 0.22902009 12
1.4110438 -0.25846586 -0.12550427 5
1.4425039 -0.26448876 0.28506866 13
1.4320819 -0.26283619 -0.076305829 6
1.4509145 -0.26655442 0.3405759 14
1.4337369 -0.26365733 -0.025445608 7
1.4458477 -0.26614532 0.3939226 15
1.3942349 -0.25840616 -0.37994638 0
1.4234903 -0.26408532 0.025271084 8
1.3929207 -0.2586655 -0.32707885 1
1.4373728 -0.26717982 0.076619849 9
1.4032496 -0.26083696 -0.27743632 2
1.4220691 -0.26459193 0.12655014 10
1.3924025 -0.2593236 -0.22432704 3
1.426526 -0.2659364 0.17817299 11
1.4225767 -0.26545709 -0.17768551 4
1.4272189 -0.26658112 0.22995868 12
1.4218841 -0.26558465 -0.12655014 5
1.4377123 -0.26880082 0.28430542 13
1.423303 -0.26636389 -0.075887144 6
1.457637 -0.27305266 0.34237552 14
1.4406695 -0.27013454 -0.025585229 7
1.4487072 -0.2719034 0.39495787 15
1.3990192 -0.26434743 -0.38149929 0
1.4264895 -0.26979586 0.025340894 8
1.3881798 -0.26280117 -0.32617903 1
1.422695 -0.26959258 0.075887144 9
1.4081173 -0.26683018 -0.27858114 2
1.4250518 -0.27029684 0.12689877 10
1.4031333 -0.26639315 -0.22620426 3
1.4177883 -0.26943189 0.17719805 11
1.4118907 -0.26856646 -0.17646682 4
1.4359822 -0.27340877 0.23152302 12
1.4287771 -0.27203694 -0.12724738 5
1.4483366 -0.276023 0.28659514 13
1.4184408 -0.27058205 -0.075677805 6
1.4413617 -0.27521518 0.33877629 14
1.4357896 -0.27441096 -0.025515417 7
1.4553391 -0.27841061 0.39702842 15
1.4235755 -0.27439511 0.025305988 8
1.3815136 -0.26653776 -0.32482934 1
1.4256674 -0.27531448 0.07609649 9
1.3956115 -0.26951033 -0.27629143 2
1.4319245 -0.27678204 0.12759601 10
1.4021949 -0.27128938 -0.22620426 3
1.4226857 -0.2755115 0.17792925 11
1.4012005 -0.27160448 -0.17524813 4
1.4272624 -0.27691472 0.23027156 12
1.4180393 -0.27512527 -0.12637582 5
1.4512187 -0.28182548 0.28735834 13
1.4253299 -0.27705607 -0.07609649 6
1.4403921 -0.2802448 0.33877629 14
1.4348229 -0.27942112 -0.025515417 7
1.4581509 -0.28422824 0.39806372 15
1.4324201 -0.28128928 0.025480513 8
1.395872 -0.27436522 -0.32842854 1
1.4246978 -0.28028932 0.07609649 9
1.3985149 -0.2751382 -0.27705467 2
1.4192203 -0.27946901 0.12655014 10
1.4089917 -0.27771029 -0.22745575 3
1.4256105 -0.28124434 0.17841674 11
1.408034 -0.27803215 -0.17622308 4
1.4127216 -0.27921399 0.22808148 12
1.4053429 -0.27775562 -0.12532996 5
1.454078 -0.28765145 0.28812161 13
1.4204357 -0.28125384 -0.075887144 6
1.4394052 -0.28527099 0.33877629 14
1.4338388 -0.28442788 -0.025515417 7
1.4495703 -0.28781149 0.39599317 15
1.4157426 -0.28315026 0.025201276 8
1.3910841 -0.27847102 -0.32752874 1
1.4295855 -0.28643787 0.076410502 9
1.393696 -0.2792469 -0.27629143 2
1.4221432 -0.28520489 0.12689877 10
1.4002666 -0.28107184 -0.22620426 3
1.4285125 -0.28700092 0.17890421 11
1.4167856 -0.28490219 -0.17744178 4
1.4214213 -0.28609249 0.22964582 12
1.4043648 -0.2826595 -0.12532996 5
1.4434421 -0.2907868 0.28621352 13
1.4194452 -0.28621036 -0.075887144 6
1.4460416 -0.29183578 0.3405759 14
1.4328372 -0.28943118 -0.025515417 7
1.4447697 -0.29210398 0.39495787 15
1.4186645 -0.28888839 0.025271084 8
1.3862846 -0.28254673 -0.32662892 1
1.4305339 -0.2918255 0.076515175 9
1.4004073 -0.28567976 -0.2778179 2
1.4191868 -0.28976876 0.12672445 10
1.3915354 -0.28437594 -0.22495279 3
1.4313917 -0.29278126 0.1793917 11
1.4255062 -0.29183665 -0.17866047 4
1.4320248 -0.29343158 0.23152302 12
1.4111768 -0.28915969 -0.12602721 5
1.4385718 -0.29503477 0.28545028 13
1.4106117 -0.28955698 -0.075468451 6
1.4488319 -0.29766601 0.34147573 14
1.4357357 -0.29523653 -0.025585229 7
1.45131 -0.29870319 0.39702842 15
1.4254799 -0.29546216 0.025410704 8
1.3738413 -0.285009 -0.32392952 1
1.4216844 -0.29519308 0.07609649 9
1.4032459 -0.29136458 -0.27858114 2
1.4279203 -0.29674786 0.12759601 10
1.3944023 -0.29003608 -0.22557852 3
1.416757 -0.29494384 0.17768551 11
1.4108753 -0.29397631 -0.1769543 4
1.4251906 -0.29721865 0.23058443 12
1.4140598 -0.29489738 -0.12637582 5
1.4432987 -0.30125794 0.28659514 13
1.4056823 -0.29366234 -0.075259112 6
1.4401541 -0.30112618 0.33967611 14
1.4346964 -0.30024639 -0.025585229 7
1.4502585 -0.30376738 0.39702842 15
1.4303097 -0.30167425 0.025515417 8
1.372838 -0.28980288 -0.32392952 1
1.4147829 -0.29891527 0.07578247 9
1.394537 -0.29463771 -0.27705467 2
1.4229771 -0.300906 0.12724738 10
1.4011116 -0.29653776 -0.22683001 3
1.4254287 -0.30194429 0.17890421 11
1.4020729 -0.2972526 -0.17597936 4
1.4183474 -0.30096161 0.22964582 12
1.4208177 -0.30148581 -0.12707306 5
1.4460791 -0.30710983 0.28735834 13
1.4124632 -0.30022833 -0.075677805 6
1.4314698 -0.3045294 0.3378765 14
1.4336396 -0.30525255 -0.025585229 7
1.4491894 -0.30882785 0.39702842 15
1.4312032 -0.30708468 0.025550324 8
1.390871 -0.29868478 -0.32842854 1
1.4234942 -0.3059504 0.076305829 9
1.3935 -0.29950374 -0.27705467 2
1.421918 -0.30587128 0.12724738 10
1.4077924 -0.3030898 -0.22808148 3
1.4301877 -0.30817255 0.17963544 11
1.4029672 -0.3025634 -0.17622308 4
1.4172882 -0.30591071 0.22964582 12
1.4119666 -0.3047621 -0.12637582 5
1.4488363 -0.31298482 0.28812161 13
1.4153107 -0.30600101 -0.075887144 6
1.441826 -0.31199723 0.3405759 14
1.4208391 -0.30771545 -0.0253758 7
1.4556545 -0.31552154 0.39909899 15
1.4184002 -0.30952057 0.025340894 8
1.4302224 -0.31262347 0.076724522 9
1.3886101 -0.30352771 -0.27629143 2
1.4091636 -0.30827805 0.12620151 10
1.3912885 -0.30462205 -0.22557852 3
1.4407377 -0.31571245 0.18109787 11
1.4096586 -0.30915987 -0.17719805 4
1.4142822 -0.31043264 0.22933295 12
1.407002 -0.30883464 -0.12602721 5
1.4362296 -0.31551278 0.28583187 13
1.4220366 -0.31265503 -0.076305829 6
1.4445345 -0.31786585 0.34147573 14
1.4275677 -0.31439358 -0.025515417 7
1.4507712 -0.31976914 0.39806372 15
1.4095023 -0.31273723 0.025201276 8
1.4408205 -0.32021379 0.077352546 9
1.3952081 -0.31007674 -0.2778179 2
1.4158584 -0.31492546 0.12689877 10
1.3902168 -0.30947673 -0.22557852 3
1.4202511 -0.31642285 0.17866047 11
1.4163208 -0.31580666 -0.17817299 4
1.418974 -0.31665823 0.23027156 12
1.4098046 -0.31461197 -0.12637582 5
1.4312876 -0.31966838 0.28506866 13
1.4092417 -0.31500283 -0.075677805 6
1.4434161 -0.32290626 0.34147573 14
1.4342672 -0.32112241 -0.025655037 7
1.4201062 -0.32029521 0.025410704 8
1.4202123 -0.32084015 0.076305829 9
1.4056072 -0.31754071 -0.28010762 2
1.4225239 -0.32162333 0.12759601 10
1.3929815 -0.31519955 -0.22620426 3
1.4094576 -0.31918627 0.17744178 11
1.4152098 -0.3207486 -0.17817299 4
1.4255656 -0.32335728 0.23152302 12
1.4125838 -0.32041267 -0.12672445 5
1.4378211 -0.32640105 0.28659514 13
1.4042382 -0.31903508 -0.075468451 6
1.4346793 -0.32621446 0.33967611 14
1.4331375 -0.32612696 -0.025655037 7
1.4228778 -0.32614389 0.025480513 8
1.4171371 -0.32534876 0.076201163 9
1.3930095 -0.3198095 -0.2778179 2
1.4291596 -0.3283715 0.12829326 10
1.4034234 -0.32271609 -0.22808148 3
1.4141384 -0.32543987 0.17817299 11
1.4024749 -0.32301342 -0.17671056 4
1.4167287 -0.32655674 0.23027156 12
1.4114567 -0.32534155 -0.12672445 5
1.4481512 -0.33406582 0.28888482 13
1.4109004 -0.32573199 -0.075887144 6
1.4297343 -0.33034301 0.33877629 14
1.4280939 -0.33022654 -0.025585229 7
1.429521 -0.33292297 0.025620133 8
1.4198829 -0.33120093 0.076410502 9
1.3918847 -0.32467008 -0.2778179 2
1.4163634 -0.33064058 0.12724738 10
1.4061356 -0.32851177 -0.22870721 3
1.4265244 -0.33353776 0.17987917 11
1.4013388 -0.32790703 -0.17671056 4
1.4078869 -0.32969841 0.22902009 12
1.4025528 -0.32844931 -0.12602721 5
1.4469763 -0.33911878 0.28888482 13
1.4136438 -0.33156714 -0.07609649 6
1.432367 -0.33622238 0.33967611 14
1.4191456 -0.33338025 -0.025445608 7
1.4127822 -0.33422795 0.025340894 8
1.4206616 -0.33661568 0.076515175 9
1.3888324 -0.329074 -0.27743632 2
1.4113234 -0.33466321 0.12689877 10
1.3934484 -0.33068144 -0.22683001 3
1.4253515 -0.33851522 0.17987917 11
1.4040483 -0.33371469 -0.17719805 4
1.4144144 -0.33643934 0.23027156 12
1.4091511 -0.33518738 -0.12672445 5
1.4343243 -0.34143972 0.28659514 13
1.4163635 -0.33742538 -0.076305829 6
1.438767 -0.34302804 0.34147573 14
1.4257537 -0.34018838 -0.025585229 7
1.4116069 -0.3391574 0.025340894 8
1.4272451 -0.34344172 0.076933861 9
1.4143981 -0.34035027 -0.28277895 2
1.4140205 -0.34052053 0.12724738 10
1.384604 -0.33369219 -0.22557852 3
1.4145125 -0.34116143 0.17866047 11
1.4105935 -0.34047678 -0.17817299 4
1.4151515 -0.34183833 0.23058443 12
1.4079725 -0.34010419 -0.12672445 5
1.4331238 -0.34644437 0.28659514 13
1.4035295 -0.33954951 -0.075677805 6
1.4451369 -0.34988239 0.34327531 14
1.4284444 -0.34610492 -0.025655037 7
1.4143 -0.3450307 0.025410704 8
1.4182769 -0.34652546 0.076515175 9
1.4205648 -0.3473472 0.12794463 10
1.3987808 -0.34227949 -0.22808148 3
1.4113849 -0.34562477 0.17841674 11
1.4016844 -0.3435086 -0.17719805 4
1.4273793 -0.3500697 0.23277451 12
1.4106468 -0.34596598 -0.12707306 5
1.4319057 -0.35144478 0.28659514 13
1.4023358 -0.34444669 -0.075677805 6
1.4325523 -0.35213369 0.3405759 14
1.4349948 -0.35299969 -0.025794657 7
1.413087 -0.34996542 0.025410704 8
1.4131818 -0.35051244 0.076305829 9
1.4232111 -0.35326374 0.12829326 10
1.3975775 -0.34716004 -0.22808148 3
1.4082433 -0.35007042 0.17817299 11
1.4004767 -0.34839928 -0.17719805 4
1.4146473 -0.35218674 0.23089729 12
1.4132972 -0.3518506 -0.12742169 5
1.4421004 -0.35928866 0.28888482 13
1.4088765 -0.3512724 -0.07609649 6
1.4313143 -0.35713211 0.3405759 14
1.4221131 -0.35509992 -0.025585229 7
1.423493 -0.35782084 0.025620133 8
1.4158232 -0.3564184 0.076515175 9
1.4142413 -0.35628265 0.12759601 10
1.3963572 -0.35203639 -0.22808148 3
1.4204861 -0.35838327 0.17987917 11
1.4011768 -0.35377169 -0.17744178 4
1.4057487 -0.35518703 0.22964582 12
1.408197 -0.35580567 -0.12707306 5
1.4370307 -0.36335781 0.28812161 13
1.4076419 -0.35618815 -0.07609649 6
1.4338373 -0.36308292 0.34147573 14
1.4208648 -0.36006185 -0.025585229 7
1.4144846 -0.36081052 0.025480513 8
1.4184407 -0.36234704 0.076724522 9
1.412989 -0.36121714 0.12759601 10
1.387465 -0.35495007 -0.22683001 3
1.4249958 -0.36481652 0.18061039 11
1.4095483 -0.36112386 -0.17866047 4
1.4083273 -0.36107305 0.23027156 12
1.3992267 -0.35873979 -0.12637582 5
1.4319503 -0.36739594 0.28735834 13
1.417997 -0.36407971 -0.076724522 6
1.436336 -0.36905563 0.34237552 14
1.4195994 -0.36501941 -0.025585229 7
1.4112806 -0.36524475 0.025445608 8
1.4268341 -0.36980155 0.07724788 9
1.4117196 -0.36614716 0.12759601 10
1.3976895 -0.36276865 -0.22870721 3
1.4141071 -0.36729327 0.1793917 11
1.4082791 -0.36604193 -0.17866047 4
1.4185288 -0.36897036 0.23214878 12
1.4018224 -0.36462489 -0.12672445 5
1.4268593 -0.37140304 0.28659514 13
1.4012554 -0.36499965 -0.075887144 6
1.4425819 -0.37603334 0.34417513 14
1.4183166 -0.36997253 -0.025585229 7
1.4157996 -0.37169224 0.025550324 8
1.4082146 -0.36996362 0.076305829 9
1.4142864 -0.37208658 0.12794463 10
1.4089772 -0.37121567 0.17890421 11
1.4050734 -0.37044939 -0.17841674 4
1.424938 -0.37568673 0.23340026 12
1.4159527 -0.37358215 -0.12811893 5
1.4369434 -0.37938851 0.28888482 13
1.3999727 -0.36988872 -0.075887144 6
1.4299567 -0.37807783 0.34147573 14
1.4306147 -0.37825182 -0.025829561 7
1.4145592 -0.37638512 0.025550324 8
1.4127043 -0.37641966 0.076619849 9
1.4168291 -0.37804839 0.12829326 10
1.4096562 -0.37639809 0.17914794 11
1.3942481 -0.37254456 -0.17719805 4
1.4140763 -0.3781071 0.23183592 12
1.4146401 -0.37852246 -0.12811893 5
