# .PCD v0.7 - Point Cloud Data file format
VERSION 0.7
FIELDS x y z intensity
SIZE 4 4 4 4
TYPE F F F F
COUNT 1 1 1 1
WIDTH 1296
HEIGHT 1
VIEWPOINT 0 0 0 1 0 0 0
POINTS 1296
DATA ascii
1.7731875 0.19200356 -0.093472026 6
1.7559693 0.18394049 -0.092529982 6
1.7665362 0.17881513 -0.093053341 6
1.7691374 0.17284225 -0.093158014 6
1.7912282 0.1746849 -0.03141433 7
1.7657241 0.16659977 -0.092948668 6
1.7818432 0.16780606 -0.031239808 7
1.7622887 0.16038096 -0.092739321 6
1.7664859 0.16014127 -0.030960569 7
1.7548792 0.15353169 -0.092320636 6
1.7710186 0.15432167 -0.031030379 7
1.7594107 0.14743266 -0.092529982 6
1.7715465 0.14813825 -0.031030379 7
1.7599392 0.14098349 -0.092529982 6
1.764104 0.14100729 -0.030890759 7
1.7644035 0.13514389 -0.092739321 6
1.7685733 0.13515282 -0.030960569 7
1.7588661 0.12885474 -0.092425302 6
1.7730006 0.12957916 -0.031030379 7
1.7592397 0.12579492 0.030786045 8
1.7433448 0.12190638 -0.091587931 6
1.7774317 0.12366739 -0.031100187 7
1.7636583 0.11992495 0.030855855 8
1.777239 0.11866736 -0.15583447 5
1.7477453 0.11608532 -0.091797277 6
1.7658806 0.11667078 -0.030890759 7
1.7700527 0.11415436 0.030960569 8
1.7478161 0.1105755 -0.1532198 5
1.7600996 0.11073667 -0.092425302 6
1.7503105 0.10950744 -0.030611521 7
1.7524765 0.10687983 0.030646425 8
1.7462026 0.10435532 -0.15304548 5
1.7525007 0.10411783 -0.092006624 6
1.7626595 0.10410397 -0.030820949 7
1.7488462 0.10053191 0.030576617 8
1.7405884 0.097923934 -0.15252255 5
1.7528534 0.098000199 -0.092006624 6
1.7709987 0.098394603 -0.030960569 7
1.75318 0.09464179 0.030646425 8
1.7468885 0.092162818 -0.15304548 5
1.7372286 0.091044307 -0.091169246 6
1.7713314 0.092211589 -0.030960569 7
1.7554969 0.088622667 0.030681333 8
1.7471997 0.086064011 -0.15304548 5
1.7455153 0.085370317 -0.091587931 6
1.7676479 0.085833482 -0.030890759 7
1.7637854 0.082869232 0.030820949 8
1.7836112 0.083177648 0.093576699 9
1.7355475 0.079417713 -0.15199961 5
1.7497931 0.079457551 -0.091797277 6
1.7519552 0.078943804 -0.030611521 7
1.7460836 0.075931273 0.030506806 8
1.7719184 0.076434255 0.092948668 9
1.731833 0.073191144 -0.151651 5
1.7620329 0.073850498 -0.092425302 6
1.7602121 0.073159561 -0.030751141 7
1.746338 0.06983538 0.030506806 8
1.7761656 0.070407234 0.093158014 9
1.7400414 0.06745372 -0.15234824 5
1.742322 0.0669339 -0.091378585 6
1.7564602 0.066863067 -0.030681333 7
1.7465712 0.063738637 0.030506806 8
1.7604219 0.063937292 0.092320636 9
1.7442486 0.061521091 -0.15269686 5
1.742545 0.060851194 -0.091378585 6
1.7726601 0.061593946 -0.030960569 7
1.7547674 0.058211163 0.030646425 8
1.7546458 0.057594851 0.092006624 9
1.7444527 0.055431683 -0.15269686 5
1.7427372 0.05507189 -0.091378585 6
1.7528771 0.054780718 -0.030611521 7
1.7549598 0.05208673 0.030646425 8
1.7508433 0.051352896 0.091797277 9
1.7346777 0.04905998 -0.15182531 5
1.7469119 0.049101699 -0.091587931 6
1.7490598 0.048550263 -0.030541712 7
1.7451359 0.045698259 0.0304719 8
1.7589983 0.045446876 0.092215963 9
1.7328466 0.042955514 -0.151651 5
1.7550668 0.042892527 -0.092006624 6
1.7532169 0.042541996 -0.030611521 7
1.7432926 0.039257079 0.030436996 8
1.759153 0.038999911 0.092215963 9
1.7588545 0.038686182 0.15391703 10
1.7349844 0.036646482 -0.15182531 5
1.7432247 0.03651534 -0.091378585 6
1.7573596 0.036198597 -0.030681333 7
1.7434189 0.033171147 0.030436996 8
1.7552847 0.032784019 0.092006624 9
1.7569925 0.032202438 0.15374273 10
1.7327056 0.031152312 -0.21278389 4
1.745062 0.030765172 -0.15269686 5
1.7353591 0.029988209 -0.090959899 6
1.7654728 0.030200386 -0.030820949 7
1.7455187 0.027420504 0.0304719 8
1.7513896 0.026901271 0.091797277 9
1.7630615 0.026772786 0.15426566 10
1.7427238 0.025551312 -0.21400258 4
1.7411658 0.02522536 -0.15234824 5
1.743433 0.024648717 -0.091378585 6
1.7535661 0.024179788 -0.030611521 7
1.7516025 0.021401001 0.030576617 8
1.7514728 0.02078882 0.091797277 9
1.761152 0.020595463 0.15409136 10
1.7348624 0.019379588 -0.21302763 4
1.7272973 0.01899359 -0.15112805 5
1.7475027 0.018605744 -0.091587931 6
1.7376432 0.017894188 -0.030332282 7
1.7416686 0.01519892 0.030402092 8
1.7595235 0.014741376 0.092215963 9
1.7492592 0.01434924 0.15304548 10
1.7349195 0.013323207 -0.21302763 4
1.73333 0.013009306 -0.151651 5
1.7555459 0.012562409 -0.092006624 6
1.7476933 0.011896999 -0.030506806 7
1.7397113 0.0091099953 0.030367188 8
1.7615615 0.0086086951 0.092320636 9
1.7552757 0.0082724709 0.15356842 10
1.7428958 0.0073015844 -0.21400258 4
1.7273878 0.0069343196 -0.15112805 5
1.739601 0.0063769696 -0.091169246 6
1.755723 0.0058223982 -0.030646425 7
1.7417321 0.0030402418 0.030402092 8
1.7476001 0.0024404922 0.091587931 9
1.7493167 0.0021375939 0.15304548 10
1.7310002 0.0012089161 -0.21254015 4
1.7274015 0.00090410886 -0.15112805 5
1.7356181 0.00030342839 -0.090959899 6
1.7517333 -0.00030573513 -0.030576617 7
1.7517306 -0.0030573495 0.030576617 8
1.7475979 -0.0036601655 0.091587931 9
1.7532983 -0.0039781146 0.1533941 10
1.7587858 -0.0046045003 0.2159525 11
1.7270237 -0.004822772 -0.21205269 4
1.7373561 -0.0051548542 -0.15199961 5
1.7396032 -0.0057687638 -0.091169246 6
1.7437227 -0.0063911062 -0.030436996 7
1.7477099 -0.0091510704 0.030506806 8
1.7475744 -0.0097603984 0.091587931 9
1.749289 -0.010075293 0.15304548 10
1.7627292 -0.010768034 0.21643998 11
1.7309664 -0.010876125 -0.21254015 4
1.7213887 -0.011116398 -0.15060511 5
1.7435668 -0.011868265 -0.091378585 6
1.747689 -0.012506414 -0.030506806 7
1.7436681 -0.01521676 0.030436996 8
1.7515241 -0.015896764 0.091797277 9
1.7492431 -0.016181387 0.15304548 10
1.7606957 -0.016901987 0.21619622 11
1.7309179 -0.016918261 -0.21254015 4
1.7213395 -0.017125098 -0.15060511 5
1.7475091 -0.01799551 -0.091587931 6
1.7436357 -0.018564334 -0.030436996 7
1.7336067 -0.021181054 0.030262474 8
1.7574493 -0.02208592 0.092111297 9
1.7471838 -0.022261905 0.15287116 10
1.7665809 -0.023125811 0.21692745 11
1.7308483 -0.022960188 -0.21254015 4
1.7232615 -0.023160366 -0.15077944 5
1.7354531 -0.023930119 -0.090959899 6
1.7515582 -0.02476372 -0.030576617 7
1.7415199 -0.027357979 0.030402092 8
1.7453793 -0.028028015 0.091483258 9
1.7530719 -0.028457595 0.1533941 10
1.7486261 -0.028995976 0.21473379 11
1.7307576 -0.029001834 -0.21254015 4
1.7271543 -0.029242985 -0.15112805 5
1.7273713 -0.029849801 -0.090541214 6
1.7554598 -0.030948147 -0.030646425 7
1.7434131 -0.033475243 0.030436996 8
1.7372894 -0.033660986 0.091064572 9
1.7529618 -0.034576781 0.1533941 10
1.7564529 -0.035259005 0.21570876 11
1.722707 -0.034882378 -0.2115652 4
1.7330174 -0.035393748 -0.151651 5
1.7312502 -0.035962228 -0.09075056 6
1.7433521 -0.036518015 -0.030436996 7
1.7512894 -0.039436501 0.030576617 8
1.7411548 -0.039816376 0.091273919 9
1.7488468 -0.04060306 0.15304548 10
1.76228 -0.04122268 0.21643998 11
1.7265511 -0.040688433 -0.21205269 4
1.7209325 -0.041157078 -0.15060511 5
1.7391082 -0.041895468 -0.091169246 6
1.7392159 -0.042505518 -0.030367188 7
1.7371478 -0.045185421 0.030332282 8
1.7469949 -0.046051789 0.091587931 9
1.7427275 -0.046243671 0.15252255 10
1.7317878 -0.046255853 -0.27438608 3
1.7660941 -0.047480635 0.21692745 11
1.7263985 -0.046714969 -0.21205269 4
1.7712562 -0.048238155 0.28064346 12
1.7247699 -0.046972152 -0.15095374 5
1.7349582 -0.04785569 -0.090959899 6
1.7390568 -0.048576254 -0.030367188 7
1.7269852 -0.050954044 0.030157758 8
1.7528125 -0.052328452 0.091901943 9
1.7405639 -0.052266836 0.15234824 10
1.7177945 -0.051883195 -0.27219599 3
1.7460759 -0.053042412 0.21449007 11
1.7381299 -0.053104673 -0.2135151 4
1.7454093 -0.053631995 0.27657616 12
1.722604 -0.052931245 -0.15077944 5
1.7267956 -0.05366338 -0.090541214 6
1.742874 -0.054772019 -0.030436996 7
1.7387887 -0.057377752 0.030367188 8
1.7446346 -0.058180321 0.091483258 9
1.748336 -0.05860924 0.15304548 10
1.7274742 -0.058211733 -0.27376035 3
1.747864 -0.059204228 0.21473379 11
1.7180945 -0.058496077 -0.21107772 4
1.7570567 -0.060129646 0.27845338 12
1.7263911 -0.05908021 -0.15112805 5
1.7265977 -0.059690695 -0.090541214 6
1.7466692 -0.060995027 -0.030506806 7
1.7365794 -0.063373983 0.030332282 8
1.7364373 -0.063975744 0.091064572 9
1.7521027 -0.064859115 0.1533941 10
1.7233124 -0.064094551 -0.27313459 3
1.7575651 -0.065675676 0.2159525 11
1.7198634 -0.064567454 -0.21132146 4
1.7647321 -0.066560365 0.27970487 12
1.7301562 -0.065256268 -0.15147668 5
1.7303704 -0.065869227 -0.09075056 6
1.7384528 -0.06678462 -0.030367188 7
1.746338 -0.069834903 0.030506806 8
1.7401946 -0.070197642 0.091273919 9
1.7339489 -0.070248827 0.15182531 10
1.7211044 -0.070029333 -0.27282172 3
1.7593086 -0.071891382 0.21619622 11
1.7176442 -0.070489116 -0.21107772 4
1.7427783 -0.071825258 0.2762633 12
1.7179737 -0.070802987 -0.15043081 5
1.73013 -0.071908943 -0.09075056 6
1.7342131 -0.072685055 -0.030297378 7
1.7340968 -0.07540907 0.030297378 8
1.7439296 -0.07644657 0.091483258 9
1.7416549 -0.076651417 0.15252255 10
1.7090088 -0.075513497 -0.27094454 3
1.7511144 -0.077680178 0.21522127 11
1.7233371 -0.076749332 -0.21180893 4
1.7444904 -0.077996485 0.27657616 12
1.7097546 -0.076443441 -0.14973356 5
1.7338588 -0.0781276 -0.090959899 6
1.7419394 -0.079101004 -0.030436996 7
1.7238356 -0.08099249 0.030122854 8
1.7476423 -0.082722425 0.091692604 9
1.7393866 -0.082635909 0.15234824 10
1.7047884 -0.081290416 -0.27031878 3
1.7409185 -0.083317772 0.21400258 11
1.7290071 -0.083050169 -0.21254015 4
1.7560459 -0.084656142 0.27845338 12
1.7134575 -0.082603015 -0.15008219 5
1.7295858 -0.083985679 -0.09075056 6
1.7356608 -0.084887974 -0.030332282 7
1.733528 -0.08751341 0.030297378 8
1.7433535 -0.088619523 0.091483258 9
1.7390875 -0.088706993 0.15234824 10
1.7084401 -0.087442689 -0.27094454 3
1.7386346 -0.089292377 0.21375884 11
1.7227592 -0.088778533 -0.21180893 4
1.7537671 -0.090683356 0.27814052 12
1.7131587 -0.088583589 -0.15008219 5
1.7272875 -0.089918718 -0.090645887 6
1.7473356 -0.091573983 -0.030541712 7
1.7372056 -0.093779609 0.030367188 8
1.7350564 -0.094271004 0.091064572 9
1.7467251 -0.095210768 0.15304548 10
1.7160141 -0.093837164 -0.27219599 3
1.7541692 -0.096230686 0.21570876 11
1.7184746 -0.094573379 -0.21132146 4
1.7534399 -0.096804596 0.27814052 12
1.7207966 -0.095002413 -0.15077944 5
1.7936291 -0.099337377 0.34918046 13
1.7329456 -0.096279904 -0.090959899 6
1.7370224 -0.097114623 -0.030367188 7
1.7388643 -0.099957779 0.030402092 8
1.7387044 -0.10055754 0.091273919 9
1.7384259 -0.10084586 0.15234824 10
1.7196201 -0.10005608 -0.27282172 3
1.7458957 -0.10189068 0.21473379 11
1.718134 -0.1005714 -0.21132146 4
1.7412593 -0.10223 0.2762633 12
1.7204545 -0.10100853 -0.15077944 5
1.7697531 -0.10421283 0.34460106 13
1.7286115 -0.10209292 -0.09075056 6
1.7346766 -0.10305878 -0.030332282 7
1.7305207 -0.10554002 0.030262474 8
1.7383429 -0.10662615 0.091273919 9
1.7320975 -0.10654651 0.15182531 10
1.7034874 -0.10508505 -0.27031878 3
1.7534547 -0.10847465 0.21570876 11
1.7197539 -0.10669111 -0.2115652 4
1.7468065 -0.10867547 0.27720189 12
1.70816 -0.10627113 -0.14973356 5
1.7576218 -0.10965629 0.34231135 13
1.7382114 -0.10874984 -0.091273919 6
1.7343063 -0.1091133 -0.030332282 7
1.7241551 -0.11119393 0.030157758 8
1.7439394 -0.11308115 0.091587931 9
1.731715 -0.11259202 0.15182531 10
1.7070526 -0.11128771 -0.27094454 3
1.7372184 -0.11355881 0.21375884 11
1.7253135 -0.11308303 -0.21229641 4
1.7523301 -0.11516093 0.27814052 12
1.715731 -0.11275569 -0.15043081 5
1.7689825 -0.11656541 0.34460106 13
1.7198849 -0.11363164 -0.090331867 6
1.741896 -0.11569662 -0.0304719 7
1.7297418 -0.11761866 0.030262474 8
1.7415413 -0.11903173 0.091483258 9
1.7372744 -0.11904474 0.15234824 10
1.7125659 -0.11765192 -0.27188313 3
1.7348311 -0.11948574 0.2135151 11
1.7150064 -0.11842107 -0.21107772 4
1.7519175 -0.121277 0.27814052 12
1.7193024 -0.11901922 -0.15077944 5
1.7724818 -0.12301143 0.3453643 13
1.7194778 -0.11963446 -0.090331867 6
1.7414817 -0.12177625 -0.0304719 7
1.7333099 -0.12394111 0.030332282 8
1.7331468 -0.12453756 0.091064572 9
1.7428101 -0.12553768 0.15287116 10
1.7160853 -0.12391373 -0.27250886 3
1.744303 -0.12625727 0.21473379 11
1.7106227 -0.12411952 -0.21059024 4
1.7455727 -0.12696169 0.27720189 12
1.7228507 -0.12530904 -0.15112805 5
1.7759578 -0.12948331 0.34612754 13
1.7230337 -0.12592699 -0.090541214 6
1.7330686 -0.1272686 -0.030332282 7
1.7408429 -0.1305891 0.0304719 8
1.7366848 -0.13088681 0.091273919 9
1.730441 -0.13071997 0.15182531 10
1.7136725 -0.12975408 -0.27219599 3
1.7478102 -0.13264567 0.21522127 11
1.7121584 -0.13024051 -0.21083398 4
1.7313313 -0.13200291 0.27501184 12
1.7104831 -0.13041335 -0.15008219 5
1.7833252 -0.13628016 0.34765401 13
1.7305492 -0.13255088 -0.090959899 6
1.7286263 -0.13301055 -0.030262474 7
1.7244282 -0.1354126 0.030192664 8
1.7421905 -0.13741931 0.091587931 9
1.7007854 -0.1341534 -0.33162606 2
1.7279879 -0.13660252 0.151651 10
1.7033632 -0.13495502 -0.27063167 3
1.7414001 -0.13827448 0.21449007 11
1.715651 -0.13653122 -0.21132146 4
1.7426748 -0.13898785 0.27688903 12
1.7060453 -0.13606645 -0.14973356 5
1.7710965 -0.14156571 0.3453643 13
1.728085 -0.13843133 -0.090855226 6
1.7968036 -0.14425175 0.41615945 14
1.732138 -0.13936451 -0.030332282 7
1.7199588 -0.14110415 0.030122854 8
1.7397096 -0.14333586 0.091483258 9
1.6983502 -0.13992822 -0.33124444 2
1.7294862 -0.14279744 0.15182531 10
1.6989444 -0.14057428 -0.27000591 3
1.7428852 -0.1445163 0.21473379 11
1.7191206 -0.1428479 -0.21180893 4
1.7461162 -0.14539792 0.27751476 12
1.7095309 -0.14235149 -0.15008219 5
1.7666787 -0.14742064 0.34460106 13
1.7196301 -0.14379689 -0.090436541 6
1.7846375 -0.14954653 0.41346005 14
1.7396116 -0.14607926 -0.0304719 7
1.7274256 -0.1477889 0.030262474 8
1.733229 -0.14889486 0.091169246 9
1.7076316 -0.1466959 -0.33315253 2
1.7329472 -0.14917536 0.15217392 10
1.7063158 -0.14718288 -0.2712574 3
1.7344593 -0.14991547 0.21375884 11
1.7087229 -0.14799145 -0.21059024 4
1.7515018 -0.1520045 0.27845338 12
1.7129933 -0.14866252 -0.15043081 5
1.7661533 -0.1535866 0.34460106 13
1.7151383 -0.1494519 -0.090227202 6
1.758867 -0.15357158 0.40761131 14
1.7430754 -0.15249932 -0.030541712 7
1.7348664 -0.1545275 0.030402092 8
1.7267307 -0.15441036 0.090855226 9
1.6934211 -0.15143171 -0.3304812 2
1.7423382 -0.1561126 0.15304548 10
1.7097265 -0.15349139 -0.27188313 3
1.7339253 -0.15596893 0.21375884 11
1.706219 -0.15377693 -0.21034651 4
1.7391564 -0.15705149 0.27657616 12
1.718417 -0.15517867 -0.15095374 5
1.777338 -0.16081215 0.34689078 13
1.7165952 -0.15561824 -0.090331867 6
1.7544388 -0.1593577 0.40671152 14
1.728592 -0.15731418 -0.030297378 7
1.7343165 -0.16058238 0.030402092 8
1.7261811 -0.16043685 0.090855226 9
1.6831081 -0.15643349 -0.32857311 2
1.7298797 -0.16108516 0.15199961 10
1.713114 -0.15982553 -0.27250886 3
1.7392998 -0.16257475 0.21449007 11
1.7116011 -0.16028707 -0.21107772 4
1.7326974 -0.16256773 0.27563757 12
1.7039791 -0.15987328 -0.14973356 5
1.7767658 -0.16701522 0.34689078 13
1.7239954 -0.1623584 -0.09075056 6
1.7790934 -0.16786055 0.41256022 14
1.7300233 -0.16353534 -0.030332282 7
1.7218022 -0.16548739 0.030192664 8
1.7375387 -0.16761202 0.091483258 9
1.6942768 -0.16343875 -0.33086282 2
1.7273239 -0.16693094 0.15182531 10
1.7046809 -0.16504298 -0.2712574 3
1.7387217 -0.16864507 0.21449007 11
1.7110312 -0.16626067 -0.21107772 4
1.7399837 -0.16938056 0.27688903 12
1.6994447 -0.16543424 -0.14938495 5
1.7605401 -0.17169183 0.34383783 13
1.7313694 -0.1691521 -0.091169246 6
1.7746177 -0.17369007 0.41166043 14
1.7334223 -0.16996354 -0.030402092 7
1.7132547 -0.17070356 0.030053046 8
1.7349558 -0.17347744 0.091378585 9
1.6976029 -0.16974254 -0.33162606 2
1.7287132 -0.17315796 0.15199961 10
1.6962322 -0.17020354 -0.27000591 3
1.7361474 -0.17451476 0.21424633 11
1.7183409 -0.17302783 -0.21205269 4
1.7433126 -0.17584971 0.27751476 12
1.7067862 -0.17216524 -0.15008219 5
1.7677433 -0.17862572 0.3453643 13
1.7188457 -0.17398782 -0.090541214 6
1.7778782 -0.18027678 0.41256022 14
1.7328185 -0.17601326 -0.030402092 7
1.7245833 -0.17791413 0.030262474 8
1.7244065 -0.17850426 0.090855226 9
1.6930945 -0.17526296 -0.33086282 2
1.7320615 -0.17960222 0.15234824 10
1.7034872 -0.17693977 -0.2712574 3
1.7315787 -0.18016312 0.21375884 11
1.7078544 -0.17799602 -0.21083398 4
1.7407235 -0.18172881 0.27720189 12
1.710138 -0.17853574 -0.15043081 5
1.767109 -0.1847952 0.3453643 13
1.7142552 -0.1795705 -0.090331867 6
1.7656094 -0.18526147 0.40986085 14
1.7321935 -0.18206087 -0.030402092 7
1.7219632 -0.18372081 0.030227568 8
1.7317165 -0.1853728 0.091273919 9
1.6885682 -0.18075396 -0.33009958 2
1.7393483 -0.18649679 0.15304548 10
1.7028592 -0.18288498 -0.2712574 3
1.7309393 -0.18620634 0.21375884 11
1.6993281 -0.18310581 -0.20985903 4
1.7361505 -0.18738003 0.27657616 12
1.7095042 -0.18450415 -0.15043081 5
1.7664531 -0.19096245 0.3453643 13
1.7136179 -0.18555327 -0.090331867 6
1.7610772 -0.19100323 0.40896103 14
1.7315474 -0.18810622 -0.030402092 7
1.7232991 -0.18994956 0.030262474 8
1.7310923 -0.19111435 0.091273919 9
1.6840242 -0.18621551 -0.32933635 2
1.7188839 -0.19037387 0.15130237 10
1.7022103 -0.18882796 -0.2712574 3
1.7440894 -0.19378178 0.21546502 11
1.6986786 -0.18903644 -0.20985903 4
1.7237401 -0.1918254 0.27469894 12
1.7009294 -0.18958747 -0.14973356 5
1.7696782 -0.19756302 0.34612754 13
1.7208993 -0.19242153 -0.09075056 6
1.764273 -0.19758312 0.40986085 14
1.7189904 -0.19251187 -0.030192664 7
1.7854254 -0.20026754 0.48140347 15
1.718686 -0.19521183 0.030192664 8
1.7343835 -0.19760802 0.091483258 9
1.683364 -0.19209272 -0.32933635 2
1.71425 -0.19592029 0.15095374 10
1.6976496 -0.19402306 -0.27063167 3
1.7513261 -0.20046735 0.21643998 11
1.7019867 -0.19512062 -0.21034651 4
1.7328724 -0.19896786 0.2762633 12
1.6923399 -0.1946132 -0.14903632 5
1.7651125 -0.2029818 0.3453643 13
1.7202518 -0.19812718 -0.09075056 6
1.7713517 -0.2043258 0.41166043 14
1.7242674 -0.19919956 -0.030297378 7
1.7578487 -0.20339005 0.47415653 15
1.7179941 -0.20120996 0.030192664 8
1.7297159 -0.20319492 0.091273919 9
1.6866175 -0.19813201 -0.33009958 2
1.7215058 -0.20253506 0.151651 10
1.6891147 -0.19902314 -0.26938018 3
1.732873 -0.2044857 0.21424633 11
1.7091806 -0.20199238 -0.21132146 4
1.7360908 -0.20547989 0.27688903 12
1.701578 -0.20139505 -0.14990787 5
1.7565948 -0.20821755 0.34383783 13
1.7116164 -0.203189 -0.090331867 6
1.7706276 -0.21050774 0.41166043 14
1.7295185 -0.20592646 -0.030402092 7
1.770556 -0.21112601 0.47777998 15
1.7152958 -0.20696609 0.030157758 8
1.7250304 -0.20875162 0.091064572 9
1.6898136 -0.20448992 -0.33086282 2
1.7306778 -0.20974152 0.15252255 10
1.6962538 -0.20587005 -0.27063167 3
1.7341192 -0.21077283 0.21449007 11
1.7064946 -0.20771745 -0.21107772 4
1.7412455 -0.21225578 0.27782765 12
1.706798 -0.20805666 -0.15043081 5
1.7636524 -0.21529956 0.3453643 13
1.7069316 -0.20867768 -0.090122528 6
1.762145 -0.21573985 0.40986085 14
1.7287893 -0.21196236 -0.030402092 7
1.7736431 -0.217776 0.47881526 15
1.7225007 -0.21393824 0.030297378 8
1.7242913 -0.21477184 0.091064572 9
1.6851931 -0.2099019 -0.33009958 2
1.7299352 -0.21578144 0.15252255 10
1.699445 -0.21227951 -0.2712574 3
1.7314031 -0.21657833 0.21424633 11
1.693941 -0.21219254 -0.20961528 4
1.7326539 -0.21734908 0.27657616 12
1.7100152 -0.21450923 -0.15077944 5
1.7628901 -0.22145453 0.3453643 13
1.7101561 -0.21513331 -0.090331867 6
1.7613813 -0.22188956 0.40986085 14
1.7220868 -0.21724482 -0.030297378 7
1.7728722 -0.22396581 0.47881526 15
1.7257106 -0.22045638 0.030367188 8
1.7029623 -0.21785241 -0.39636377 1
1.7235311 -0.22078942 0.091064572 9
1.6766608 -0.21478519 -0.32857311 2
1.7232429 -0.2210582 0.15199961 10
1.6986936 -0.2182104 -0.2712574 3
1.7365431 -0.22338054 0.21497753 11
1.6990964 -0.21886504 -0.21034651 4
1.7260072 -0.22263773 0.27563757 12
1.6973999 -0.21894766 -0.14973356 5
1.7698946 -0.22861283 0.34689078 13
1.7133563 -0.22161394 -0.090541214 6
1.7721915 -0.22953846 0.41256022 14
1.7233011 -0.2235119 -0.030332282 7
1.7644165 -0.22915767 0.47674471 15
1.7169999 -0.22543761 0.030227568 8
1.6828704 -0.22125529 -0.39186475 1
1.7267102 -0.22732572 0.091273919 9
1.6797938 -0.22114906 -0.32933635 2
1.710609 -0.22550966 0.15095374 10
1.6979216 -0.22413862 -0.2712574 3
1.731817 -0.22892059 0.21449007 11
1.702258 -0.22531563 -0.21083398 4
1.7271776 -0.22892079 0.27595043 12
1.6946502 -0.22460957 -0.14955924 5
1.761301 -0.23375635 0.3453643 13
1.7204916 -0.22864576 -0.090959899 6
1.767516 -0.23520905 0.41166043 14
1.7225103 -0.22952597 -0.030332282 7
1.7559463 -0.23429327 0.47467417 15
1.7062937 -0.23009346 0.030053046 8
1.6705005 -0.22556363 -0.38916534 1
1.7298646 -0.23388688 0.091483258 9
1.6829027 -0.22753738 -0.33009958 2
1.7216576 -0.23308323 0.15199961 10
1.6853842 -0.22847195 -0.26938018 3
1.7290403 -0.23469736 0.21424633 11
1.7152301 -0.23312765 -0.21254015 4
1.7381122 -0.23654667 0.27782765 12
1.6978041 -0.23106098 -0.14990787 5
1.7565839 -0.23937283 0.34460106 13
1.7078094 -0.23302989 -0.090331867 6
1.7782691 -0.24296018 0.41435984 14
1.7256613 -0.23607935 -0.030402092 7
1.7666017 -0.24199432 0.47777998 15
1.717365 -0.23769309 0.030262474 8
1.6581211 -0.22978833 -0.38646591 1
1.7211245 -0.23882575 0.091064572 9
1.6859874 -0.23395008 -0.33086282 2
1.7247802 -0.23963988 0.15234824 10
1.6924024 -0.23544239 -0.27063167 3
1.7203461 -0.23963593 0.21327138 11
1.7006434 -0.23719403 -0.21083398 4
1.7411888 -0.2431588 0.27845338 12
1.7009337 -0.23753715 -0.1502565 5
1.7596262 -0.24604674 0.3453643 13
1.7030299 -0.23843597 -0.090122528 6
1.7581114 -0.24646066 0.40986085 14
1.7367083 -0.24376932 -0.030611521 7
1.7657461 -0.24815945 0.47777998 15
1.7125652 -0.24312426 0.030192664 8
1.6688851 -0.23722036 -0.38916534 1
1.7163258 -0.24426928 0.090855226 9
1.6793294 -0.23900393 -0.32971796 2
1.7259058 -0.24594007 0.15252255 10
1.6993926 -0.2424646 -0.27188313 3
1.7194991 -0.24563959 0.21327138 11
1.69784 -0.24284784 -0.21059024 4
1.7227305 -0.24671485 0.27563757 12
1.7040387 -0.24403799 -0.15060511 5
1.7665302 -0.25330213 0.34689078 13
1.706141 -0.24494685 -0.090331867 6
1.7610981 -0.25315061 0.41076064 14
1.7160538 -0.2469814 -0.030262474 7
1.7706056 -0.25514817 0.47933289 15
1.7216003 -0.25054061 0.030367188 8
1.6757603 -0.2441683 -0.39096493 1
1.7194153 -0.25083554 0.091064572 9
1.6745996 -0.24429764 -0.32895473 2
1.7191224 -0.25109926 0.15199961 10
1.6985358 -0.2483951 -0.27188313 3
1.728452 -0.25307819 0.21449007 11
1.6950179 -0.24848503 -0.21034651 4
1.7238131 -0.25301364 0.27595043 12
1.7031765 -0.24998468 -0.15060511 5
1.7734048 -0.2606087 0.34841725 13
1.7131796 -0.25206384 -0.09075056 6
1.7602038 -0.25929648 0.41076064 14
1.7151812 -0.25297004 -0.030262474 7
1.7601485 -0.2599161 0.47674471 15
1.7108262 -0.25507417 0.030192664 8
1.6787525 -0.2505917 -0.39186475 1
1.7224798 -0.25742632 0.091273919 9
1.6776199 -0.25072196 -0.32971796 2
1.7103536 -0.25591922 0.15130237 10
1.6898441 -0.25315195 -0.27063167 3
1.7393366 -0.26087672 0.2159525 11
1.7039555 -0.25587413 -0.2115652 4
1.7287798 -0.2599104 0.27688903 12
1.6865315 -0.25355867 -0.14921063 5
1.7608361 -0.26504412 0.34612754 13
1.7122893 -0.2580424 -0.09075056 6
1.7669957 -0.2666021 0.41256022 14
1.7142878 -0.25895563 -0.030262474 7
1.7554101 -0.26548082 0.47570941 15
1.7099253 -0.2610445 0.030192664 8
1.6643829 -0.25438908 -0.38871542 1
1.7215707 -0.26343733 0.091273919 9
1.6786752 -0.2568734 -0.33009958 2
1.7153581 -0.26279306 0.15182531 10
1.685045 -0.25845012 -0.27000591 3
1.7227186 -0.2645362 0.21400258 11
1.7109003 -0.26302707 -0.21254015 4
1.7298144 -0.2662439 0.27720189 12
1.6994206 -0.26156583 -0.15043081 5
1.7521387 -0.26999301 0.34460106 13
1.7074304 -0.26340881 -0.090541214 6
1.7776097 -0.27455318 0.41525963 14
1.7252306 -0.2667715 -0.0304719 7
1.7621092 -0.27278891 0.47777998 15
1.7050521 -0.26639432 0.030122854 8
1.6596342 -0.25959501 -0.38781562 1
1.7206407 -0.26944515 0.091273919 9
1.6894062 -0.26455393 -0.3323893 2
1.724272 -0.27032208 0.15269686 10
1.6919385 -0.26555562 -0.2712574 3
1.7257069 -0.27116427 0.21449007 11
1.7040887 -0.26807213 -0.21180893 4
1.7269232 -0.27197316 0.27688903 12
1.6925927 -0.26656646 -0.14990787 5
1.7550641 -0.276719 0.3453643 13
1.6946634 -0.26749882 -0.089913182 6
1.757392 -0.27771473 0.41076064 14
1.7282392 -0.27341703 -0.030541712 7
1.7573302 -0.27833378 0.47674471 15
1.7159598 -0.2742379 0.030332282 8
1.6606423 -0.26569453 -0.38826552 1
1.7177176 -0.27513376 0.091169246 9
1.6787796 -0.26889691 -0.3304812 2
1.717416 -0.27539292 0.15217392 10
1.6949021 -0.27208617 -0.27188313 3
1.7286696 -0.27781644 0.21497753 11
1.6855036 -0.27118096 -0.20961528 4
1.724013 -0.27768543 0.27657616 12
1.697553 -0.27342355 -0.15043081 5
1.7618403 -0.28409377 0.34689078 13
1.7055498 -0.27532244 -0.090541214 6
1.7525644 -0.28322572 0.40986085 14
1.711482 -0.27689308 -0.030262474 7
1.7677898 -0.28631949 0.47985053 15
1.7209126 -0.28119344 0.030436996 8
1.6654742 -0.2724334 -0.38961524 1
1.7147758 -0.28080529 0.091064572 9
1.6720184 -0.27380353 -0.32933635 2
1.7144783 -0.28106382 0.15199961 10
1.693942 -0.2780008 -0.27188313 3
1.7257307 -0.28352714 0.21473379 11
1.6943407 -0.27867365 -0.21083398 4
1.7152368 -0.28241795 0.2753247 12
1.6926565 -0.27870008 -0.15008219 5
1.7685864 -0.29151919 0.34841725 13
1.7045784 -0.28127423 -0.090541214 6
1.7592556 -0.29061201 0.41166043 14
1.7144508 -0.28351808 -0.030332282 7
1.759156 -0.29122639 0.47777998 15
1.7080863 -0.28522271 0.030227568 8
1.6779675 -0.28049442 -0.39276454 1
1.7177248 -0.28744856 0.091273919 9
1.6749252 -0.28028634 -0.33009958 2
1.7095567 -0.28638843 0.151651 10
1.6851686 -0.28260523 -0.27063167 3
1.7247304 -0.28954932 0.21473379 11
1.6972728 -0.28524432 -0.21132146 4
1.7220324 -0.28971449 0.27657616 12
1.6877438 -0.28394577 -0.14973356 5
1.7520702 -0.29508245 0.3453643 13
1.7154028 -0.28921491 -0.091169246 6
1.7620738 -0.29739982 0.41256022 14
1.7173944 -0.29016721 -0.030402092 7
1.7505095 -0.29607648 0.47570941 15
1.7070802 -0.29118329 0.030227568 8
1.6635317 -0.28405386 -0.38961524 1
1.7167109 -0.29344279 0.091273919 9
1.677807 -0.28679278 -0.33086282 2
1.7085465 -0.29235414 0.151651 10
1.6841719 -0.28848585 -0.27063167 3
1.7197962 -0.29489702 0.21424633 11
1.7001798 -0.29183882 -0.21180893 4
1.7249043 -0.29639277 0.27720189 12
1.6867423 -0.28983536 -0.14973356 5
1.7355508 -0.29853404 0.34231135 13
1.7025732 -0.29316747 -0.090541214 6
1.7610248 -0.30354878 0.41256022 14
1.7124298 -0.29548019 -0.030332282 7
1.7532727 -0.30284277 0.47674471 15
1.7080235 -0.29748347 0.030262474 8
1.6606103 -0.28952423 -0.38916534 1
1.7156762 -0.29943341 0.091273919 9
1.6767956 -0.29264766 -0.33086282 2
1.7153662 -0.29968786 0.15234824 10
1.6812086 -0.29402265 -0.27031878 3
1.7187563 -0.30089843 0.21424633 11
1.6854637 -0.29537317 -0.21010277 4
1.7335874 -0.3041186 0.27876624 12
1.697495 -0.29778701 -0.15077944 5
1.7577021 -0.30866522 0.34689078 13
1.6976053 -0.29841715 -0.090331867 6
1.7561159 -0.30901858 0.41166043 14
1.7232043 -0.30353728 -0.030541712 7
1.7617174 -0.31063831 0.47933289 15
1.7069747 -0.30344379 0.030262474 8
1.6595895 -0.29531911 -0.38916534 1
1.7067553 -0.30401939 0.090855226 9
1.6738311 -0.29815471 -0.3304812 2
1.7221556 -0.30707276 0.15304548 10
1.6879506 -0.30127776 -0.27157027 3
1.7137872 -0.30619788 0.21375884 11
1.6863765 -0.30160421 -0.21034651 4
1.7189041 -0.3077313 0.27657616 12
1.6964452 -0.30371052 -0.15077944 5
1.7566139 -0.31479883 0.34689078 13
1.6965532 -0.30434111 -0.090331867 6
1.7511905 -0.31445786 0.41076064 14
1.7103252 -0.30742788 -0.030332282 7
1.7758328 -0.31952274 0.48347399 15
1.7137755 -0.31082785 0.030402092 8
1.6719702 -0.30354708 -0.39231464 1
1.713544 -0.31140372 0.091273919 9
1.6669853 -0.30294257 -0.32933635 2
1.7132323 -0.31165597 0.15234824 10
1.6907758 -0.30787575 -0.27219599 3
1.7205195 -0.31360209 0.21473379 11
1.6814077 -0.30677634 -0.20985903 4
1.7158762 -0.31337461 0.2762633 12
1.6836149 -0.30748263 -0.14973356 5
1.751642 -0.32022253 0.34612754 13
1.7033391 -0.31169939 -0.09075056 6
1.7539158 -0.32127097 0.41166043 14
1.7053078 -0.31267488 -0.030262474 7
1.7633059 -0.32362717 0.48036817 15
1.7087473 -0.31608066 0.030332282 8
1.6785653 -0.31080064 -0.39411426 1
1.716374 -0.31811112 0.091483258 9
1.6697783 -0.30947512 -0.33009958 2
1.7003802 -0.31545383 0.15130237 10
1.681922 -0.31233308 -0.27094454 3
1.7369794 -0.32287088 0.21692745 11
1.6881329 -0.31409612 -0.21083398 4
1.7244819 -0.32117066 0.27782765 12
1.6825312 -0.31335768 -0.14973356 5
1.7505136 -0.32633495 0.34612754 13
1.7140207 -0.31984144 -0.091378585 6
1.756615 -0.32810694 0.41256022 14
1.7081373 -0.31936064 -0.030332282 7
1.7621655 -0.32978028 0.48036817 15
1.6958432 -0.31981984 0.030122854 8
1.7152532 -0.32410046 0.091483258 9
1.6686879 -0.31530187 -0.33009958 2
1.7090571 -0.32323864 0.15217392 10
1.6730579 -0.31673244 -0.26969305 3
1.712437 -0.32449704 0.21400258 11
1.6909268 -0.32072672 -0.21132146 4
1.7175282 -0.32608292 0.27688903 12
1.6814271 -0.31922892 -0.14973356 5
1.7532212 -0.33317646 0.34689078 13
1.6971973 -0.32283682 -0.090541214 6
1.7592877 -0.33496565 0.41346005 14
1.7227268 -0.32831612 -0.030611521 7
1.764799 -0.33665341 0.48140347 15
1.698644 -0.3264924 0.030192664 8
1.710189 -0.32933047 0.091273919 9
1.6772163 -0.32298091 -0.33200768 2
1.7177002 -0.33108786 0.15304548 10
1.6758212 -0.32331899 -0.27031878 3
1.7054467 -0.32934344 0.21327138 11
1.6781031 -0.32436684 -0.20985903 4
1.7299553 -0.33470279 0.27907911 12
1.688127 -0.32661006 -0.15043081 5
1.7443377 -0.33780128 0.3453643 13
1.6921386 -0.32799903 -0.090331867 6
1.7542816 -0.34036234 0.41256022 14
1.7215703 -0.33432755 -0.030611521 7
1.7674059 -0.34354889 0.48243871 15
1.7053436 -0.33395699 0.030332282 8
1.7090291 -0.33529812 0.091273919 9
1.662593 -0.32618773 -0.32933635 2
1.7243543 -0.33861738 0.15374273 10
1.6824356 -0.33069065 -0.27157027 3
1.71013 -0.33644414 0.21400258 11
1.6769606 -0.33022255 -0.20985903 4
1.7210242 -0.33921143 0.27782765 12
1.6947957 -0.33404189 -0.15112805 5
1.7470003 -0.34464809 0.34612754 13
1.6949023 -0.33467752 -0.090541214 6
1.7492592 -0.34572813 0.41166043 14
1.712546 -0.33878261 -0.0304719 7
1.7737762 -0.35121712 0.48450929 15
1.7120118 -0.34147227 0.0304719 8
1.7078482 -0.34126174 0.091273919 9
1.6595191 -0.33160463 -0.32895473 2
1.7114396 -0.34229001 0.15269686 10
1.6851449 -0.33733693 -0.27219599 3
1.7147844 -0.34358153 0.21473379 11
1.6874756 -0.33841619 -0.21132146 4
1.7120825 -0.34366184 0.27657616 12
1.681899 -0.33760315 -0.15008219 5
1.7573352 -0.35306436 0.34841725 13
1.705472 -0.34295428 -0.091169246 6
1.7480417 -0.35183212 0.41166043 14
1.7035118 -0.34317881 -0.030332282 7
1.7649643 -0.35587922 0.48243871 15
1.7010109 -0.34545627 0.030297378 8
1.7066466 -0.34722117 0.091273919 9
1.6602752 -0.33778679 -0.32933635 2
1.6985204 -0.3458766 0.151651 10
1.6762148 -0.3416391 -0.27094454 3
1.7174646 -0.35035869 0.21522127 11
1.6901739 -0.34509873 -0.21180893 4
1.718614 -0.35121813 0.27782765 12
1.6846142 -0.34426987 -0.15043081 5
1.7445517 -0.35683593 0.34612754 13
1.7003511 -0.34810421 -0.090959899 6
1.7582575 -0.36027887 0.41435984 14
1.7101392 -0.35073012 -0.0304719 7
1.7561418 -0.36048412 0.48036817 15
1.6939199 -0.35017735 0.030192664 8
1.7171588 -0.35560647 0.091901943 9
1.6706208 -0.34596893 -0.33162606 2
1.7051065 -0.35342091 0.15234824 10
1.6711437 -0.34668559 -0.27031878 3
1.7104003 -0.35514095 0.21449007 11
1.6928462 -0.35180429 -0.21229641 4
1.7231793 -0.35842186 0.27876624 12
1.6795011 -0.34933674 -0.15008219 5
1.7432954 -0.36292338 0.34612754 13
1.6952151 -0.35322264 -0.09075056 6
1.7569892 -0.36641413 0.41435984 14
1.706947 -0.35628891 -0.030436996 7
1.7662189 -0.36898234 0.48347399 15
1.6946441 -0.35649976 0.030227568 8
1.704181 -0.35912725 0.091273919 9
1.6751661 -0.35301286 -0.33277091 2
1.7116605 -0.36101544 0.15304548 10
1.6776544 -0.35414889 -0.27157027 3
1.7091503 -0.3611092 0.21449007 11
1.6799549 -0.35524714 -0.21083398 4
1.7238504 -0.3648437 0.27907911 12
1.6860683 -0.35684732 -0.15077944 5
1.742018 -0.36900643 0.34612754 13
1.6900642 -0.35830945 -0.090541214 6
1.7518868 -0.37173593 0.41346005 14
1.7076489 -0.3626605 -0.0304719 7
1.7649201 -0.37514535 0.48347399 15
1.7051218 -0.36492395 0.030436996 8
1.7029171 -0.36507374 0.091273919 9
1.712338 -0.36740604 0.1532198 10
1.6764081 -0.36000285 -0.27157027 3
1.7214646 -0.36999291 0.21619622 11
1.6825861 -0.36194402 -0.21132146 4
1.7187041 -0.37002733 0.27845338 12
1.6887078 -0.36356929 -0.15112805 5
1.748396 -0.37673914 0.34765401 13
1.6848984 -0.36336458 -0.090331867 6
1.742959 -0.37620425 0.41166043 14
1.7063726 -0.36861911 -0.0304719 7
1.7635999 -0.38130379 0.48347399 15
1.7077454 -0.37172431 0.030506806 8
1.7016323 -0.37101582 0.091273919 9
1.7032586 -0.37168184 0.15252255 10
1.6751411 -0.36585242 -0.27157027 3
1.710466 -0.37388021 0.21497753 11
1.6851908 -0.36866361 -0.21180893 4
1.7096833 -0.37433445 0.27720189 12
1.6757507 -0.36690494 -0.15008219 5
1.7547413 -0.3845208 0.34918046 13
1.695325 -0.37181091 -0.090959899 6
1.7454422 -0.3831217 0.41256022 14
1.697263 -0.37285691 -0.030332282 7
1.7584846 -0.38662788 0.48243871 15
1.6888657 -0.37379402 0.030192664 8
1.7100763 -0.37911481 0.091797277 9
1.6922253 -0.37546721 0.151651 10
1.6699971 -0.37084109 -0.27094454 3
1.7265909 -0.38372457 0.21717119 11
1.6877693 -0.37540585 -0.21229641 4
1.716079 -0.38201705 0.27845338 12
1.6744598 -0.37275219 -0.15008219 5
1.7418907 -0.38808206 0.34689078 13
1.7018143 -0.3794651 -0.091378585 6
1.7517021 -0.39090979 0.41435984 14
1.7037576 -0.38052273 -0.0304719 7
1.7571243 -0.39276379 0.48243871 15
1.6895014 -0.38012591 0.030227568 8
1.7087426 -0.38508177 0.091797277 9
1.7025659 -0.38400203 0.15269686 10
1.6686925 -0.37666818 -0.27094454 3
1.7116868 -0.38668716 0.21546502 11
1.690321 -0.38217047 -0.21278389 4
1.714735 -0.38800496 0.27845338 12
1.677035 -0.37947428 -0.15043081 5
1.7328663 -0.39242554 0.3453643 13
1.692688 -0.38363731 -0.090959899 6
1.7579287 -0.39874631 0.41615945 14
1.7063192 -0.38735303 -0.030541712 7
1.7595102 -0.39975089 0.48347399 15
1.6979113 -0.38824987 0.030402092 8
1.6996006 -0.38926047 0.091378585 9
1.7050991 -0.39083305 0.15304548 10
1.6673675 -0.38249072 -0.27094454 3
1.7103267 -0.39265972 0.21546502 11
1.6851072 -0.3871794 -0.21229641 4
1.7287713 -0.39752957 0.28095633 12
1.6873503 -0.38800484 -0.15147668 5
1.7429656 -0.40111384 0.34765401 13
1.687446 -0.38864705 -0.09075056 6
1.7451322 -0.40225393 0.41346005 14
1.7088537 -0.39420581 -0.030611521 7
1.7599865 -0.40632489 0.48399165 15
1.6984934 -0.39462683 0.030436996 8
1.6982315 -0.39519083 0.091378585 9
1.705665 -0.3972345 0.1532198 10
1.6698698 -0.3892054 -0.27157027 3
1.7012129 -0.39682376 0.21449007 11
1.6721469 -0.39035153 -0.21083398 4
1.7139081 -0.40041587 0.27876624 12
1.6821055 -0.39298591 -0.15112805 5
1.7492014 -0.40898332 0.34918046 13
1.686079 -0.39453498 -0.09075056 6
1.736128 -0.40656579 0.41166043 14
1.6996795 -0.39834324 -0.0304719 7
1.7604383 -0.41290706 0.48450929 15
1.7009978 -0.40147197 0.030506806 8
1.7026727 -0.40249476 0.091692604 9
1.6945735 -0.4008925 0.15234824 10
1.6877234 -0.39958298 -0.27469894 3
1.7172018 -0.4068788 0.21668372 11
1.6765686 -0.39756009 -0.2115652 4
1.7144219 -0.40685216 0.27907911 12
1.6729692 -0.39701498 -0.15043081 5
1.7515833 -0.41599399 0.34994373 13
1.6885779 -0.40134177 -0.090959899 6
1.7422816 -0.41442737 0.41346005 14
1.6904973 -0.40242147 -0.030332282 7
1.6937524 -0.40600872 0.030402092 8
1.7071551 -0.4095366 0.092006624 9
1.6931638 -0.40680519 0.15234824 10
1.708051 -0.41101277 0.21570876 11
1.6848203 -0.40573376 -0.21278389 4
1.7188247 -0.41392264 0.28001773 12
1.6715732 -0.40285233 -0.15043081 5
1.7348524 -0.41842312 0.34689078 13
1.6910497 -0.40817082 -0.091169246 6
1.7446129 -0.42142168 0.41435984 14
1.7008163 -0.41084236 -0.030541712 7
1.6846246 -0.40973285 0.030262474 8
1.7076558 -0.41596583 0.092111297 9
1.7033473 -0.41554627 0.1533941 10
1.6951082 -0.41384971 0.21424633 11
1.6873224 -0.41226092 -0.21327138 4
1.7116128 -0.41851237 0.27907911 12
1.6701568 -0.40868476 -0.15043081 5
1.7334554 -0.42417383 0.34689078 13
1.6819271 -0.41187605 -0.09075056 6
1.7469913 -0.42813241 0.41525963 14
1.7032561 -0.41772944 -0.030611521 7
1.6909496 -0.41752824 0.030402092 8
1.6984378 -0.42000628 0.091692604 9
1.705828 -0.42214972 0.15374273 10
1.6936531 -0.41976422 0.21424633 11
1.6762395 -0.41575885 -0.21205269 4
1.713976 -0.42543623 0.27970487 12
1.6803945 -0.41710079 -0.15147668 5
1.7395856 -0.43211529 0.34841725 13
1.6804792 -0.41774458 -0.09075056 6
1.7379217 -0.43234611 0.41346005 14
1.7095494 -0.42560476 -0.030751141 7
1.6953008 -0.42488658 0.030506806 8
1.6892127 -0.42398748 0.091273919 9
1.7120734 -0.4300431 0.15443997 10
1.6998779 -0.42761067 0.21522127 11
1.6709278 -0.42063826 -0.2115652 4
1.7124805 -0.43141654 0.27970487 12
1.6789284 -0.42296392 -0.15147668 5
1.7456813 -0.44010469 0.34994373 13
1.6828837 -0.42458519 -0.090959899 6
1.736402 -0.43840998 0.41346005 14
1.6964208 -0.42863041 -0.030541712 7
1.7054355 -0.43375918 0.030716237 8
1.6974752 -0.43205002 0.091797277 9
1.7009085 -0.43355614 0.15356842 10
1.7041452 -0.43501469 0.2159525 11
1.6771426 -0.42843363 -0.21254015 4
1.7091265 -0.43660405 0.279392 12
1.6697206 -0.42684811 -0.15077944 5
1.7479385 -0.44716871 0.35070693 13
1.6891309 -0.43243834 -0.091378585 6
1.7386366 -0.44543576 0.41435984 14
1.6891787 -0.43276471 -0.030436996 7
1.6884968 -0.43541759 0.030436996 8
1.7017581 -0.43947086 0.092111297 9
1.6897402 -0.43699655 0.15269686 10
1.7103804 -0.44265291 0.21692745 11
1.679556 -0.43498826 -0.21302763 4
1.7095042 -0.44306296 0.27970487 12
1.6720777 -0.43367428 -0.15112805 5
1.7388445 -0.45099112 0.34918046 13
1.6876875 -0.43803728 -0.091378585 6
1.7484668 -0.45413825 0.41705924 14
1.6973346 -0.44117364 -0.030611521 7
1.6830975 -0.44029671 0.030367188 8
1.7021458 -0.44591457 0.092215963 9
1.6921364 -0.44360802 0.15304548 10
1.7030647 -0.44710842 0.21619622 11
1.6799475 -0.44135275 -0.21327138 4
1.7079474 -0.44902754 0.27970487 12
1.6705536 -0.43950826 -0.15112805 5
1.7372596 -0.45705807 0.34918046 13
1.6822854 -0.44290879 -0.091169246 6
1.7431022 -0.45924583 0.41615945 14
1.6996517 -0.44811535 -0.030681333 7
1.6892815 -0.44822046 0.030506806 8
1.6928577 -0.44980195 0.091797277 9
1.7039769 -0.45339322 0.15426566 10
1.6899842 -0.44998586 0.21473379 11
1.7178215 -0.45804024 0.28158206 12
1.6844096 -0.44944611 -0.15252255 5
1.733676 -0.46291593 0.34879887 13
1.6806508 -0.44907165 -0.091169246 6
1.737642 -0.46462473 0.41525963 14
1.7019408 -0.45507863 -0.030751141 7
1.6953511 -0.45648864 0.030646425 8
1.6893488 -0.45518875 0.091692604 9
1.7043074 -0.45985743 0.15443997 10
1.6940726 -0.45773035 0.21546502 11
1.7009571 -0.45990902 0.27907911 12
1.6789839 -0.45428234 -0.15217392 5
1.7358397 -0.46999094 0.34956211 13
1.679073 -0.45493552 -0.091169246 6
1.7322479 -0.46966755 0.41435984 14
1.6964818 -0.45997024 -0.030681333 7
1.6976864 -0.46316078 0.030716237 8
1.6877497 -0.46108291 0.091692604 9
1.6950047 -0.4637008 0.15374273 10
1.69446 -0.46386963 0.21570876 11
1.6936262 -0.46427694 0.27814052 12
1.6716238 -0.4585591 -0.151651 5
1.7456315 -0.47886083 0.35185182 13
1.6852592 -0.46261585 -0.091587931 6
1.7381974 -0.47747403 0.41615945 14
1.6910094 -0.46482915 -0.030611521 7
1.68835 -0.46695176 0.030576617 8
1.6976787 -0.47016984 0.092320636 9
1.6838577 -0.46665856 0.15287116 10
1.7081331 -0.47402823 0.21765867 11
1.7091246 -0.47494599 0.28095633 12
1.6661737 -0.46332377 -0.15130237 5
1.7326003 -0.48179546 0.34956211 13
1.6874824 -0.46956649 -0.091797277 6
1.7365202 -0.48353857 0.41615945 14
1.6874504 -0.47019234 -0.030576617 7
1.6790078 -0.47068331 0.030436996 8
1.7037189 -0.47825211 0.092739321 9
1.6917261 -0.47552276 0.15374273 10
1.702646 -0.47891286 0.21717119 11
1.7093575 -0.48144457 0.28126919 12
1.6683817 -0.470218 -0.151651 5
1.7346019 -0.48920831 0.35032535 13
1.6819056 -0.47466335 -0.091587931 6
1.7422377 -0.49201846 0.41795903 14
1.6896477 -0.47716671 -0.030646425 7
1.6868887 -0.47956806 0.030611521 8
1.6885082 -0.48066556 0.092006624 9
1.6938885 -0.48251677 0.15409136 10
1.6970613 -0.48406115 0.21668372 11
1.7037826 -0.48662147 0.28064346 12
1.6705618 -0.47713318 -0.15199961 5
1.7347714 -0.49579972 0.35070693 13
1.6725575 -0.47833472 -0.091169246 6
1.7423832 -0.49863318 0.41840896 14
1.6955769 -0.48555839 -0.030786045 7
1.6948122 -0.4882212 0.030786045 8
1.6829818 -0.48544958 0.091797277 9
1.7017649 -0.49118924 0.15496291 10
1.6991754 -0.49108437 0.21717119 11
1.6982785 -0.49146757 0.28001773 12
1.682283 -0.48683864 -0.1532198 5
1.7349159 -0.50239825 0.35108855 13
1.6785508 -0.48639363 -0.091587931 6
1.6785078 -0.48701632 -0.030506806 7
1.6911781 -0.49357402 0.030751141 8
1.6967003 -0.495507 0.092634656 9
1.6904787 -0.4943305 0.15409136 10
1.7050713 -0.49924386 0.21814615 11
1.7042222 -0.49931827 0.28126919 12
1.740687 -0.5106619 0.35261503 13
1.6768428 -0.49224985 -0.091587931 6
1.6883955 -0.49596137 -0.030716237 7
1.6837789 -0.49747962 0.030646425 8
1.6950479 -0.50113076 0.092634656 9
1.6869196 -0.49936807 0.15391703 10
1.7110194 -0.5071519 0.2191211 11
1.7006632 -0.50440526 0.28095633 12
1.729574 -0.51363683 0.35070693 13
1.6828594 -0.50008345 -0.092006624 6
1.6829079 -0.50041765 -0.030646425 7
1.680204 -0.50248754 0.030611521 8
1.6971147 -0.50819039 0.092843994 9
1.69098 -0.506675 0.15443997 10
1.6960186 -0.50882989 0.21741492 11
1.7102433 -0.51374835 0.28283355 12
1.725981 -0.51880437 0.35032535 13
1.6697159 -0.50220966 -0.091378585 6
1.6926395 -0.50974888 -0.030855855 7
1.6822674 -0.50950879 0.030681333 8
1.685774 -0.5112133 0.092320636 9
1.6929244 -0.514027 0.1547886 10
1.6923327 -0.51416999 0.21717119 11
1.7084396 -0.51971513 0.28283355 12
1.7259459 -0.52569896 0.35070693 13
1.6755061 -0.51065516 -0.091797277 6
1.6985008 -0.51798737 -0.030995475 7
1.6842121 -0.51684445 0.030751141 8
1.6744329 -0.51416326 0.091797277 9
1.6930243 -0.52051884 0.15496291 10
1.6885396 -0.51978523 0.21692745 11
1.7028394 -0.52451247 0.28220782 12
1.7297286 -0.53345615 0.35185182 13
1.6737133 -0.51650065 -0.091797277 6
1.6813968 -0.51919323 -0.030716237 7
1.690128 -0.52479869 0.030890759 8
1.6878856 -0.52474844 0.092634656 9
1.6892947 -0.52583325 0.1547886 10
1.6962831 -0.52833337 0.21814615 11
1.6972264 -0.52927721 0.28158206 12
1.7354467 -0.5415284 0.3533783 13
1.6758044 -0.52323866 -0.092006624 6
1.6795744 -0.52505922 -0.030716237 7
1.6806551 -0.52829653 0.030751141 8
1.6917591 -0.53243589 0.092948668 9
1.6780397 -0.52844 0.15391703 10
1.6963217 -0.53484815 0.21838988 11
1.6972523 -0.53579307 0.28189492 12
1.7241855 -0.54462618 0.3514702 13
1.6758721 -0.52968705 -0.092111297 6
1.6853572 -0.53333205 -0.030855855 7
1.6749897 -0.53294724 0.030681333 8
1.6898903 -0.53833801 0.092948668 9
1.6855824 -0.53761387 0.1547886 10
1.6849889 -0.53774852 0.21717119 11
1.6991351 -0.54291677 0.28252068 12
1.7203078 -0.55034381 0.35108855 13
1.6872941 -0.5404318 -0.030925665 7
1.6787349 -0.54092264 0.030786045 8
1.6822034 -0.54268849 0.092634656 9
1.6893837 -0.54533046 0.15531152 10
1.6848955 -0.54453117 0.21741492 11
1.7046516 -0.55157328 0.28377217 12
1.7221118 -0.55755496 0.35185182 13
1.685302 -0.54661238 -0.030925665 7
1.6825402 -0.54863912 0.030890759 8
1.6765014 -0.54731745 0.092425302 9
1.6892674 -0.55213767 0.15548584 10
1.6829845 -0.5504092 0.21741492 11
1.7027159 -0.55752027 0.28377217 12
1.7312502 -0.56753242 0.3541415 13
1.6795838 -0.55124474 -0.030855855 7
1.688308 -0.5567205 0.031030379 8
1.6860567 -0.55663079 0.093053341 9
1.6837409 -0.5561921 0.15513723 10
1.7018816 -0.5628435 0.22009605 11
1.689606 -0.55943811 0.28189492 12
1.7331859 -0.57420331 0.35490477 13
1.6739507 -0.55555159 -0.030786045 7
1.6787667 -0.56007892 0.030890759 8
1.6878922 -0.56377828 0.09326268 9
1.6742305 -0.55953991 0.15443997 10
1.7074367 -0.57130027 0.22107102 11
1.6895161 -0.56595999 0.28220782 12
1.7200022 -0.57650626 0.35261503 13
1.6833755 -0.5652104 -0.030995475 7
1.6730121 -0.56465656 0.030820949 8
1.6954747 -0.57256752 0.093786038 9
1.6835917 -0.56920946 0.15548584 10
1.7054319 -0.57725686 0.22107102 11
1.6913719 -0.5728268 0.28283355 12
1.7328537 -0.58754998 0.35566798 13
1.6814919 -0.57078958 -0.030995475 7
1.673023 -0.57084709 0.030855855 8
1.6840156 -0.5752542 0.09326268 9
1.6853651 -0.57637215 0.15583447 10
1.6715794 -0.57198358 0.21692745 11
1.7043123 -0.58384889 0.28533649 12
1.6766911 -0.57864064 0.030960569 8
1.678323 -0.57953167 0.093053341 9
1.6872104 -0.58325982 0.15618308 10
1.6995873 -0.58820266 0.22082727 11
1.6949002 -0.58691186 0.28408504 12
1.6785393 -0.5855149 0.031030379 8
1.680061 -0.58670354 0.09326268 9
1.6814028 -0.58783072 0.15583447 10
1.7032487 -0.59580183 0.22155848 11
1.690977 -0.59217167 0.28377217 12
1.6745994 -0.59070528 0.030995475 8
1.6911858 -0.59721982 0.093995392 9
1.6738085 -0.59141189 0.15531152 10
1.6899298 -0.59777176 0.22009605 11
1.6926235 -0.59938943 0.2843979 12
1.6687602 -0.59520352 0.030925665 8
1.6890908 -0.60311961 0.093995392 9
1.6753819 -0.59888405 0.15566015 10
1.6784873 -0.60032451 0.21887736 11
1.6998198 -0.60862356 0.28596222 12
1.6759723 -0.60470927 0.031100187 8
1.6794608 -0.60629922 0.093576699 9
1.6770287 -0.60608286 0.15600878 10
1.6762758 -0.60647243 0.21887736 11
1.7013999 -0.61589819 0.28658798 12
1.6758367 -0.61094856 0.031135093 8
1.6773343 -0.61215794 0.093576699 9
1.6805171 -0.61398435 0.15653172 10
1.6761198 -0.6127094 0.2191211 11
1.6955295 -0.62047565 0.28596222 12
1.6789348 -0.61939174 0.093786038 9
1.6766026 -0.61886388 0.15635739 10
1.6814189 -0.62130862 0.22009605 11
1.6840898 -0.62296367 0.2843979 12
1.6879909 -0.62943548 0.094414078 9
1.6688321 -0.62262309 0.15583447 10
1.6848187 -0.62925768 0.22082727 11
1.6874559 -0.63091391 0.28533649 12
1.6840252 -0.63432556 0.094309397 9
1.6703771 -0.62985063 0.15618308 10
1.6788976 -0.63373291 0.22033979 11
1.6835064 -0.63580823 0.28502363 12
1.6743343 -0.63735783 0.093890712 9
1.681201 -0.64064366 0.15740328 10
1.674932 -0.63858962 0.22009605 11
1.6868134 -0.64379406 0.28596222 12
1.6720992 -0.64319849 0.093890712 9
1.6790673 -0.64621526 0.15740328 10
1.6726927 -0.64443237 0.22009605 11
1.6863989 -0.65038902 0.28627509 12
1.6791519 -0.6526491 0.094414078 9
1.6768012 -0.65207231 0.15740328 10
1.6815323 -0.65458792 0.22155848 11
1.673075 -0.65196818 0.2843979 12
1.6844151 -0.66113263 0.094832763 9
1.665243 -0.65427852 0.15653172 10
1.679237 -0.66045362 0.22155848 11
1.670472 -0.662736 0.15722896 10
1.6696579 -0.66308773 0.22058353 11
1.6756631 -0.67123538 0.1579262 10
1.6674498 -0.66862088 0.22058353 11
1.6768851 -0.67886776 0.15827483 10
1.6723472 -0.67771012 0.22155848 11
1.6670097 -0.68199164 0.15757757 10
1.6772002 -0.68684423 0.22253343 11
1.664619 -0.68780643 0.15757757 10
1.6785822 -0.693919 0.22302091 11
1.66049 -0.69255579 0.15740328 10
1.674318 -0.69900936 0.22277717 11
1.67382 -0.70532858 0.22302091 11
1.6785295 -0.71456885 0.22399586 11
1.6870941 -0.72483283 0.22545831 11
1.6883236 -0.73200268 0.22594579 11
1.6784842 -0.73470759 0.22497083 11
1.6704621 -0.73815507 0.2242396 11
