# .PCD v0.7 - Point Cloud Data file format
VERSION 0.7
FIELDS x y z intensity
SIZE 4 4 4 4
TYPE F F F F
COUNT 1 1 1 1
WIDTH 428
HEIGHT 1
VIEWPOINT 0 0 0 1 0 0 0
POINTS 428
DATA ascii
2.9862776 1.0798382 -0.055428844 7
2.9710143 1.0631924 -0.055079795 7
2.9879026 1.0574859 -0.055324126 7
2.9783642 1.0424249 -0.055079795 7
2.9705555 1.0344572 0.054905269 8
2.9782057 1.0307133 -0.055009987 7
2.9741485 1.024081 0.054905269 8
2.9778235 1.0195367 -0.054940179 7
2.9699566 1.0116343 0.054765653 8
2.981364 1.0091366 -0.054940179 7
2.9715745 1.0006236 0.054730747 8
2.9884861 1.0005147 -0.055009987 7
2.9748762 0.99076456 0.054730747 8
2.9805698 0.98630673 -0.054800555 7
2.9784875 0.97985369 0.054730747 8
2.9765618 0.97289133 -0.054660939 7
2.9780867 0.96821344 0.054660939 8
2.9875515 0.96495301 -0.054800555 7
2.9700248 0.95414299 0.054451507 8
2.9812169 0.95257521 -0.1640209 6
2.9945447 0.95625788 -0.054870363 7
2.9769847 0.94549859 0.054521319 8
2.9832056 0.94632828 0.1640209 9
2.9881687 0.94388634 -0.16423026 6
2.9902365 0.94339168 -0.054730747 7
2.9802666 0.93510187 0.054521319 8
2.9787042 0.93404061 0.16360222 9
2.9857252 0.93166572 -0.16391623 6
2.9818943 0.92989916 -0.054521319 7
2.9929006 0.92817599 0.054695841 8
2.9856009 0.9253394 0.16381156 9
2.9945238 0.92352605 -0.16423026 6
2.9792285 0.91823786 -0.054416601 7
2.9730194 0.91121334 0.054276984 8
2.9907219 0.91549873 0.16391623 9
2.9880176 0.91067851 -0.1637069 6
2.984329 0.90841442 -0.054451507 7
2.9761822 0.90082926 0.054276984 8
2.9958115 0.90563077 0.1640209 9
2.9835281 0.89793956 -0.16328819 6
2.9874811 0.89799374 -0.054451507 7
2.9793081 0.89043701 0.054276984 8
2.9873161 0.89226091 0.16339287 9
2.9770715 0.88467711 -0.16276483 6
2.9981108 0.89035827 -0.05459113 7
2.9841626 0.88111782 0.05431189 8
2.9827499 0.87956733 0.16297418 9
2.9857383 0.87648684 -0.16307886 6
2.9858491 0.87538594 -0.05431189 7
2.9929795 0.87237364 0.054416601 8
2.9896367 0.87026876 0.16318353 9
2.9889307 0.86553687 -0.16307886 6
2.9773607 0.86162484 -0.054102462 7
2.9846258 0.85808349 0.054207176 8
3.0004854 0.86150938 0.16360222 9
2.9684231 0.8517428 0.27018279 10
2.9997647 0.85677075 -0.16349754 6
2.9881909 0.85289955 -0.054242078 7
2.9819791 0.84550273 0.054102462 8
2.9996309 0.84994215 0.16339287 9
2.9772763 0.84248549 0.27070573 10
2.9854357 0.84141886 -0.1625555 6
2.9949994 0.84354854 -0.05431189 7
2.9886179 0.83668685 0.05417227 8
2.9948857 0.83731437 0.16297418 9
2.9955511 0.83637321 0.27210024 10
2.9824374 0.829907 -0.16224147 6
2.9979255 0.83308953 -0.05431189 7
2.9876652 0.82518536 0.054102462 8
2.9918702 0.82578331 0.16266017 9
2.9925458 0.82484734 0.2715773 10
3.0027268 0.82539707 -0.27244884 5
2.9891682 0.82054794 -0.16245082 6
2.9929578 0.82102656 -0.05417227 7
2.9865267 0.81422067 0.05403265 8
2.9868834 0.81375939 0.16224147 9
2.9837298 0.81178004 0.27053142 10
2.9900644 0.81126201 -0.27105436 5
2.9938006 0.81115401 -0.1625555 6
2.9840829 0.807962 -0.053962842 7
2.9756932 0.80067599 0.053788319 8
2.989706 0.8033275 0.16224147 9
2.9825571 0.80084693 0.27018279 10
2.988889 0.80031216 -0.27070573 5
3.0041919 0.80328447 -0.16297418 6
2.9907489 0.79857308 -0.05403265 7
2.9707384 0.78823328 0.053648699 8
2.9924922 0.79288578 0.16224147 9
2.9776299 0.78839326 0.26948556 10
2.9839587 0.78783876 -0.27000847 5
2.9915268 0.78872162 -0.16213681 6
3.005121 0.79118246 -0.054242078 7
2.9889488 0.78190655 0.053927936 8
2.9873762 0.7809366 0.1618228 9
2.9900031 0.78050995 0.2703571 10
2.9866908 0.77741718 -0.27000847 5
2.984597 0.77576149 -0.16161345 6
2.9999866 0.77920109 -0.054102462 7
2.9895892 0.7714901 0.05389303 8
2.9862149 0.7695092 0.16161345 9
2.9965684 0.77106035 0.27070573 10
2.9972622 0.77068269 0.37998864 11
2.9971056 0.76896971 -0.27070573 5
3.0006964 0.76933128 -0.16234615 6
2.9949391 0.76674277 -0.053962842 7
2.9903257 0.76055896 0.053858127 8
2.988883 0.75907987 0.16161345 9
2.98559 0.75769049 0.26948556 10
2.9841871 0.75511587 -0.26931125 5
2.9878724 0.75493729 -0.16150878 6
2.9898415 0.75432616 -0.053823221 7
2.9852035 0.74817073 0.053718507 8
2.9953897 0.74961257 0.1618228 9
2.986284 0.74678004 0.26931125 10
2.9987178 0.74877727 0.37950116 11
2.9790723 0.74276572 -0.26861399 5
3.0001793 0.74691761 -0.16203214 6
3.0002189 0.74581546 -0.053962842 7
2.9800315 0.73582757 0.053578887 8
2.9979882 0.7391513 0.1618228 9
2.9888728 0.7363506 0.26931125 10
2.993603 0.73640776 0.37852621 11
2.9893861 0.7342639 -0.26931125 5
2.9930696 0.73406106 -0.16150878 6
2.9969773 0.73391044 -0.053858127 7
2.9845247 0.72589409 0.053613789 8
2.9889052 0.72585303 0.16119476 9
2.9972334 0.72732317 0.26983419 10
2.9865088 0.72361553 0.37730753 11
2.9919307 0.72382516 -0.26931125 5
2.9917307 0.72267151 -0.16129944 6
3.0053527 0.72485036 -0.053962842 7
2.9889853 0.71593672 0.053648699 8
2.9875352 0.71448833 0.16098543 9
3.0075054 0.71870798 0.27053142 10
2.9948094 0.71456909 0.37803873 11
2.9944394 0.71337616 -0.26931125 5
2.9981215 0.71314758 -0.16150878 6
2.9922998 0.71065938 -0.053683605 7
2.9953587 0.7064175 0.053718507 8
2.9977875 0.70588583 0.1614041 9
2.9906013 0.7036429 0.26878831 10
2.9972851 0.70411152 0.37803873 11
2.9852726 0.70019013 -0.26826537 5
3.0005927 0.70267707 -0.16150878 6
2.9908676 0.69930005 -0.053613789 7
2.9939106 0.69505221 0.053648699 8
2.9962208 0.69503742 0.16119476 9
2.9833345 0.69095087 0.26791674 10
3.0016584 0.69409257 0.37828246 11
3.0113289 0.6963287 -0.37950116 4
2.9857574 0.68931633 -0.26809105 5
3.0069194 0.69309658 -0.16171812 6
3.0009654 0.6911726 -0.053753413 7
2.9806039 0.68155485 0.053369459 8
3.0062973 0.68687785 0.16161345 9
2.9875517 0.68149775 0.26809105 10
2.9962018 0.68237084 0.37730753 11
3.0136216 0.68633813 -0.37950116 4
3.0124743 0.68552381 0.48932707 12
2.986084 0.67897022 -0.26791674 5
3.0092013 0.6831221 -0.16171812 6
2.9993403 0.68033314 -0.053683605 7
2.9828479 0.6716662 0.053369459 8
3.0008821 0.67462808 0.16119476 9
3.0034029 0.67464274 0.26931125 10
2.9907002 0.67069435 0.37633255 11
2.9985657 0.67190713 -0.37730753 4
3.0052106 0.67284536 0.48776269 12
2.9960964 0.67080474 -0.26861399 5
2.9802637 0.66616762 -0.16004337 6
3.0095034 0.67160207 -0.053823221 7
2.9890785 0.662117 0.053439267 8
2.9876177 0.66069806 0.16035739 9
3.0018485 0.66329712 0.26896262 10
2.9949617 0.66067761 0.3765763 11
2.9892614 0.65887302 -0.37584507 4
3.0017536 0.6610772 0.48682413 12
3.002311 0.66119999 -0.26896262 5
2.9903734 0.65747666 -0.16046207 6
2.9962039 0.65766227 -0.053543981 7
2.9972332 0.65295529 0.053543981 8
2.9899056 0.65026593 0.16035739 9
2.9924638 0.65027535 0.26791674 10
2.9991894 0.65064073 0.37682006 11
2.9954231 0.64927626 -0.37633255 4
2.9963205 0.64892179 0.48557264 12
2.9948647 0.64860648 -0.26809105 5
2.9906976 0.64661282 -0.16035739 6
2.9887083 0.64508927 -0.053369459 7
2.991673 0.64081293 0.053404365 8
2.9999697 0.64149499 0.16077606 9
2.9927671 0.63940865 0.26774243 10
3.0111499 0.64223725 0.37803873 11
3.0054374 0.64047045 -0.37730753 4
3.0062952 0.64010638 0.48682413 12
2.9854176 0.63566107 -0.2670452 5
3.0144267 0.6407364 -0.16150878 6
3.0007222 0.63672876 -0.053543981 7
2.9860644 0.62871879 0.053264745 8
3.0061002 0.63184011 0.16098543 9
2.993031 0.62854922 0.26756814 10
3.0075448 0.63049966 0.37730753 11
3.0037687 0.62916237 -0.37682006 4
3.006578 0.62920302 0.48651123 12
2.9915187 0.62605155 -0.2673938 5
3.0049145 0.62776023 -0.16088074 6
3.0068419 0.62706614 -0.053613789 7
2.9960737 0.61991149 0.053404365 8
2.996551 0.6189211 0.16035739 9
2.9991095 0.61890227 0.26791674 10
2.9902844 0.61599451 0.37487015 11
2.9981694 0.61707187 -0.37584507 4
3.0048864 0.61790776 0.4858855 12
3.0014923 0.61720985 -0.26809105 5
2.9953489 0.61485684 -0.16025271 6
3.009012 0.61656857 -0.053613789 7
2.9982195 0.6094501 0.053404365 8
2.986949 0.60607362 0.15972935 9
3.0051568 0.60922205 0.26826537 10
3.0021448 0.60752052 0.37608883 11
3.0100338 0.60856867 -0.37706378 4
3.0012162 0.60624224 0.48494691 12
3.0114403 0.60830748 -0.26878831 5
3.0092242 0.60676521 -0.16088074 6
3.0072253 0.60527146 -0.053543981 7
3.0042503 0.59976429 0.053474173 8
2.9968815 0.59720546 0.16014804 9
2.9935868 0.59600574 0.2670452 10
3.010088 0.59819883 0.37682006 11
2.9955637 0.59422415 0.48369545 12
2.9900937 0.59313905 -0.26669657 5
3.007405 0.59548354 -0.1606714 6
2.9936261 0.59166801 -0.053264745 7
2.9984765 0.58773452 0.053334557 8
3.0027654 0.58803099 0.16035739 9
2.9878278 0.58402294 0.26634794 10
3.0160546 0.58844745 0.37730753 11
3.0052731 0.58579957 0.48494691 12
2.9882345 0.58193702 -0.26634794 5
3.0133865 0.58574355 -0.16088074 6
2.9994977 0.58250058 -0.053334557 7
2.9866636 0.57514012 0.053090218 8
3.010684 0.57867742 0.1606714 9
3.0015879 0.5758428 0.2673938 10
3.0043421 0.57582754 0.37560135 11
3.0034192 0.57456392 0.48432118 12
2.9941616 0.5722512 -0.26669657 5
3.0035415 0.57349914 -0.16025271 6
3.0093701 0.57352346 -0.053474173 7
2.9984777 0.56656826 0.053264745 8
3.0067976 0.56705344 0.16035739 9
3.0093551 0.56699187 0.26791674 10
2.9965794 0.56350183 0.37438264 11
3.0092895 0.56480449 0.48494691 12
2.9960427 0.56231827 -0.26669657 5
3.0055249 0.563012 -0.16025271 6
3.0113537 0.56301594 -0.053474173 7
2.9984708 0.5557344 0.053229842 8
2.9969747 0.55437517 0.15972935 9
3.0073974 0.55576032 0.26756814 10
3.0024326 0.5537591 0.37487015 11
3.0073576 0.55358064 0.48432118 12
3.0019066 0.55257726 -0.2670452 5
3.0035434 0.55179477 -0.16004337 6
3.0054328 0.55105901 -0.053334557 7
3.0003924 0.54526502 0.053229842 8
2.9949615 0.54319674 0.15952002 9
2.9936352 0.54241806 0.26617363 10
3.0141141 0.54504067 0.37608883 11
2.9976075 0.54097533 0.48244393 12
2.9920526 0.53997284 -0.26599932 5
3.0172448 0.54343331 -0.1606714 6
2.9974973 0.53879505 -0.05316003 7
2.9983401 0.53408617 0.05316003 8
3.0066714 0.53448761 0.16004337 9
2.9974723 0.53231263 0.26634794 10
3.0101345 0.53347749 0.3753576 11
3.0072587 0.53188378 0.48369545 12
2.9939194 0.52952456 -0.26599932 5
3.0151899 0.53220272 -0.16046207 6
3.0092068 0.53006369 -0.053334557 7
2.9962463 0.52292842 0.053090218 8
3.018357 0.52570176 0.16056673 9
3.0052006 0.52286994 0.26687086 10
3.0061109 0.52194732 0.3746264 11
3.012989 0.5220598 0.48432118 12
2.9957492 0.51907259 -0.26599932 5
3.0091569 0.52031249 -0.16004337 6
3.0110388 0.51955557 -0.053334557 7
2.9980533 0.51246697 0.053090218 8
3.0044234 0.51247507 0.15972935 9
3.0089717 0.512712 0.2670452 10
2.9981296 0.50978631 0.37340769 11
3.0186884 0.51219946 0.48494691 12
3.0070162 0.50913924 -0.15983403 6
3.0148058 0.5093742 -0.053369459 7
3.0057409 0.50298804 0.053194933 8
3.0042238 0.50165772 0.15962468 9
3.016639 0.50318819 0.26756814 10
3.0096812 0.50094944 0.3746264 11
3.0087659 0.49971643 0.48306966 12
3.0087752 0.49863887 -0.15983403 6
3.0027549 0.49656579 -0.053125124 7
3.0055046 0.49217188 0.05316003 8
3.0098989 0.49181128 0.15983403 9
3.0006793 0.48976865 0.26599932 10
3.0251267 0.49267349 0.37633255 11
3.0085421 0.48889461 0.48275682 12
3.0144401 0.48877463 -0.16004337 6
3.0044703 0.48608041 -0.053125124 7
3.0032554 0.48104438 0.053090218 8
3.0076528 0.48067206 0.15962468 9
3.0023708 0.47929054 0.26599932 10
3.0150657 0.48023802 0.37487015 11
3.0160832 0.47931919 0.48369545 12
3.0200732 0.47887406 -0.16025271 6
3.0081236 0.47590297 -0.05316003 7
2.9989896 0.46962923 0.052985508 8
3.0191789 0.47171116 0.16014804 9
3.0118999 0.47003549 0.26669657 10
3.008878 0.46848807 0.37389517 11
3.0216417 0.46939522 0.48432118 12
3.0138321 0.46710473 -0.15983403 6
3.0137191 0.46601012 -0.053229842 7
3.0143669 0.46180195 0.053229842 8
3.0128291 0.46049014 0.15972935 9
3.0173812 0.46064559 0.2670452 10
2.9986401 0.45671493 0.37243277 11
3.0133896 0.45680773 -0.15972935 6
3.0112934 0.45541626 -0.05316003 7
3.0120049 0.45068583 0.05316003 8
3.0104673 0.44938153 0.15952002 9
3.0110884 0.44893557 0.26634794 10
3.00807 0.44741374 0.37340769 11
3.0149655 0.44628689 -0.15972935 6
3.0049517 0.4437328 -0.05302041 7
3.0175173 0.44074649 0.053229842 8
3.008065 0.43829355 0.15931067 9
3.0047503 0.43727505 0.26565069 10
3.0155067 0.43776566 0.37413892 11
3.0204587 0.43633178 -0.15993871 6
3.0203371 0.43523803 -0.053264745 7
3.0150778 0.42964712 0.05316003 8
3.0234184 0.42975751 0.16004337 9
3.0102036 0.42734462 0.26599932 10
3.0268443 0.42862779 0.3753576 11
3.0257986 0.42524824 -0.053334557 7
3.0066562 0.41774315 0.052985508 8
3.0150082 0.41783097 0.15952002 9
3.0097036 0.41656044 0.265825 10
3.0106237 0.4156169 0.37316394 11
3.0272644 0.41468427 -0.053334557 7
3.0199854 0.40885568 0.053194933 8
3.01249 0.40676874 0.15931067 9
3.0150886 0.40658385 0.26617363 10
3.0061543 0.40431073 0.37243277 11
3.0326576 0.40464273 -0.053404365 7
3.0233769 0.39857206 0.053229842 8
3.013891 0.39625278 0.15931067 9
3.0204401 0.39657611 0.26652226 10
3.0173883 0.39510557 0.37365144 11
3.0261197 0.39302331 -0.053264745 7
3.0227666 0.38776079 0.053194933 8
3.0152562 0.38572913 0.15931067 9
3.0099483 0.38451478 0.26547641 10
3.0148108 0.38406798 0.37316394 11
3.0195374 0.38145733 -0.053125124 7
3.0062425 0.37498152 0.052880794 8
3.0205481 0.37569377 0.15952002 9
3.0053401 0.37327111 0.26495346 10
3.0259836 0.3747611 0.37438264 11
3.0208507 0.37091407 -0.053125124 7
3.0095181 0.36472523 0.052915696 8
3.0297725 0.36610687 0.15993871 9
3.0145369 0.36373207 0.26565069 10
3.0174186 0.36301127 0.37316394 11
3.0300691 0.3613148 -0.053264745 7
3.0147452 0.35468581 0.052985508 8
3.0191302 0.35413188 0.15931067 9
3.0177674 0.35343811 0.265825 10
3.0127525 0.35178483 0.37243277 11
3.035285 0.35119456 -0.053334557 7
3.0199385 0.34461287 0.053055316 8
3.0203478 0.34359163 0.15931067 9
3.0249217 0.34357724 0.26634794 10
3.0198793 0.34193686 0.37316394 11
3.0186071 0.33859032 -0.05302041 7
3.0310609 0.33516732 0.053229842 8
3.0215287 0.33304718 0.15931067 9
3.0142198 0.33170772 0.26530206 10
3.0289476 0.33225989 0.37413892 11
3.0202823 0.32330844 0.05302041 8
3.0246592 0.32270917 0.15941535 9
3.0133781 0.32097369 0.26512775 10
3.0134363 0.31194076 0.052880794 8
3.0277536 0.31235471 0.15952002 9
3.0224078 0.31127018 0.265825 10
3.0164962 0.30161959 0.052915696 8
3.0208759 0.30099112 0.15910132 9
3.0214934 0.30052009 0.26565069 10
3.0274832 0.29204747 0.053090218 8
3.0178814 0.29058966 0.15889199 9
3.0245073 0.29016218 0.265825 10
3.028435 0.28200552 0.053090218 8
3.0268321 0.28079209 0.15931067 9
3.0235176 0.27941877 0.26565069 10
3.017451 0.2703611 0.052880794 8
3.0277939 0.27022395 0.15931067 9
3.0204589 0.26903653 0.26530206 10
3.0044296 0.2586281 0.052636456 8
3.0326984 0.25999373 0.15952002 9
3.0234098 0.25813434 0.26547641 10
3.0133293 0.24827203 0.05277608 8
3.0256255 0.24875207 0.15910132 9
3.0282636 0.24790631 0.265825 10
3.0205023 0.23771824 0.15878731 9
3.0291104 0.23733337 0.265825 10
3.0232654 0.22785129 0.15889199 9
3.0259075 0.22698826 0.26547641 10
3.035995 0.21815625 0.15952002 9
3.0227067 0.21613948 0.26512775 10
3.0367742 0.20702651 0.15952002 9
3.0075407 0.20450626 0.2637333 10
3.0334921 0.19616783 0.15931067 9
3.0261843 0.18508923 0.15889199 9
3.0347877 0.17498526 0.15931067 9
3.0254085 0.16384996 0.15878731 9
