# .PCD v0.7 - Point Cloud Data file format
VERSION 0.7
FIELDS x y z intensity
SIZE 4 4 4 4
TYPE F F F F
COUNT 1 1 1 1
WIDTH 1331
HEIGHT 1
VIEWPOINT 0 0 0 1 0 0 0
POINTS 1331
DATA ascii
1.7446388 0.28382099 -0.092634656 6
1.7455704 0.27803349 -0.092634656 6
1.7307426 0.26947996 -0.091797277 6
1.7238202 0.26193488 -0.091378585 6
1.7496935 0.26555392 -0.030890759 7
1.7247242 0.25591555 -0.091378585 6
1.7288508 0.25621954 -0.030506806 7
1.7255633 0.25019512 -0.091378585 6
1.7237974 0.24932478 -0.030402092 7
1.7303811 0.24473 -0.091587931 6
1.7325776 0.24442299 -0.030541712 7
1.7233108 0.23759675 -0.091169246 6
1.729458 0.23782918 -0.0304719 7
1.7201707 0.2310476 -0.090959899 6
1.7342417 0.23232135 -0.030541712 7
1.7210059 0.22474168 -0.090959899 6
1.7271106 0.22523148 -0.030402092 7
1.7255175 0.22196265 0.030367188 8
1.7297052 0.21974008 -0.091378585 6
1.7160214 0.21739225 -0.030192664 7
1.7064395 0.2134556 0.030018138 8
1.732444 0.21394527 -0.091483258 6
1.7247084 0.21237965 -0.030332282 7
1.7051891 0.20725597 0.029983234 8
1.717316 0.20599322 -0.090645887 6
1.7214323 0.20618306 -0.030262474 7
1.7138104 0.20254016 0.030122854 8
1.7196676 0.2011025 -0.15147668 5
1.7179896 0.20029759 -0.090645887 6
1.7221065 0.20047379 -0.030262474 7
1.7144728 0.19685538 0.030122854 8
1.7223048 0.19562314 -0.151651 5
1.7146752 0.19415036 -0.090436541 6
1.7227619 0.19476148 -0.030262474 7
1.7171034 0.19139074 0.030157758 8
1.7071009 0.18816473 -0.1502565 5
1.7192802 0.18889983 -0.090645887 6
1.7074959 0.18730348 -0.029983234 7
1.7118933 0.18385532 0.030053046 8
1.70388 0.18088943 -0.14990787 5
1.723997 0.1824166 -0.090855226 6
1.7161888 0.18128754 -0.030122854 7
1.7045376 0.17735004 0.029913425 8
1.7263306 0.17931214 0.090959899 9
1.7203261 0.1768678 -0.15130237 5
1.7126713 0.17547755 -0.090227202 6
1.7167805 0.17559499 -0.030122854 7
1.7051164 0.17169614 0.029913425 8
1.7090604 0.17149073 0.090017848 9
1.7070545 0.16948411 -0.15008219 5
1.7092687 0.1694027 -0.090017848 6
1.729323 0.17078075 -0.030332282 7
1.7096859 0.16613027 0.029983234 8
1.7056727 0.16513936 0.089808509 9
1.7116023 0.16390374 -0.15043081 5
1.7138546 0.16351657 -0.090227202 6
1.7179645 0.16360532 -0.030122854 7
1.7142655 0.16023465 0.030053046 8
1.7062665 0.15888622 0.089808509 9
1.7002875 0.15653376 -0.14938495 5
1.714415 0.15753263 -0.090227202 6
1.7066044 0.15621427 -0.029913425 7
1.7048562 0.15335436 0.029878521 8
1.7147681 0.15364178 0.090227202 9
1.6968544 0.15024579 -0.14903632 5
1.7189598 0.15159923 -0.090436541 6
1.7190913 0.15130766 -0.030122854 7
1.7054067 0.1471051 0.029878521 8
1.7192994 0.14769807 0.090436541 9
1.7053093 0.1449981 -0.14973356 5
1.7075378 0.14458647 -0.089808509 6
1.7156491 0.14467019 -0.030053046 7
1.7059098 0.14115076 0.029878521 8
1.7098519 0.14087687 0.089913182 9
1.7235788 0.14170419 0.15130237 10
1.7018335 0.13872039 -0.14938495 5
1.6980785 0.1378177 -0.08928515 6
1.72013 0.13900226 -0.030122854 7
1.7083855 0.13535264 0.029913425 8
1.7063277 0.13489075 0.089703836 9
1.7141317 0.13490483 0.15043081 10
1.7142254 0.13370901 -0.15043081 5
1.7065144 0.13250747 -0.089703836 6
1.7126065 0.13268065 -0.029983234 7
1.708825 0.12968703 0.029913425 8
1.7028048 0.1286324 0.089494489 9
1.6947244 0.12742789 0.14868769 10
1.7027603 0.12683599 -0.14938495 5
1.7169032 0.12758815 -0.090227202 6
1.7050823 0.12611127 -0.029843615 7
1.7032838 0.12328859 0.029808709 8
1.7092199 0.12311773 0.089808509 9
1.6951377 0.12180682 0.14868769 10
1.7246336 0.1230187 -0.21229641 4
1.6991969 0.12090623 -0.14903632 5
1.717338 0.12159463 -0.090227202 6
1.7095016 0.12043928 -0.029913425 7
1.6977189 0.11692961 0.029703995 8
1.7076466 0.11701533 0.089703836 9
1.6995279 0.1161602 0.14903632 10
1.6996087 0.11497375 -0.14903632 5
1.7097811 0.11506238 -0.089808509 6
1.7099116 0.11447164 -0.029913425 7
1.6981167 0.11100311 0.029703995 8
1.7040585 0.11079419 0.089494489 9
1.6959467 0.10996956 0.14868769 10
1.7036594 0.10957397 -0.20961528 4
1.7079529 0.1095508 -0.14973356 5
1.6982131 0.10833009 -0.089180477 6
1.7182835 0.10900903 -0.030053046 7
1.7044815 0.10544486 0.029808709 8
1.6944674 0.10423248 0.088971131 9
1.6983088 0.10417045 0.148862 10
1.7000687 0.10338497 -0.20912781 4
1.7043474 0.10334663 -0.14938495 5
1.7025682 0.10264229 -0.089389823 6
1.7026846 0.10205367 -0.029773805 7
1.7048391 0.09949483 0.029808709 8
1.6967976 0.098728389 0.089075804 9
1.696673 0.098126933 0.14868769 10
1.7162566 0.098658502 0.21107772 11
1.6964384 0.097519264 -0.20864034 4
1.6967411 0.096942477 -0.14868769 5
1.7069042 0.096925415 -0.08959917 6
1.6990206 0.09618029 -0.029703995 7
1.6911831 0.093071178 0.029564377 8
1.7011043 0.093320206 0.08928515 9
1.687042 0.091957353 0.14781614 10
1.7106278 0.092644125 0.21034651 11
1.7007169 0.092107363 -0.20912781 4
1.6890953 0.090887479 -0.14799045 5
1.7072163 0.091264114 -0.08959917 6
1.7033241 0.090758748 -0.029773805 7
1.6894852 0.087360375 0.029529471 8
1.7054089 0.087586097 0.089494489 9
1.6913171 0.086567238 0.14816476 10
1.704978 0.086668968 0.20961528 11
1.7089583 0.086572282 -0.21010277 4
1.6933819 0.085190639 -0.14833906 5
1.6995453 0.084905997 -0.089180477 6
1.7036306 0.08481203 -0.029773805 7
1.6917917 0.081262223 0.029564377 8
1.6897585 0.080574229 0.088657118 9
1.6936132 0.080460973 0.14833906 10
1.6854553 0.079484597 0.20717789 11
1.689435 0.079375975 -0.20766538 4
1.7016436 0.079355143 -0.14903632 5
1.6958548 0.078491159 -0.088971131 6
1.7159152 0.07912036 -0.029983234 7
1.7020668 0.07550443 0.029738901 8
1.6900295 0.074674927 0.088657118 9
1.6998682 0.074515179 0.148862 10
1.6936682 0.07365191 0.20815286 11
1.6877185 0.073393174 -0.20742163 4
1.6979294 0.073242635 -0.14868769 5
1.6961184 0.072571397 -0.088971131 6
1.7001979 0.072448693 -0.029703995 7
1.7063037 0.070024081 0.029808709 8
1.6962546 0.069314346 0.088971131 9
1.6921428 0.068555519 0.14816476 10
1.7018372 0.068353295 0.20912781 11
1.6919197 0.067954965 -0.20790912 4
1.6901995 0.067294173 -0.14799045 5
1.7083241 0.06741938 -0.08959917 6
1.6924363 0.066495739 -0.029564377 7
1.6865438 0.063611232 0.029459663 8
1.6944903 0.063319474 0.088866465 9
1.6804149 0.062499028 0.1471189 10
1.7080057 0.062929034 0.20985903 11
1.6961141 0.062193673 -0.20839658 4
1.7253307 0.062963493 0.27344745 12
1.6864314 0.061543919 -0.14764182 5
1.7085382 0.061753526 -0.08959917 6
1.7006516 0.06087492 -0.029703995 7
1.6907525 0.057860848 0.029529471 8
1.6986933 0.057538986 0.089075804 9
1.6806228 0.056633253 0.1471189 10
1.702263 0.05676765 0.20912781 11
1.7022729 0.056469753 -0.20912781 4
1.6998742 0.056093998 0.26938018 12
1.6906185 0.055788569 -0.14799045 5
1.7047509 0.055658437 -0.089389823 6
1.7048513 0.055066828 -0.029773805 7
1.6909442 0.051959027 0.029529471 8
1.6968874 0.051548805 0.088971131 9
1.6907676 0.051067546 0.14799045 10
1.686577 0.05035175 0.20717789 11
1.6885699 0.050116297 -0.20742163 4
1.6882124 0.049809989 0.26750296 12
1.6947858 0.050003938 -0.14833906 5
1.6889635 0.049242921 -0.088552445 6
1.7090307 0.049230151 -0.029843615 7
1.6951133 0.046164643 0.029599281 8
1.6910675 0.045463771 0.088657118 9
1.6929272 0.045218103 0.14816476 10
1.7041503 0.045220248 -0.27000591 3
1.6907114 0.044568367 0.20766538 11
1.6788126 0.043961514 -0.20620294 4
1.682452 0.043762989 0.26656437 12
1.702917 0.044295311 -0.14903632 5
1.6851319 0.04324412 -0.088343106 6
1.6971979 0.042960975 -0.029634187 7
1.6972703 0.039998919 0.029634187 8
1.697206 0.039700232 0.088971131 9
1.6851143 0.038829692 0.14746751 10
1.6968172 0.038506784 0.20839658 11
1.6869009 0.037987199 -0.20717789 4
1.6786447 0.037801277 0.26593861 12
1.6831491 0.037608016 -0.1472932 5
1.6932662 0.03724356 -0.088761792 6
1.6893405 0.036861442 -0.029494567 7
1.6913956 0.03424843 0.029529471 8
1.6953373 0.033736255 0.088866465 9
1.6812555 0.032868974 0.1471189 10
1.7004745 0.03324471 -0.26938018 3
1.700905 0.032956168 0.20888408 11
1.6929717 0.032506883 -0.20790912 4
1.6807414 0.031978615 0.26625147 12
1.679286 0.031657744 -0.14694458 5
1.6973741 0.031702407 -0.088971131 6
1.6934577 0.031037962 -0.029564377 7
1.6835073 0.028210489 0.029389855 8
1.6954448 0.027818576 0.088866465 9
1.6813552 0.027293883 0.1471189 10
1.6926796 0.027182231 -0.26812872 3
1.6910855 0.026861422 0.20766538 11
1.6970445 0.026659019 -0.20839658 4
1.6907187 0.02626531 0.26781586 12
1.6873504 0.026212987 -0.14764182 5
1.6854924 0.025594868 -0.088343106 6
1.7015536 0.025244711 -0.029703995 7
1.6875945 0.02238638 0.029459663 8
1.6875432 0.021797374 0.088447772 9
1.6854247 0.021475013 0.14746751 10
1.6947395 0.021297881 -0.26844159 3
1.6832291 0.020860225 0.20669043 11
1.6852176 0.020589912 -0.20693417 4
1.6927751 0.02038678 0.26812872 12
1.6954004 0.020418398 -0.14833906 5
1.6855714 0.019711599 -0.088343106 6
1.7056305 0.019350756 -0.029773805 7
1.6916615 0.016534882 0.029529471 8
1.6836147 0.015868519 0.088238433 9
1.689474 0.015628064 0.14781614 10
1.6888775 0.015328578 -0.26750296 3
1.6872616 0.015019423 0.20717789 11
1.679324 0.014654863 -0.20620294 4
1.6790088 0.014359865 0.26593861 12
1.6914793 0.014171299 -0.14799045 5
1.7177874 0.014391709 0.33391577 13
1.6896244 0.013860053 -0.088552445 6
1.6936899 0.013303 -0.029564377 7
1.6957083 0.010655268 0.029599281 8
1.6876543 0.010014765 0.088447772 9
1.6775658 0.0093693342 0.14677027 10
1.6849718 0.0091166226 -0.26687723 3
1.693259 0.0091614611 0.20790912 11
1.6833352 0.0088147828 -0.20669043 4
1.6731228 0.0084685022 0.26500002 12
1.677572 0.0081982408 -0.14677027 5
1.6962329 0.0079942076 0.32971796 13
1.6936582 0.0076856785 -0.088761792 6
1.6857272 0.0073554851 -0.029424759 7
1.6817381 0.0044022305 0.029354947 8
1.6916742 0.0038385731 0.088657118 9
1.6696187 0.0034963435 0.14607303 10
1.6751164 0.0032163085 -0.26531288 3
1.6932812 0.0029556693 0.20790912 11
1.6853412 0.0026468758 -0.20693417 4
1.6770934 0.0023420306 0.26562575 12
1.6716136 0.002042644 -0.14624733 5
1.7041035 0.0020823453 0.33124444 13
1.6936748 0.0017732097 -0.088761792 6
1.6897423 0.001180102 -0.029494567 7
1.6817433 -0.001467598 0.029354947 8
1.6936744 -0.0020692148 0.088761792 9
1.6755974 -0.0026320245 0.14659595 10
1.6770923 -0.002927081 -0.26562575 3
1.6873258 -0.0029449419 0.20717789 11
1.6972508 -0.0032584916 -0.20839658 4
1.681042 -0.0035207709 0.26625147 12
1.6835649 -0.0038198938 -0.1472932 5
1.6923203 -0.0041351272 0.32895473 13
1.685681 -0.0044131121 -0.088343106 6
1.6937356 -0.0047298139 -0.029564377 7
1.6837289 -0.0070528286 0.029389855 8
1.6836721 -0.0076403143 0.088238433 9
1.6815581 -0.007924214 0.1471189 10
1.6810256 -0.0082151061 -0.26625147 3
1.6833367 -0.0085202055 0.20669043 11
1.6853203 -0.0088243969 -0.20693417 4
1.6908978 -0.0091487272 0.26781586 12
1.6915139 -0.0091520604 -0.14799045 5
1.6962253 -0.0094736079 0.32971796 13
1.6816643 -0.0096857976 -0.08813376 6
1.7017092 -0.010395278 -0.029703995 7
1.6856936 -0.012945452 0.029424759 8
1.6836352 -0.013517378 0.088238433 9
1.6855049 -0.013826585 0.14746751 10
1.6809866 -0.01408293 -0.26625147 3
1.6773417 -0.014345165 0.2059592 11
1.6773392 -0.014637917 -0.2059592 4
1.6770284 -0.014927926 0.26562575 12
1.6894794 -0.015038756 -0.14781614 5
1.7001084 -0.015430116 0.3304812 13
1.6816202 -0.015555842 -0.08813376 6
1.6896648 -0.016220117 -0.029494567 7
1.6936364 -0.018918889 0.029564377 8
1.6755892 -0.019302255 0.087819748 9
1.6734928 -0.019570224 0.14642164 10
1.6888281 -0.020044358 -0.26750296 3
1.6852211 -0.020295715 0.20693417 11
1.6772779 -0.020492835 -0.2059592 4
1.6749909 -0.020757277 0.26531288 12
1.6754709 -0.020763226 -0.14659595 5
1.7039702 -0.021413848 0.33124444 13
1.689544 -0.02152748 -0.088552445 6
1.6776009 -0.021960998 -0.029285138 7
1.6775643 -0.024596138 0.029285138 8
1.6894908 -0.025360877 0.088552445 9
1.6634535 -0.025260424 0.14555009 10
1.6768972 -0.025757316 -0.26562575 3
1.6950643 -0.026332282 0.20815286 11
1.6851355 -0.02647222 -0.20693417 4
1.6768835 -0.026635336 0.26562575 12
1.6753882 -0.026611585 -0.14659595 5
1.688181 -0.027109502 0.32819149 13
1.6974466 -0.027554629 -0.088971131 6
1.7068667 -0.028005529 0.39411426 14
1.6895105 -0.02801571 -0.029494567 7
1.6734693 -0.030379185 0.029215328 8
1.6893975 -0.03096329 0.088552445 9
1.6693313 -0.031178422 0.14607303 10
1.672847 -0.031536158 -0.26500002 3
1.681069 -0.031984664 0.20644669 11
1.6850327 -0.032354284 -0.20693417 4
1.6807358 -0.03227178 0.26625147 12
1.6772772 -0.032498214 -0.14677027 5
1.6920021 -0.033078942 0.32895473 13
1.6853589 -0.033243328 -0.088343106 6
1.7009134 -0.03384712 0.39276454 14
1.6934069 -0.033697747 -0.029564377 7
1.6773579 -0.0360143 0.029285138 8
1.6713079 -0.03646807 0.087610394 9
1.6742511 -0.03682464 -0.32552016 2
1.6731962 -0.037093606 0.14642164 10
1.6766829 -0.037170909 -0.26562575 3
1.675 -0.037426084 0.20571546 11
1.676978 -0.037763119 -0.2059592 4
1.6825879 -0.038183261 0.26656437 12
1.6791455 -0.038398359 -0.14694458 5
1.6918831 -0.038689639 0.32895473 13
1.681246 -0.038739979 -0.08813376 6
1.6832579 -0.039080281 0.38871542 14
1.6892806 -0.0395151 -0.029494567 7
1.6832193 -0.042018864 0.029389855 8
1.6711706 -0.0423018 0.087610394 9
1.6741198 -0.042376455 -0.32552016 2
1.6810308 -0.042844974 0.1471189 10
1.6804924 -0.043124747 -0.26625147 3
1.6788278 -0.043375235 0.20620294 11
1.6768359 -0.04361663 -0.2059592 4
1.6725709 -0.043797813 0.26500002 12
1.6889596 -0.044521946 -0.14781614 5
1.6917377 -0.044595178 0.32895473 13
1.6811005 -0.044608388 -0.08813376 6
1.6909035 -0.045163836 0.39051503 14
1.6851344 -0.045304075 -0.029424759 7
1.6870601 -0.048007902 0.029459663 8
1.6829914 -0.048480075 0.088238433 9
1.6602162 -0.04811402 -0.32284883 2
1.6689132 -0.048657589 0.14607303 10
1.676374 -0.049167942 -0.26562575 3
1.6885873 -0.049526159 0.20742163 11
1.6786575 -0.049528152 -0.20620294 4
1.6645098 -0.049401496 0.26374856 12
1.6748534 -0.050001062 -0.14659595 5
1.6994123 -0.051031113 0.3304812 13
1.6849184 -0.050890222 -0.088343106 6
1.6868309 -0.051242664 0.38961524 14
1.6769708 -0.050943136 -0.029285138 7
1.6768794 -0.053869918 0.029285138 8
1.6828023 -0.054648221 0.088238433 9
1.6620003 -0.053972684 -0.32323048 2
1.6627593 -0.054287843 0.14555009 10
1.6722436 -0.054889675 -0.26500002 3
1.6844265 -0.055583872 0.20693417 11
1.6784648 -0.055680413 -0.20620294 4
1.6722146 -0.055765249 0.26500002 12
1.6667035 -0.055581462 -0.1458987 5
1.6835266 -0.056436647 0.32742825 13
1.6887227 -0.056905899 -0.088552445 6
1.6944323 -0.05739437 0.39141485 14
1.6887641 -0.057497464 -0.029494567 7
1.6706859 -0.059509445 0.029180422 8
1.6865932 -0.060665552 0.088447772 9
1.6696497 -0.060056105 -0.32475692 2
1.6665417 -0.060235552 0.1458987 10
1.6680936 -0.060583163 -0.26437429 3
1.6762872 -0.061173704 0.2059592 11
1.6782601 -0.061539002 -0.20620294 4
1.6739838 -0.061674759 0.26531288 12
1.6664993 -0.061399005 -0.1458987 5
1.6833194 -0.062312901 0.32742825 13
1.6765385 -0.062354904 -0.087924413 6
1.6981163 -0.063454226 0.39231464 14
1.6805599 -0.063091919 -0.029354947 7
1.6744643 -0.06549719 0.029250234 8
1.6783884 -0.06623745 0.088029087 9
1.6733534 -0.066038743 -0.32552016 2
1.6683122 -0.06613142 0.14607303 10
1.6718197 -0.066562705 -0.26500002 3
1.67408 -0.066945352 0.20571546 11
1.6760517 -0.067317195 -0.2059592 4
1.6698107 -0.067358427 0.26468715 12
1.6742378 -0.067537017 -0.14659595 5
1.6870148 -0.06834735 0.32819149 13
1.6763105 -0.068206735 -0.087924413 6
1.6823075 -0.068744853 0.38871542 14
1.6963136 -0.069613747 -0.029634187 7
1.6842149 -0.071767427 0.029424759 8
1.6741562 -0.071924262 0.087819748 9
1.6613441 -0.071373835 -0.32323048 2
1.6680713 -0.071954519 0.14607303 10
1.6715771 -0.072398037 -0.26500002 3
1.6718529 -0.072702326 0.20547174 11
1.6658906 -0.072734348 -0.20474051 4
1.6656185 -0.073013738 0.26406142 12
1.681954 -0.073729813 -0.1472932 5
1.6906887 -0.07440836 0.32895473 13
1.6720717 -0.07388141 -0.087715074 6
1.6781638 -0.074444056 0.38781562 14
1.6760832 -0.074644871 -0.029285138 7
1.696403 -0.075846493 0.45500392 15
1.6839542 -0.077645987 0.029424759 8
1.6659144 -0.077396952 0.087401055 9
1.6532402 -0.076808117 -0.321704 2
1.66781 -0.07777673 0.14607303 10
1.6752607 -0.078417212 -0.26562575 3
1.6834863 -0.079096727 0.20693417 11
1.6715752 -0.07882949 -0.20547174 4
1.6614072 -0.078640603 0.26343569 12
1.6637748 -0.078752667 -0.1457244 5
1.6904187 -0.080309518 0.32895473 13
1.6797836 -0.080098093 -0.08813376 6
1.6856797 -0.080674119 0.38961524 14
1.6718175 -0.080303155 -0.029215328 7
1.6845502 -0.081209444 0.45189807 15
1.6796783 -0.083325453 0.029354947 8
1.6815923 -0.084008843 0.088238433 9
1.6568836 -0.082774453 -0.32246721 2
1.6635485 -0.083398476 0.1457244 10
1.6670852 -0.083867483 -0.26437429 3
1.6752697 -0.08457236 0.2059592 11
1.67922 -0.085065618 -0.20644669 4
1.6630954 -0.084539779 0.26374856 12
1.6694593 -0.084863275 -0.14624733 5
1.6862066 -0.086009651 0.32819149 13
1.6834831 -0.086165324 -0.088343106 6
1.6853878 -0.086557746 0.38961524 14
1.6755211 -0.086344227 -0.029285138 7
1.6900443 -0.087388396 0.45345098 15
1.6673961 -0.088551827 0.029145518 8
1.6792945 -0.089771569 0.08813376 9
1.666387 -0.089081563 -0.3243753 2
1.6652366 -0.089311548 0.1458987 10
1.6628371 -0.089473911 -0.26374856 3
1.6729821 -0.09031263 0.20571546 11
1.6789128 -0.090926662 -0.20644669 4
1.6726525 -0.090880401 0.26531288 12
1.6671635 -0.09058217 -0.14607303 5
1.6780548 -0.091467679 0.32666501 13
1.6712064 -0.091386929 -0.087715074 6
1.6909128 -0.092760548 0.39096493 14
1.6831963 -0.092631899 -0.029424759 7
1.685871 -0.093074225 0.4524157 15
1.6710696 -0.094597615 0.029215328 8
1.6670066 -0.094951384 0.087505728 9
1.6680259 -0.095009439 -0.32475692 2
1.666904 -0.095237412 0.14607303 10
1.6625147 -0.095277756 -0.26374856 3
1.6667112 -0.0958101 0.20498425 11
1.6647125 -0.095986724 -0.20474051 4
1.6762691 -0.096946612 0.26593861 12
1.6747934 -0.096861266 -0.14677027 5
1.6777253 -0.097324625 0.32666501 13
1.6668893 -0.09698794 -0.087505728 6
1.6769607 -0.097867623 0.38781562 14
1.6808665 -0.098389938 -0.029389855 7
1.6932501 -0.099411353 0.45448625 15
1.6747215 -0.10067014 0.029285138 8
1.6686586 -0.10089029 0.087610394 9
1.661805 -0.1004759 -0.32361206 2
1.6705389 -0.1012966 0.14642164 10
1.6661155 -0.10132024 -0.26437429 3
1.6742923 -0.1021108 0.2059592 11
1.6663488 -0.10191826 -0.20498425 4
1.6640906 -0.10207167 0.26406142 12
1.6784223 -0.10295074 -0.1471189 5
1.6891327 -0.10390361 0.32895473 13
1.6785016 -0.10354373 -0.08813376 6
1.6766089 -0.10372072 0.38781562 14
1.6645459 -0.10326609 -0.029110614 7
1.696749 -0.1055612 0.45552155 15
1.6763556 -0.10664235 0.029320043 8
1.6722827 -0.10696936 0.087819748 9
1.6575257 -0.10602541 -0.32284883 2
1.6661984 -0.10687217 0.14607303 10
1.6736369 -0.10764259 -0.26562575 3
1.6719447 -0.10782678 0.20571546 11
1.6719258 -0.10811858 -0.20571546 4
1.6597818 -0.10762417 0.26343569 12
1.6661235 -0.10803538 -0.14607303 5
1.6926779 -0.11005391 0.32971796 13
1.6781299 -0.10940216 -0.08813376 6
1.6801257 -0.10982677 0.38871542 14
1.6681662 -0.10933739 -0.029180422 7
1.684804 -0.1107232 0.4524157 15
1.6679922 -0.11195759 0.029180422 8
1.6719187 -0.11251428 0.087819748 9
1.6571455 -0.11181062 -0.32284883 2
1.6598518 -0.11228422 0.14555009 10
1.6614258 -0.11268202 -0.26374856 3
1.6794801 -0.11420098 0.20669043 11
1.6735188 -0.11408906 -0.2059592 4
1.6633573 -0.11339632 0.26406142 12
1.6597729 -0.11344299 -0.14555009 5
1.676614 -0.11488806 0.32666501 13
1.6817229 -0.11553303 -0.088343106 6
1.6797322 -0.11569083 0.38871542 14
1.6817591 -0.11583044 -0.029424759 7
1.680573 -0.11604346 0.45138043 15
1.6676118 -0.11748824 0.029180422 8
1.6874541 -0.11947814 0.088657118 9
1.6645784 -0.11815045 -0.3243753 2
1.6574624 -0.1179361 0.14537577 10
1.6571022 -0.11791047 -0.2631228 3
1.6652317 -0.11878105 0.20498425 11
1.6810513 -0.12020434 -0.20693417 4
1.6629512 -0.11920182 0.26406142 12
1.6633413 -0.11952159 -0.1458987 5
1.676224 -0.12044729 0.32666501 13
1.6813306 -0.1211092 -0.088343106 6
1.687114 -0.12182178 0.39051503 14
1.6813446 -0.12170017 -0.029424759 7
1.6878649 -0.12246826 0.45345098 15
1.6632031 -0.12301359 0.029110614 8
1.6713297 -0.12390793 -0.3869158 1
1.6691009 -0.12403561 0.087715074 9
1.6680932 -0.12396073 -0.32513854 2
1.6650097 -0.12402379 0.14607303 10
1.6606205 -0.12398829 -0.26374856 3
1.6549091 -0.12385231 0.20376556 11
1.6667649 -0.12503213 -0.205228 4
1.6684345 -0.12545022 0.26500002 12
1.6728698 -0.12578371 -0.14677027 5
1.6757933 -0.12629767 0.32666501 13
1.6569984 -0.12517202 -0.087087035 6
1.6750194 -0.12682739 0.38781562 14
1.6809095 -0.12756841 -0.029424759 7
1.6912796 -0.1286523 0.45448625 15
1.6607699 -0.12866405 0.02907571 8
1.6514581 -0.1282326 -0.38241678 1
1.6646751 -0.12955117 0.087505728 9
1.6559063 -0.12886874 -0.32284883 2
1.6645665 -0.12983501 0.14607303 10
1.6660854 -0.13024603 -0.26468715 3
1.6683201 -0.1307137 0.20547174 11
1.6603812 -0.13038325 -0.20449677 4
1.6581401 -0.13049845 0.26343569 12
1.668448 -0.13130972 -0.14642164 5
1.6753422 -0.13214651 0.32666501 13
1.6684978 -0.13189965 -0.087715074 6
1.6706812 -0.13236567 0.3869158 14
1.6764671 -0.13311853 -0.029354947 7
1.6869688 -0.13424869 0.45345098 15
1.6722696 -0.13542892 0.029285138 8
1.6510005 -0.13399647 -0.38241678 1
1.6662035 -0.1355231 0.087610394 9
1.6593599 -0.13496648 -0.32361206 2
1.6541743 -0.13483532 0.14520147 10
1.6675897 -0.13622181 -0.26500002 3
1.6658752 -0.13637444 0.205228 11
1.6658512 -0.13666521 -0.205228 4
1.6576744 -0.13628565 0.26343569 12
1.6640081 -0.13680638 -0.14607303 5
1.6866106 -0.13896099 0.32895473 13
1.6759892 -0.13838038 -0.08813376 6
1.6740932 -0.13851804 0.38781562 14
1.6600496 -0.13764775 -0.02907571 7
1.6864899 -0.1401365 0.45345098 15
1.6618237 -0.14042354 0.029110614 8
1.6582899 -0.14041643 -0.3842164 1
1.6697005 -0.14167614 0.087819748 9
1.6510538 -0.14009394 -0.32208559 2
1.6477379 -0.14010224 0.14467853 10
1.6592309 -0.14137115 -0.26374856 3
1.6772562 -0.14320183 0.20669043 11
1.6673419 -0.14264849 -0.20547174 4
1.663093 -0.14257737 0.26437429 12
1.6595502 -0.14227363 -0.1457244 5
1.6743789 -0.14383927 0.32666501 13
1.6754959 -0.14422984 -0.08813376 6
1.6774826 -0.1446958 0.38871542 14
1.6675278 -0.14413035 -0.029215328 7
1.6744425 -0.14502245 0.45034516 15
1.6533555 -0.14552221 0.028970996 8
1.6480836 -0.14534809 -0.38196689 1
1.6791433 -0.14838265 0.088343106 9
1.6583773 -0.1465476 -0.32361206 2
1.6591464 -0.14690742 0.1457244 10
1.6547921 -0.14681295 -0.2631228 3
1.6629051 -0.14782526 0.20498425 11
1.6668339 -0.14846772 -0.20547174 4
1.6645526 -0.14855736 0.26468715 12
1.6630125 -0.1484199 -0.14607303 5
1.6738666 -0.14968307 0.32666501 13
1.6590679 -0.14865161 -0.087296382 6
1.6769673 -0.15055043 0.38871542 14
1.6749812 -0.15066683 -0.029354947 7
1.6777743 -0.15121329 0.45138043 15
1.6647856 -0.15238631 0.029180422 8
1.6436851 -0.15074414 -0.3810671 1
1.6646929 -0.1529638 0.087610394 9
1.6617656 -0.15269482 -0.3243753 2
1.6625916 -0.15306331 0.14607303 10
1.6582035 -0.15295123 -0.26374856 3
1.6604023 -0.15344629 0.20474051 11
1.6623522 -0.15391912 -0.20498425 4
1.662057 -0.15418437 0.26437429 12
1.6704198 -0.15496016 -0.14677027 5
1.6772436 -0.15588842 0.32742825 13
1.6625161 -0.15481231 -0.087505728 6
1.6725509 -0.15604119 0.38781562 14
1.6824092 -0.15725709 -0.029494567 7
1.68493 -0.15778938 0.45345098 15
1.6722065 -0.15895349 0.029320043 8
1.6450888 -0.1566655 -0.38151699 1
1.6661372 -0.15896341 0.087715074 9
1.6514506 -0.1575622 -0.32246721 2
1.6580805 -0.15848677 0.1457244 10
1.6576596 -0.15873851 -0.26374856 3
1.6677606 -0.15999955 0.20571546 11
1.6499487 -0.15858136 -0.20352182 4
1.6575762 -0.15960644 0.26374856 12
1.6698687 -0.16079007 -0.14677027 5
1.6805974 -0.16211917 0.32819149 13
1.6619657 -0.16061462 -0.087505728 6
1.6642374 -0.16112734 0.38601601 14
1.6699078 -0.16197056 -0.029285138 7
1.6882144 -0.16404358 0.45448625 15
1.6656712 -0.16420105 0.029215328 8
1.6425925 -0.16221546 -0.3810671 1
1.6635845 -0.16458172 0.087610394 9
1.6469831 -0.16293931 -0.321704 2
1.6575171 -0.16427357 0.1457244 10
1.6688896 -0.16569485 -0.26562575 3
1.667192 -0.16582015 0.20571546 11
1.6592618 -0.16532387 -0.20474051 4
1.6550435 -0.1651953 0.26343569 12
1.6574019 -0.16543071 -0.1457244 5
1.6800213 -0.16798456 0.32819149 13
1.6653696 -0.16681311 -0.087715074 6
1.6675427 -0.16732477 0.3869158 14
1.659384 -0.16679862 -0.029110614 7
1.6760988 -0.16877428 0.45138043 15
1.6571307 -0.16920187 0.02907571 8
1.6497707 -0.16874132 -0.38286668 1
1.6590263 -0.16998057 0.087401055 9
1.6503104 -0.16908756 -0.32246721 2
1.6490055 -0.16924471 0.14502715 10
1.6565109 -0.17030719 -0.26374856 3
1.6745015 -0.17245217 0.20669043 11
1.666573 -0.1719296 -0.20571546 4
1.6544567 -0.17097148 0.26343569 12
1.6528509 -0.17080553 -0.14537577 5
1.6677078 -0.17263502 0.32590178 13
1.6687503 -0.17303731 -0.087924413 6
1.6747018 -0.17394987 0.38871542 14
1.6627696 -0.17300384 -0.029180422 7
1.6678137 -0.17382288 0.44930989 15
1.6525526 -0.17456514 0.0290059 8
1.6452959 -0.17408898 -0.38196689 1
1.6683534 -0.17682312 0.087924413 9
1.6536148 -0.17526104 -0.32323048 2
1.6503862 -0.17521015 0.14520147 10
1.6480492 -0.17525291 -0.26249707 3
1.662046 -0.17703471 0.205228 11
1.6659627 -0.17774597 -0.20571546 4
1.6558139 -0.17695546 0.26374856 12
1.6562066 -0.17699744 -0.1457244 5
1.6709993 -0.17887327 0.32666501 13
1.6562209 -0.17758369 -0.087296382 6
1.6702093 -0.17937842 0.38781562 14
1.666132 -0.17923468 -0.029250234 7
1.6710383 -0.18005753 0.45034516 15
1.6539209 -0.18054958 0.029040804 8
1.6446781 -0.17983107 -0.38196689 1
1.6578307 -0.18126918 0.087401055 9
1.6568961 -0.18145964 -0.32399368 2
1.6557059 -0.18162173 0.1457244 10
1.6552817 -0.18186758 -0.26374856 3
1.6476054 -0.18131523 0.20352182 11
1.6594127 -0.18290772 -0.20498425 4
1.6611084 -0.18309462 0.26468715 12
1.6555787 -0.18277758 -0.1457244 5
1.6742674 -0.18513662 0.32742825 13
1.6476505 -0.18248446 -0.086877696 6
1.6618254 -0.18434803 0.38601601 14
1.6734785 -0.18564072 -0.029389855 7
1.6857922 -0.18730453 0.45448625 15
1.6572875 -0.18648039 0.029110614 8
1.6401999 -0.18484756 -0.3810671 1
1.6571878 -0.18705499 0.087401055 9
1.6484493 -0.18635999 -0.32246721 2
1.6570415 -0.18762429 0.1458987 10
1.6585951 -0.1878002 -0.26437429 3
1.6588299 -0.18812001 0.20498425 11
1.6548523 -0.18796146 -0.20449677 4
1.6545712 -0.18822204 0.26374856 12
1.6668082 -0.1899088 -0.14677027 5
1.6736443 -0.19068767 0.32742825 13
1.6470362 -0.18794726 -0.086877696 6
1.6612051 -0.18985783 0.38601601 14
1.6648734 -0.19057146 -0.029250234 7
1.6812897 -0.19274785 0.45345098 15
1.6625855 -0.19295584 0.029215328 8
1.6453518 -0.19124678 -0.38241678 1
1.6585087 -0.19306946 0.087505728 9
1.6478221 -0.19182542 -0.32246721 2
1.6484945 -0.19219531 0.14520147 10
1.6618536 -0.19404681 -0.26500002 3
1.6601348 -0.19413984 0.205228 11
1.654186 -0.19373682 -0.20449677 4
1.6499801 -0.19353618 0.2631228 12
1.6542963 -0.19404244 -0.1457244 5
1.6768681 -0.19698672 0.32819149 13
1.6582716 -0.19509557 -0.087505728 6
1.6644027 -0.19611141 0.3869158 14
1.6602261 -0.19591309 -0.029180422 7
1.6729325 -0.19770855 0.45138043 15
1.6499887 -0.1973334 0.0290059 8
1.6466089 -0.19722071 -0.38286668 1
1.6637738 -0.19957116 0.087819748 9
1.6490918 -0.19781004 -0.32284883 2
1.6438571 -0.19747317 0.14485285 10
1.6513599 -0.19866686 -0.26343569 3
1.6673301 -0.20088339 0.20620294 11
1.6653244 -0.2009366 -0.2059592 4
1.6532168 -0.19976844 0.26374856 12
1.649653 -0.19933781 -0.14537577 5
1.6683742 -0.20189546 0.32666501 13
1.6655115 -0.20184398 -0.087924413 6
1.6753155 -0.20332883 0.38961524 14
1.6595322 -0.20170717 -0.029180422 7
1.6645613 -0.20261326 0.44930989 15
1.6453204 -0.20260295 0.02893609 8
1.6381743 -0.20201322 -0.3810671 1
1.6610849 -0.20513281 0.087715074 9
1.6483914 -0.20356524 -0.32284883 2
1.6471126 -0.20369919 0.14520147 10
1.6486959 -0.20418717 -0.2631228 3
1.6587391 -0.20572492 0.205228 11
1.6665827 -0.2069931 -0.20620294 4
1.6505492 -0.20529422 0.26343569 12
1.6568196 -0.20636779 -0.14607303 5
1.6598665 -0.20674729 0.32513854 13
1.6449778 -0.20518437 -0.086877696 6
1.6745955 -0.20917553 0.38961524 14
1.6707234 -0.20898801 -0.029389855 7
1.6676779 -0.20890267 0.45034516 15
1.6485709 -0.2088476 0.0290059 8
1.6374592 -0.20773031 -0.3810671 1
1.6603588 -0.21092983 0.087715074 9
1.6554244 -0.21059658 -0.3243753 2
1.6542605 -0.21074192 0.1458987 10
1.6440175 -0.20972863 -0.26249707 3
1.648165 -0.21025772 0.20400929 11
1.6481283 -0.21054538 -0.20400929 4
1.65766 -0.21205708 0.26468715 12
1.6600417 -0.21265623 -0.14642164 5
1.6629921 -0.21332923 0.32590178 13
1.6402527 -0.21070321 -0.086668357 6
1.6622206 -0.21382006 0.3869158 14
1.6699837 -0.21481867 -0.029389855 7
1.6784345 -0.21620351 0.45345098 15
1.6517602 -0.21540572 0.02907571 8
1.6366868 -0.21373051 -0.3810671 1
1.6477296 -0.21517256 0.087087035 9
1.6468924 -0.21535556 -0.32284883 2
1.6574658 -0.21703245 0.14624733 10
1.655027 -0.21700689 -0.26437429 3
1.6572244 -0.21758926 0.205228 11
1.6571865 -0.21787851 -0.205228 4
1.6490757 -0.21681215 0.26343569 12
1.6592894 -0.21844959 -0.14642164 5
1.670023 -0.22015922 0.32742825 13
1.6434674 -0.21695024 -0.086877696 6
1.6614641 -0.21962099 0.3869158 14
1.6593113 -0.21933642 -0.029215328 7
1.6815 -0.22256804 0.45448625 15
1.6530187 -0.22114709 0.029110614 8
1.6456264 -0.22045049 -0.38331661 1
1.6489481 -0.22118843 0.087191716 9
1.6461307 -0.22110297 -0.32284883 2
1.6448505 -0.22122332 0.14520147 10
1.6582139 -0.22302061 -0.26500002 3
1.6623957 -0.22387841 0.2059592 11
1.6544875 -0.2231074 -0.20498425 4
1.6424359 -0.22177415 0.26249707 12
1.6466701 -0.22263855 -0.14537577 5
1.6731747 -0.22622211 0.32819149 13
1.6466973 -0.22293489 -0.087087035 6
1.6645889 -0.22565293 0.38781562 14
1.6466465 -0.22351336 -0.0290059 7
1.6653988 -0.22635476 0.45034516 15
1.6443123 -0.22582753 0.028970996 8
1.6371245 -0.22513153 -0.38151699 1
1.6640345 -0.22883208 0.088029087 9
1.6453885 -0.22656052 -0.32284883 2
1.6381867 -0.22586025 0.14467853 10
1.6417707 -0.22664638 -0.26249707 3
1.6635704 -0.22995172 0.20620294 11
1.6576314 -0.22942561 -0.20547174 4
1.6456048 -0.22776107 0.2631228 12
1.6419755 -0.22755083 -0.14502715 5
1.6607072 -0.23044217 0.32590178 13
1.6577786 -0.23033072 -0.087715074 6
1.6637911 -0.23146205 0.38781562 14
1.6617411 -0.23117688 -0.029285138 7
1.664639 -0.23187621 0.45034516 15
1.6395941 -0.23072176 0.028901186 8
1.6440878 -0.23164672 -0.38331661 1
1.6592703 -0.23408124 0.087819748 9
1.6484754 -0.23285182 -0.32361206 2
1.6452794 -0.23269325 0.14537577 10
1.6449218 -0.2326427 -0.2631228 3
1.6569024 -0.23463209 0.20547174 11
1.6529305 -0.23436391 -0.20498425 4
1.6467558 -0.23378162 0.26343569 12
1.6451166 -0.23384184 -0.14537577 5
1.6599339 -0.23594803 0.32590178 13
1.6471192 -0.23441972 -0.087191716 6
1.6707314 -0.23807776 0.38961524 14
1.6589446 -0.23669359 -0.029250234 7
1.6676444 -0.23823187 0.45138043 15
1.6407166 -0.2370155 0.02893609 8
1.648518 -0.23872997 0.087296382 9
1.6495956 -0.23888603 -0.32399368 2
1.6484005 -0.23900671 0.1457244 10
1.6479681 -0.23923768 -0.26374856 3
1.6462091 -0.23927569 0.20425305 11
1.6442027 -0.23927712 -0.20400929 4
1.6478424 -0.24010052 0.26374856 12
1.6561196 -0.24130654 -0.14642164 5
1.6590581 -0.24203038 0.32590178 13
1.6422962 -0.23987783 -0.086982369 6
1.6582781 -0.24250779 0.3869158 14
1.6679589 -0.24422087 -0.029424759 7
1.6705827 -0.24490288 0.4524157 15
1.6418573 -0.24303405 0.028970996 8
1.645699 -0.24418978 0.087191716 9
1.6390418 -0.24320197 -0.32208559 2
1.6475563 -0.24475925 0.1457244 10
1.6471229 -0.24498869 -0.26374856 3
1.6532176 -0.24619016 0.205228 11
1.6394308 -0.24442953 -0.20352182 4
1.6450406 -0.24555945 0.26343569 12
1.6552672 -0.24708599 -0.14642164 5
1.6698531 -0.24956121 0.32819149 13
1.6434242 -0.24590461 -0.087087035 6
1.6497127 -0.24713993 0.38511622 14
1.6552306 -0.24826197 -0.029215328 7
1.6773593 -0.25188035 0.45448625 15
1.6469305 -0.24966289 0.02907571 8
1.6527349 -0.25113297 0.087610394 9
1.6381828 -0.2489218 -0.32208559 2
1.6427525 -0.24990951 0.14537577 10
1.6501633 -0.2513316 -0.26437429 3
1.6562729 -0.2525579 0.20571546 11
1.646417 -0.25134903 -0.20449677 4
1.6465166 -0.25165832 -0.1457244 5
1.6728532 -0.25598249 0.32895473 13
1.6544012 -0.25345445 -0.087715074 6
1.6565447 -0.25407878 0.3869158 14
1.650401 -0.25343129 -0.029145518 7
1.6688323 -0.2565597 0.4524157 15
1.6500009 -0.25602344 0.029145518 8
1.6557953 -0.25751448 0.087819748 9
1.6411837 -0.25524205 -0.32284883 2
1.6418701 -0.25564224 0.14537577 10
1.6492759 -0.25709018 -0.26437429 3
1.6573426 -0.25864393 0.2059592 11
1.6514136 -0.2580139 -0.205228 4
1.6471896 -0.25764847 0.26406142 12
1.6338174 -0.25555682 -0.14467853 5
1.6603118 -0.25999787 0.32666501 13
1.6574527 -0.25984651 -0.087924413 6
1.6633484 -0.26106828 0.38871542 14
1.6574081 -0.26043233 -0.029285138 7
1.6602931 -0.26118261 0.45034516 15
1.6490971 -0.26178142 0.029145518 8
1.6608037 -0.26423413 0.08813376 9
1.6441605 -0.26158619 -0.32361206 2
1.6449028 -0.26199868 0.1457244 10
1.636664 -0.26097932 -0.26249707 3
1.6544694 -0.26411462 0.20571546 11
1.6544232 -0.2644034 -0.20571546 4
1.6482307 -0.26370874 0.26437429 12
1.6447196 -0.26314697 -0.1457244 5
1.6555171 -0.26517084 0.32590178 13
1.6466751 -0.26404941 -0.087401055 6
1.6662751 -0.26749066 0.38961524 14
1.6564889 -0.26621622 -0.029285138 7
1.6670004 -0.26820397 0.4524157 15
1.6481733 -0.26753628 0.029145518 8
1.6460719 -0.26778489 0.087401055 9
1.6490508 -0.26826954 -0.32475692 2
1.6459447 -0.2680591 0.1458987 10
1.6474409 -0.26859796 -0.26437429 3
1.6359048 -0.26701021 0.20352182 11
1.6456537 -0.26889631 -0.20474051 4
1.6492494 -0.26977941 0.26468715 12
1.6477234 -0.26952979 -0.14607303 5
1.6545814 -0.27094808 0.32590178 13
1.6555982 -0.2714113 -0.087924413 6
1.6576393 -0.27204299 0.38781562 14
1.6634426 -0.27329358 -0.029424759 7
1.6660541 -0.27402127 0.4524157 15
1.6492021 -0.27361512 0.029180422 8
1.6431569 -0.27320156 0.087296382 9
1.644999 -0.27380288 0.1458987 10
1.6523389 -0.27532098 -0.26531288 3
1.6486691 -0.27500525 0.205228 11
1.6388311 -0.27365822 -0.20400929 4
1.6424528 -0.27455765 0.26374856 12
1.650703 -0.27593675 -0.14642164 5
1.6652434 -0.27866617 0.32819149 13
1.6467614 -0.27586883 -0.087505728 6
1.6489919 -0.27653834 0.38601601 14
1.65459 -0.2777741 -0.029285138 7
1.672708 -0.28111595 0.45448625 15
1.6521802 -0.2800386 0.029250234 8
1.6421932 -0.27893558 0.087296382 9
1.6401049 -0.27887541 0.14555009 10
1.6455256 -0.28009263 -0.26437429 3
1.6535698 -0.28175884 0.2059592 11
1.6456933 -0.28071228 -0.20498425 4
1.6298012 -0.27829424 0.26187131 12
1.6418737 -0.28035569 -0.1457244 5
1.6642605 -0.28447726 0.32819149 13
1.653663 -0.28296286 -0.087924413 6
1.6556996 -0.28360879 0.38781562 14
1.6457267 -0.28219616 -0.029145518 7
1.6641005 -0.28564575 0.4524157 15
1.6472517 -0.28512195 0.029180422 8
1.6549847 -0.28705549 0.088029087 9
1.6332324 -0.28357619 0.14502715 10
1.6406456 -0.28515834 -0.26374856 3
1.6525762 -0.28752914 0.2059592 11
1.6505704 -0.28747696 -0.20571546 4
1.640496 -0.28601736 0.26374856 12
1.6369597 -0.28540078 -0.14537577 5
1.6516533 -0.28825963 0.32590178 13
1.6526653 -0.28873351 -0.087924413 6
1.6585388 -0.29005799 0.38871542 14
1.6526104 -0.28931844 -0.029285138 7
1.6516762 -0.28945199 0.44930989 15
1.6383696 -0.28947845 0.029040804 8
1.6559392 -0.29317892 0.08813376 9
1.6322325 -0.28927553 0.14502715 10
1.6396402 -0.29088354 -0.26374856 3
1.6417899 -0.29156047 0.20474051 11
1.6495569 -0.29323679 -0.20571546 4
1.6414325 -0.29208812 0.26406142 12
1.6437997 -0.29250935 -0.14607303 5
1.650637 -0.29402322 0.32590178 13
1.6437824 -0.29309824 -0.087505728 6
1.661353 -0.29653043 0.38961524 14
1.6555276 -0.29578879 -0.029354947 7
1.6658691 -0.29793653 0.45345098 15
1.6412852 -0.29590529 0.029110614 8
1.6391822 -0.29611698 0.087296382 9
1.6351341 -0.2956804 0.14537577 10
1.6386148 -0.2966052 -0.26374856 3
1.6407621 -0.29728964 0.20474051 11
1.6348505 -0.2965132 -0.20400929 4
1.6423465 -0.29816884 0.26437429 12
1.6466893 -0.29895729 -0.14642164 5
1.6573272 -0.3011874 0.32742825 13
1.6466793 -0.29954922 -0.087715074 6
1.652639 -0.30093139 0.38781562 14
1.6584196 -0.30228305 -0.029424759 7
1.6572171 -0.30236274 0.45138043 15
1.6441756 -0.302356 0.029180422 8
1.6361744 -0.30147511 0.087191716 9
1.645848 -0.30355453 0.14642164 10
1.6414545 -0.30304047 -0.26437429 3
1.6416665 -0.30337587 0.20498425 11
1.6357576 -0.30257919 -0.20425305 4
1.6374109 -0.30318058 0.26374856 12
1.6456357 -0.30470347 -0.14642164 5
1.6562657 -0.30697069 0.32742825 13
1.6416961 -0.30456677 -0.087505728 6
1.6477464 -0.30598667 0.3869158 14
1.6573544 -0.30807012 -0.029424759 7
1.6751441 -0.31167939 0.4565568 15
1.6470412 -0.30883047 0.029250234 8
1.635112 -0.30718455 0.087191716 9
1.6369461 -0.30782491 0.1457244 10
1.6597996 -0.31242239 -0.26750296 3
1.6464498 -0.31020716 0.20571546 11
1.6424942 -0.30975872 -0.205228 4
1.6382838 -0.30926079 0.26406142 12
1.6367308 -0.30896762 -0.1457244 5
1.6629006 -0.31420833 0.32895473 13
1.6523978 -0.31252253 -0.08813376 6
1.6504979 -0.31246153 0.38781562 14
1.64841 -0.31236425 -0.029285138 7
1.6588618 -0.31464478 0.4524157 15
1.6400607 -0.31345168 0.029145518 8
1.6457996 -0.315144 0.087819748 9
1.6241211 -0.31128678 0.14467853 10
1.6531547 -0.31744987 0.20669043 11
1.6472512 -0.3166143 -0.2059592 4
1.6313748 -0.31385797 0.2631228 12
1.6317294 -0.31392619 -0.14537577 5
1.6540822 -0.318526 0.32742825 13
1.6591413 -0.31980059 -0.088552445 6
1.6493971 -0.31822094 0.38781562 14
1.6512363 -0.31887472 -0.029354947 7
1.646373 -0.31823361 0.44930989 15
1.6369938 -0.31879237 0.029110614 8
1.6505704 -0.32203442 0.08813376 9
1.6308464 -0.31848162 0.14537577 10
1.642296 -0.32131276 0.20547174 11
1.6441878 -0.32198086 -0.20571546 4
1.6438388 -0.3222104 0.26531288 12
1.6423546 -0.32191953 -0.14642164 5
1.6529603 -0.32429788 0.32742825 13
1.646256 -0.32328096 -0.087924413 6
1.6597492 -0.32623151 0.39051503 14
1.6540375 -0.3254087 -0.029424759 7
1.6566248 -0.32621807 0.4524157 15
1.6319479 -0.32372642 0.029040804 8
1.6357236 -0.32506886 0.087401055 9
1.6375411 -0.32572716 0.14607303 10
1.6333771 -0.32549161 0.20449677 11
1.6391605 -0.32694158 -0.205228 4
1.6388296 -0.32717302 0.26468715 12
1.6373132 -0.32687032 -0.14607303 5
1.6479678 -0.32929647 0.32666501 13
1.6333667 -0.32667533 -0.087296382 6
1.6509569 -0.33049309 0.38871542 14
1.6509308 -0.33078754 -0.029389855 7
1.6592643 -0.33275855 0.45345098 15
1.6406084 -0.33140069 0.029215328 8
1.6306638 -0.32998437 0.087191716 9
1.6402996 -0.33223233 0.14642164 10
1.6439036 -0.33355966 0.2059592 11
1.6341184 -0.33187115 -0.20474051 4
1.6279987 -0.33092415 0.2631228 12
1.6439723 -0.33417112 -0.14677027 5
1.6583514 -0.3373954 0.32895473 13
1.6361306 -0.3331719 -0.087505728 6
1.6497933 -0.33625397 0.38871542 14
1.6399692 -0.33454981 -0.029215328 7
1.6656638 -0.3400943 0.45552155 15
1.6453179 -0.33833382 0.029320043 8
1.6431952 -0.33849517 0.087924413 9
1.6332757 -0.33674896 0.1458987 10
1.6485614 -0.34050053 0.20669043 11
1.640726 -0.33918077 -0.20571546 4
1.6287682 -0.3370052 0.26343569 12
1.6349914 -0.33829284 -0.14607303 5
1.6610085 -0.34397832 0.32971796 13
1.6427804 -0.3405025 -0.087924413 6
1.6486094 -0.34201077 0.38871542 14
1.6348757 -0.3394593 -0.029145518 7
1.6531178 -0.343548 0.4524157 15
1.6343404 -0.34202692 0.029145518 8
1.6400489 -0.34381917 0.087819748 9
1.6223407 -0.34040242 0.14502715 10
1.6493055 -0.3466613 0.20693417 11
1.6395321 -0.34490594 -0.20571546 4
1.6333808 -0.34390959 0.26437429 12
1.6299013 -0.34317696 -0.1457244 5
1.6482713 -0.34734523 0.32742825 13
1.6415819 -0.3462348 -0.087924413 6
1.6512191 -0.34856847 0.38961524 14
1.6415067 -0.34681746 -0.029285138 7
1.6481285 -0.34851706 0.45138043 15
1.6272689 -0.3464804 0.029040804 8
1.6427453 -0.35037515 0.088029087 9
1.6269882 -0.34731126 0.14555009 10
1.6364381 -0.34992582 0.20547174 11
1.6519059 -0.35353488 -0.20742163 4
1.6321703 -0.34960905 0.26437429 12
1.6364863 -0.35053352 -0.14642164 5
1.6432096 -0.35227358 0.32666501 13
1.632552 -0.35028687 -0.087505728 6
1.6538029 -0.35514846 0.39051503 14
1.6500614 -0.3546463 -0.029459663 7
1.6487906 -0.35467422 0.45189807 15
1.6358215 -0.35427481 0.029215328 8
1.6376085 -0.3552604 0.087819748 9
1.635501 -0.35510206 0.14642164 10
1.6332669 -0.35521403 0.205228 11
1.6386606 -0.35698619 0.26562575 12
1.6430396 -0.35794017 -0.1471189 5
1.6496426 -0.35968024 0.32819149 13
1.6313193 -0.35598338 -0.087505728 6
1.6449376 -0.35925594 0.38871542 14
1.6468598 -0.35997689 -0.029424759 7
1.660753 -0.36331746 0.45552155 15
1.6384807 -0.36084297 0.029285138 8
1.6266067 -0.35882333 0.087296382 9
1.6381427 -0.36166793 0.14677027 10
1.6339554 -0.36134169 0.20547174 11
1.6277614 -0.36056793 0.26406142 12
1.6417801 -0.36367327 -0.1471189 5
1.6483769 -0.36543638 0.32819149 13
1.6300668 -0.36167559 -0.087505728 6
1.6398687 -0.36415076 0.38781562 14
1.6416889 -0.36485565 -0.029354947 7
1.6411139 -0.36743394 0.029354947 8
1.6350886 -0.36668429 0.087819748 9
1.629094 -0.36563861 0.14607303 10
1.6423677 -0.36922005 0.20669043 11
1.6207113 -0.36494583 0.2631228 12
1.6327258 -0.36765122 -0.14642164 5
1.6547523 -0.37291452 0.32971796 13
1.6365876 -0.3691211 -0.087924413 6
1.6461914 -0.37158909 0.38961524 14
1.6326032 -0.36882135 -0.029215328 7
1.6320219 -0.3713854 0.029215328 8
1.6337986 -0.37238961 0.087819748 9
1.6200378 -0.36955059 0.14537577 10
1.6410689 -0.37495071 0.20669043 11
1.62713 -0.37236363 0.26437429 12
1.6236638 -0.37157041 -0.1457244 5
1.6457856 -0.37693518 0.32819149 13
1.6391828 -0.37572411 -0.08813376 6
1.6410854 -0.37646165 0.38871542 14
1.6391019 -0.37630779 -0.029354947 7
1.6248708 -0.37572843 0.029110614 8
1.6402718 -0.37989295 0.088238433 9
1.6245607 -0.37655294 0.1458987 10
1.6262144 -0.37753448 0.20498425 11
1.6412127 -0.38162023 0.26687723 12
1.6262382 -0.37813827 -0.14607303 5
1.6406355 -0.38178784 0.32742825 13
1.6339707 -0.38053754 -0.087924413 6
1.6511486 -0.38484195 0.39141485 14
1.6416732 -0.38293558 -0.029424759 7
1.6313362 -0.38322726 0.029250234 8
1.6292149 -0.38332909 0.087715074 9
1.6212971 -0.3817648 0.1457244 10
1.6190904 -0.38184175 0.20425305 11
1.6360257 -0.38643858 0.26625147 12
1.6287864 -0.38472864 -0.14642164 5
1.643114 -0.38841566 0.32819149 13
1.6287453 -0.38531926 -0.087715074 6
1.6422099 -0.38880727 0.38961524 14
1.6481098 -0.39050794 -0.029564377 7
1.6299886 -0.38891935 0.029250234 8
1.627867 -0.38901377 0.087715074 9
1.6315812 -0.3902024 0.14677027 10
1.6274002 -0.38980308 0.20547174 11
1.6250622 -0.38984296 0.26468715 12
1.6313083 -0.39134139 -0.14677027 5
1.6493841 -0.39598212 0.32971796 13
1.6312743 -0.39193544 -0.087924413 6
1.6370531 -0.39362609 0.38871542 14
1.6350713 -0.39345148 -0.029354947 7
1.6325079 -0.39554849 0.029320043 8
1.62844 -0.3951647 0.087819748 9
1.6185924 -0.39307418 0.1457244 10
1.6356739 -0.39782709 0.20669043 11
1.6198531 -0.3945781 0.26406142 12
1.633804 -0.39797634 -0.1471189 5
1.6479919 -0.40173709 0.32971796 13
1.6337771 -0.39857402 -0.08813376 6
1.6394556 -0.40026248 0.38961524 14
1.633688 -0.39915651 -0.029354947 7
1.6272337 -0.40028924 0.029250234 8
1.6270508 -0.4008466 0.087819748 9
1.6172104 -0.39872172 0.1457244 10
1.6400567 -0.40496182 0.20742163 11
1.6261363 -0.40212685 0.26531288 12
1.6389564 -0.4056007 0.32819149 13
1.6401304 -0.40619504 -0.088552445 6
1.6418313 -0.4069204 0.39051503 14
1.6361666 -0.40581954 -0.029424759 7
1.6219461 -0.404998 0.029180422 8
1.637267 -0.40943083 0.088447772 9
1.6196744 -0.40533179 0.14607303 10
1.6328566 -0.40923643 0.20669043 11
1.6247227 -0.40780067 0.26531288 12
1.6413389 -0.41227585 0.32895473 13
1.6270807 -0.40899631 -0.087924413 6
1.6479604 -0.4145506 0.39231464 14
1.6386184 -0.41250473 -0.029494567 7
1.6282762 -0.41262206 0.029320043 8
1.6280843 -0.41317827 0.088029087 9
1.627905 -0.41343522 0.14694458 10
1.6217991 -0.41248715 0.20547174 11
1.6309464 -0.41541991 0.26656437 12
1.6398898 -0.41800267 0.32895473 13
1.6295137 -0.41566071 -0.08813376 6
1.6427269 -0.41933656 0.39141485 14
1.6449184 -0.42020181 -0.029634187 7
1.6306996 -0.41929927 0.029389855 8
1.6150272 -0.41587058 0.087401055 9
1.6303108 -0.42010948 0.1472932 10
1.6299598 -0.42062587 0.20669043 11
1.6218362 -0.41913339 0.26531288 12
1.6422222 -0.42470753 0.32971796 13
1.6241857 -0.4203454 -0.087924413 6
1.6337072 -0.42311388 0.38961524 14
1.6318271 -0.4229309 -0.029424759 7
1.6330959 -0.42599839 0.029459663 8
1.6251601 -0.42453429 0.088029087 9
1.6230515 -0.42428607 0.14677027 10
1.6323224 -0.42731836 0.20717789 11
1.6222742 -0.42529303 0.26562575 12
1.6445277 -0.4314338 0.3304812 13
1.6342993 -0.4290553 -0.088552445 6
1.6284506 -0.4278236 0.38871542 14
1.6264729 -0.42760751 -0.029354947 7
1.6180665 -0.4281159 0.029215328 8
1.6313909 -0.43225071 0.088447772 9
1.6177089 -0.42892772 0.14642164 10
1.6308209 -0.43301362 0.20717789 11
1.6226887 -0.4314608 0.26593861 12
1.6392171 -0.43616197 0.32971796 13
1.6405116 -0.436813 -0.088971131 6
1.6420116 -0.43751931 0.39231464 14
1.6326991 -0.43534321 -0.029494567 7
1.6184938 -0.43427968 0.029250234 8
1.6375875 -0.44001582 0.088866465 9
1.6181259 -0.43508929 0.14659595 10
1.6331331 -0.43973589 0.20766538 11
1.6268946 -0.43866521 0.26687723 12
1.6301028 -0.43983549 0.32819149 13
1.6536434 -0.44680658 0.39546397 14
1.6350304 -0.44208363 -0.029564377 7
1.6227566 -0.4415015 0.029354947 8
1.6244795 -0.44257939 0.088238433 9
1.6223639 -0.44230717 0.1471189 10
1.625843 -0.44386545 0.20693417 11
1.6253535 -0.44434148 0.26687723 12
1.6361322 -0.44759512 0.32971796 13
1.6450486 -0.45096028 -0.029773805 7
1.6308441 -0.44982186 0.029529471 8
1.6133766 -0.44530696 0.087715074 9
1.6227306 -0.4484984 0.1472932 10
1.626197 -0.45006746 0.20717789 11
1.6124487 -0.44656548 0.26500002 12
1.6383437 -0.45435292 0.3304812 13
1.6281297 -0.45213243 -0.029494567 7
1.6331954 -0.4563036 0.029599281 8
1.6253555 -0.45441908 0.088447772 9
1.6193157 -0.4533399 0.1471189 10
1.6285185 -0.45652941 0.20766538 11
1.6185668 -0.45404425 0.26625147 12
1.6443884 -0.46190706 0.33200768 13
1.6227716 -0.45644614 -0.029424759 7
1.6201285 -0.45845014 0.029389855 8
1.6256809 -0.46063432 0.088552445 9
1.6024688 -0.45435932 0.1457244 10
1.6327244 -0.46355367 0.20839658 11
1.6131718 -0.45861098 0.26562575 12
1.6352943 -0.46520877 0.3304812 13
1.6250145 -0.46320421 -0.029494567 7
1.6146737 -0.46300027 0.029320043 8
1.6298223 -0.46795979 0.088866465 9
1.6161114 -0.4646337 0.1471189 10
1.6253732 -0.46760365 0.20766538 11
1.6229502 -0.46752003 0.26750296 12
1.6260328 -0.46902284 0.32895473 13
1.6272302 -0.46998346 -0.029564377 7
1.6206467 -0.47114813 0.029459663 8
1.6185079 -0.4711391 0.088343106 9
1.6163926 -0.4708294 0.1472932 10
1.6122142 -0.47022289 0.20620294 11
1.6231221 -0.47401911 0.26781586 12
1.6281544 -0.47579724 0.32971796 13
1.6331731 -0.47819209 -0.029703995 7
1.6189923 -0.47680241 0.029459663 8
1.618769 -0.47735077 0.088447772 9
1.6166501 -0.47703269 0.14746751 10
1.6238893 -0.479785 0.20790912 11
1.6157749 -0.47800091 0.26687723 12
1.6377789 -0.48482129 0.33200768 13
1.6326481 -0.48702377 0.029738901 8
1.6152635 -0.48214489 0.088343106 9
1.6168841 -0.48324344 0.14764182 10
1.6298118 -0.48772696 0.20888408 11
1.6066114 -0.48108974 0.26562575 12
1.6360766 -0.49053529 0.33200768 13
1.6157093 -0.48781139 0.029459663 8
1.6269531 -0.49182588 0.089075804 9
1.6094666 -0.48715287 0.1471189 10
1.6243856 -0.49197808 0.20839658 11
1.6068126 -0.48726812 0.26593861 12
1.6306834 -0.49481779 0.33124444 13
1.6082597 -0.4916943 0.029354947 8
1.6271363 -0.49808666 0.089180477 9
1.6078422 -0.49248737 0.1471189 10
1.6207606 -0.49706322 0.20815286 11
1.6164322 -0.49635312 0.26781586 12
1.625193 -0.49935371 0.3304812 13
1.6141746 -0.49967048 0.029494567 8
1.6196647 -0.50198954 0.088866465 9
1.6175312 -0.50163776 0.14816476 10
1.6171198 -0.50212902 0.20790912 11
1.6184623 -0.50316536 0.26844159 12
1.6271893 -0.50618994 0.33124444 13
1.6181452 -0.50709593 0.029599281 8
1.6102798 -0.50524849 0.088447772 9
1.6195722 -0.50847459 0.14851339 10
1.6134635 -0.50717551 0.20766538 11
1.6072748 -0.50584674 0.26687723 12
1.6329027 -0.51422566 0.33277091 13
1.6163653 -0.51274127 0.029599281 8
1.6180241 -0.51388913 0.088971131 9
1.6101921 -0.51171112 0.14781614 10
1.6173582 -0.51461011 0.20839658 11
1.6073813 -0.51205367 0.2671901 12
1.6404505 -0.52290368 0.33467901 13
