# .PCD v0.7 - Point Cloud Data file format
VERSION 0.7
FIELDS x y z intensity
SIZE 4 4 4 4
TYPE F F F F
COUNT 1 1 1 1
WIDTH 956
HEIGHT 1
VIEWPOINT 0 0 0 1 0 0 0
POINTS 956
DATA ascii
2.0810711 0.017435318 -0.10906815 6
2.0950997 0.010238686 -0.10980085 6
2.0631666 0.0028811751 -0.10812609 6
2.0856814 0.0021836248 -0.036405724 7
2.063164 -0.0043210867 -0.10812609 6
2.0956748 -0.0051207095 -0.036580246 7
2.0631363 -0.011522847 -0.10812609 6
2.065649 -0.012257951 -0.036056671 7
2.0710723 -0.018796971 -0.10854478 6
2.0655935 -0.019468335 -0.036056671 7
2.0709941 -0.026026249 -0.10854478 6
2.0655131 -0.026678484 -0.036056671 7
2.0589087 -0.033062797 -0.10791675 6
2.0654073 -0.033888306 -0.036056671 7
2.0833461 -0.037456121 0.036370814 8
2.0467997 -0.040015295 -0.10728873 6
2.0772724 -0.041336432 -0.0362661 7
2.0712073 -0.044470578 0.036161385 8
2.0586276 -0.047435764 -0.10791675 6
2.0651205 -0.048306622 -0.036056671 7
2.0570457 -0.051350839 0.035917051 8
2.0584495 -0.054621428 -0.10791675 6
2.0609415 -0.055407472 -0.035986863 7
2.072845 -0.058986008 0.036196291 8
2.0622389 -0.061926316 -0.10812609 6
2.054739 -0.062419005 -0.035882145 7
2.0606346 -0.065838076 0.035986863 8
2.0460413 -0.068589181 -0.10728873 6
2.0645013 -0.069929473 -0.036056671 7
2.0583937 -0.072959796 0.035951961 8
2.0417974 -0.075582996 -0.10707937 6
2.0682416 -0.07728485 -0.036126483 7
2.0621231 -0.080300115 0.036021769 8
2.0763881 -0.083396368 -0.18180689 5
2.0455127 -0.082871452 -0.10728873 6
2.0559707 -0.084014013 -0.035917051 7
2.06183 -0.087497771 0.036021769 8
2.0612826 -0.088195369 0.10812609 9
2.0442367 -0.089253291 -0.1790179 5
2.0412199 -0.08983548 -0.10707937 6
2.055665 -0.091190174 -0.035917051 7
2.047529 -0.094052061 0.035777435 8
2.0589674 -0.095297717 0.10802142 9
2.0478928 -0.096576177 -0.17936651 5
2.056854 -0.097718365 -0.10791675 6
2.0513394 -0.09817405 -0.035847243 7
2.0411963 -0.10090251 0.035672721 8
2.0725856 -0.10317941 0.10875413 9
2.0455532 -0.10362326 -0.1791922 5
2.048522 -0.10449056 -0.10749806 6
2.0549784 -0.10553908 -0.035917051 7
2.0428286 -0.10813269 0.035707623 8
2.0602651 -0.10941626 0.10812609 9
2.0451791 -0.11076294 -0.1791922 5
2.0361788 -0.11098836 -0.10687003 6
2.0646005 -0.11289899 -0.036091577 7
2.0544379 -0.11558031 0.035917051 8
2.0439184 -0.11570421 0.10728873 9
2.0487583 -0.11813065 -0.17954083 5
2.0397873 -0.1179706 -0.10707937 6
2.0482233 -0.11917585 -0.035812337 7
2.0600107 -0.12310881 0.036021769 8
2.0474892 -0.12307779 0.10749806 9
2.0404005 -0.1244388 -0.17884357 5
2.0393631 -0.12509006 -0.10707937 6
2.0418072 -0.12595539 -0.035707623 7
2.0455985 -0.12941502 0.035777435 8
2.0550199 -0.1307313 0.10791675 9
2.0698702 -0.13203874 0.18145825 10
2.032001 -0.13104747 -0.17814633 5
2.0429006 -0.1324665 -0.10728873 6
2.0613096 -0.13438275 -0.036056671 7
2.0351579 -0.13588859 0.035602912 8
2.0505896 -0.13727848 0.10770741 9
2.045542 -0.13765781 0.17936651 10
2.0434575 -0.13895065 -0.1791922 5
2.0344551 -0.13905196 -0.10687003 6
2.0608525 -0.14121756 -0.036056671 7
2.0426753 -0.14319602 0.035742529 8
2.0421288 -0.14387408 0.10728873 9
2.0410743 -0.14451578 0.1790179 10
2.0469348 -0.14636701 -0.17954083 5
2.0220299 -0.14494091 -0.10624201 6
2.0603471 -0.14841042 -0.036056671 7
2.0481458 -0.15076584 0.035847243 8
2.0376303 -0.15070692 0.10707937 9
2.0564795 -0.1524619 0.1804124 10
2.0464382 -0.15315409 -0.17954083 5
2.0254948 -0.15229772 -0.10645135 6
2.0558286 -0.15530021 -0.035986863 7
2.0476069 -0.15791428 0.035847243 8
2.0410745 -0.1581272 0.10728873 9
2.0440161 -0.15871398 0.17936651 10
2.037946 -0.15967406 -0.17884357 5
2.028933 -0.15968052 -0.10666069 6
2.0393262 -0.16121472 -0.035707623 7
2.0410635 -0.16457865 0.035742529 8
2.0444915 -0.16557336 0.10749806 9
2.0315344 -0.16488092 0.17832063 10
2.0254328 -0.16616501 -0.17779772 5
2.0363255 -0.16741644 -0.10707937 6
2.0467227 -0.16899051 -0.035847243 7
2.0325062 -0.17103156 0.035602912 8
2.0478816 -0.17304528 0.10770741 9
2.0408425 -0.17316802 0.1791922 10
2.0347662 -0.17408325 -0.17866927 5
2.0277386 -0.17419502 -0.10666069 6
2.0540895 -0.17681989 -0.035986863 7
2.0358496 -0.17882986 0.035672721 8
2.0352962 -0.17949721 0.10707937 9
2.0422106 -0.1804662 0.17936651 10
2.0400994 -0.18171512 -0.1791922 5
2.019161 -0.18056053 -0.10624201 6
2.0534277 -0.18434733 -0.035986863 7
2.0411875 -0.18648104 0.035777435 8
2.0306795 -0.18623582 0.10687003 9
2.045536 -0.18795837 0.17971513 10
2.0280628 -0.18742369 -0.25007591 4
2.0394528 -0.18883529 -0.1791922 5
2.0185184 -0.18760762 -0.10624201 6
2.0408256 -0.1903995 -0.035777435 7
2.0425146 -0.19379383 0.035812337 8
2.0379703 -0.19408049 0.10728873 9
2.0309842 -0.19377287 0.17849496 10
2.0432386 -0.1956618 0.25202581 11
2.0293722 -0.19469139 -0.25031966 4
2.0229154 -0.19442827 -0.17779772 5
2.0337553 -0.1961866 -0.10707937 6
2.032187 -0.19675131 -0.035637815 7
2.0278952 -0.19955155 0.035568006 8
2.0372803 -0.20119314 0.10728873 9
2.0223646 -0.20007655 0.17779772 10
2.0504446 -0.20357734 0.2530008 11
2.0385571 -0.20275639 -0.25153834 4
2.0142939 -0.20069821 -0.17710046 5
2.0330582 -0.20328456 -0.10707937 6
2.0354669 -0.20424306 -0.035707623 7
2.0251968 -0.20642623 0.035533097 8
2.0365655 -0.20830333 0.10728873 9
2.0256178 -0.20754083 0.17814633 10
2.0418229 -0.20992142 0.25202581 11
2.037837 -0.20987105 -0.25153834 4
2.0234907 -0.20875047 -0.17797202 5
2.0164433 -0.20873483 -0.10624201 6
2.0426979 -0.2121733 -0.035847243 7
2.0284412 -0.21391368 0.035602912 8
2.0278811 -0.21457039 0.10687003 9
2.0308249 -0.21524025 0.17866927 10
2.0331819 -0.21620777 0.25105089 11
2.0252483 -0.21572161 -0.25007591 4
2.028693 -0.21644662 -0.17849496 5
2.0037868 -0.21449673 -0.10561397 6
2.0379684 -0.2188753 -0.035777435 7
2.0396097 -0.22229289 0.035812337 8
2.0271199 -0.22164769 0.10687003 9
2.039964 -0.22341238 0.17954083 10
2.0343878 -0.22352037 0.25129461 11
2.024483 -0.22278973 -0.25007591 4
2.0219839 -0.22287188 -0.17797202 5
2.0149367 -0.22280705 -0.10624201 6
2.0332165 -0.22554684 -0.035707623 7
2.0408084 -0.22963473 0.035847243 8
2.030303 -0.22917035 0.10707937 9
2.0312524 -0.22963654 0.17884357 10
2.0434575 -0.23173881 0.25251329 11
2.0197482 -0.22940707 -0.24958843 4
2.0132751 -0.22902776 -0.17727478 5
2.0121624 -0.22961269 -0.10613733 6
2.0244701 -0.23173305 -0.035568006 7
2.0320489 -0.23583491 0.035707623 8
2.0374677 -0.23682421 0.10749806 9
2.0185647 -0.23534121 0.17779772 10
2.0465794 -0.23933153 0.2530008 11
2.0229194 -0.23656468 -0.25007591 4
2.0404453 -0.23897517 0.32538372 12
2.0124633 -0.23605403 -0.17727478 5
2.0351515 -0.23943548 -0.10739339 6
2.0236905 -0.23844518 -0.035568006 7
2.021328 -0.24138658 0.035533097 8
2.0406373 -0.24405374 0.10770741 9
2.0217297 -0.24250828 0.17814633 10
2.0339494 -0.24469428 0.25153834 11
2.0300076 -0.24422006 -0.25105089 4
2.0357192 -0.24526766 0.32475799 12
2.0195818 -0.24368097 -0.17797202 5
2.0184839 -0.2442634 -0.10655601 6
2.024874 -0.24539526 -0.035602912 7
2.0244861 -0.24857563 0.035602912 8
2.0159857 -0.24824627 0.10645135 9
2.0189369 -0.24896736 0.17797202 10
2.0291867 -0.25095046 0.25105089 11
2.0173223 -0.24984071 -0.24958843 4
2.0387714 -0.2528584 0.32538372 12
2.0187187 -0.25072914 -0.17797202 5
2.0057275 -0.24982657 -0.10592799 6
2.0339267 -0.25369948 -0.035777435 7
2.0255451 -0.25624502 0.035637815 8
2.0210066 -0.25638765 0.10676537 9
2.0199873 -0.25661659 0.17814633 10
2.03613 -0.25938958 0.25202581 11
2.012455 -0.25673047 -0.24910097 4
2.0280337 -0.25907761 0.3238194 12
2.0177863 -0.25812644 -0.17797202 5
2.0047984 -0.25717625 -0.10592799 6
2.0190992 -0.25936899 -0.035533097 7
2.034507 -0.2649585 0.035812337 8
2.0161381 -0.26292416 0.10655601 9
2.0131063 -0.26324344 0.17762341 10
2.031229 -0.26633444 0.25153834 11
2.0193732 -0.26513845 -0.25007591 4
2.0153654 -0.26461223 0.32194218 12
2.0050206 -0.26360998 -0.17692617 5
2.0078487 -0.26469478 -0.10613733 6
2.0082691 -0.26510683 -0.035358574 7
2.0098324 -0.2685259 0.03539348 8
2.0211468 -0.27075574 0.10687003 9
2.0141501 -0.27053416 0.17779772 10
2.038204 -0.27412719 0.25251329 11
2.0184829 -0.27183342 -0.25007591 4
2.0242178 -0.27296549 0.3235065 12
1.9942157 -0.26927412 -0.17605458 5
2.0109184 -0.27188683 -0.10634667 6
2.0291288 -0.27507025 -0.035742529 7
2.0108638 -0.27581164 0.035428386 8
2.0320611 -0.2794418 0.10749806 9
2.0171893 -0.27775535 0.17814633 10
2.0274024 -0.27988282 0.25129461 11
2.0175216 -0.27887765 -0.25007591 4
2.0291228 -0.28084216 0.32444513 12
2.0070784 -0.27814808 -0.17727478 5
2.0594044 -0.28539962 0.40413347 13
2.0060005 -0.27835554 -0.10613733 6
2.0321174 -0.28270259 -0.035812337 7
2.0158296 -0.28366515 0.035533097 8
2.0192072 -0.28485927 0.10687003 9
2.0181303 -0.2854259 0.17832063 10
2.0145395 -0.28527668 -0.32225505 3
2.0264132 -0.28695807 0.25129461 11
2.0086741 -0.28480372 -0.24910097 4
2.0261745 -0.28764579 0.32413223 12
2.0100403 -0.2857132 -0.17762341 5
2.0466828 -0.29128605 0.40184379 13
1.9970574 -0.28457895 -0.10571864 6
2.0311182 -0.2897943 -0.035812337 7
2.0226927 -0.29219523 0.035672721 8
2.0141964 -0.29168564 0.10666069 9
2.023037 -0.29332641 0.17884357 10
2.0272157 -0.29429355 -0.32444513 3
2.0273125 -0.29466888 0.25153834 11
2.01351 -0.29302159 -0.24983218 4
2.019242 -0.29421568 0.32319364 12
2.0070591 -0.29244053 -0.17744908 5
2.0534244 -0.29956219 0.40337023 13
2.0039573 -0.29270294 -0.10613733 6
2.0300424 -0.29723677 -0.035812337 7
2.0216603 -0.29925397 0.035672721 8
2.0171173 -0.29930103 0.10687003 9
2.0082054 -0.29833692 0.17762341 10
2.0281301 -0.30165869 -0.32475799 3
2.0301983 -0.30232853 0.25202581 11
2.0026581 -0.29858458 -0.24861349 4
2.0182028 -0.30126232 0.32319364 12
2.0040557 -0.29915053 -0.17727478 5
2.0543077 -0.30701834 0.40375188 13
2.0029233 -0.29969627 -0.10613733 6
2.0111945 -0.30165169 -0.035498194 7
2.0087409 -0.30451077 0.035463288 8
2.0200093 -0.30694029 0.10707937 9
2.0032125 -0.30474573 0.17727478 10
2.0016775 -0.30486974 -0.32069072 3
2.0291307 -0.30941334 0.25202581 11
2.0114152 -0.30707124 -0.24983218 4
2.0210447 -0.30890229 0.3238194 12
1.9911821 -0.30433801 -0.17622891 5
2.037698 -0.31181163 0.40069893 13
2.003839 -0.30698839 -0.10624201 6
2.0140822 -0.30927721 -0.035568006 7
2.0076656 -0.31152073 0.035463288 8
2.0189254 -0.31398961 0.10707937 9
2.0159173 -0.31388208 0.17849496 10
2.0006013 -0.31185499 -0.32069072 3
2.0241156 -0.3158823 0.25153834 11
2.0162151 -0.31500983 -0.25056338 4
2.0199542 -0.31595516 0.3238194 12
1.9940445 -0.31190246 -0.17657752 5
2.0385368 -0.31922635 0.40108052 13
2.0086749 -0.31490922 -0.10655601 6
2.0208921 -0.31754738 -0.035707623 7
2.012491 -0.3194674 0.035568006 8
2.0139282 -0.32005593 0.10687003 9
2.0089066 -0.31997687 0.17797202 10
2.0034018 -0.3194586 -0.32131645 3
2.0151594 -0.32169408 0.25056338 11
2.0033977 -0.3198165 -0.24910097 4
2.0247471 -0.32358709 0.32475799 12
2.0067155 -0.32106453 -0.17779772 5
2.0354717 -0.32602972 0.40069893 13
2.0115075 -0.3225514 -0.10676537 6
2.0218024 -0.32456416 -0.035742529 7
2.0133946 -0.32645941 0.035602912 8
2.0069416 -0.32577258 0.10655601 9
2.0137341 -0.32759663 0.17849496 10
2.0062306 -0.32673541 -0.32194218 3
2.0180001 -0.32901374 0.25105089 11
1.9984078 -0.32581943 -0.24861349 4
2.0178142 -0.32934496 0.3238194 12
2.0135047 -0.32900238 -0.17849496 5
2.0421293 -0.33404556 0.40222538 13
2.010427 -0.32922003 -0.10676537 6
2.0308206 -0.33255962 0.47509661 14
2.0069017 -0.32900241 -0.035498194 7
2.012301 -0.33313426 0.035602912 8
2.0057921 -0.33277613 0.10655601 9
2.0126367 -0.33427259 0.17849496 10
2.0090334 -0.33403447 -0.32256791 3
2.0168979 -0.33570385 0.25105089 11
2.0011744 -0.3334457 -0.24910097 4
2.0049613 -0.33443633 0.32194218 12
2.0005529 -0.33405986 -0.17744908 5
2.0410104 -0.34081563 0.40222538 13
2.0172038 -0.33720222 -0.10718405 6
2.0296474 -0.33964646 0.47509661 14
2.0057409 -0.33600584 -0.035498194 7
2.0071824 -0.33948946 0.035533097 8
2.0243101 -0.34311327 0.10760273 9
2.0015764 -0.33997878 0.17762341 10
2.000006 -0.34007123 -0.32131645 3
2.0274558 -0.34473863 0.25251329 11
2.0078261 -0.34176147 -0.25007591 4
2.0154657 -0.34342384 0.3238194 12
1.9954467 -0.34037107 -0.17710046 5
2.035877 -0.34763312 0.40146214 13
2.012017 -0.34392035 -0.10697471 6
2.036072 -0.34839794 0.47689623 14
2.0084977 -0.34367964 -0.035568006 7
1.9980428 -0.34548104 0.03539348 8
2.0151672 -0.34916654 0.10718405 9
2.002341 -0.34730411 0.17779772 10
1.9910216 -0.34569871 -0.32006493 3
2.0203111 -0.35114747 0.25178206 11
2.0085156 -0.34945849 -0.25031966 4
2.0161395 -0.3511475 0.32413223 12
1.9981719 -0.34801811 -0.17744908 5
2.0269151 -0.35338879 0.39993569 13
2.0108042 -0.35094148 -0.10697471 6
2.0482812 -0.3578507 0.48004553 14
2.0151038 -0.35241681 -0.035707623 7
2.0086403 -0.35453895 0.035602912 8
2.0100029 -0.35550293 0.10697471 9
2.0011163 -0.35429147 0.17779772 10
1.9936932 -0.3533361 -0.32069072 3
2.0034368 -0.35542354 0.24983218 11
1.9975111 -0.35473192 -0.24910097 4
2.0168464 -0.35852876 0.32444513 12
2.0047917 -0.35638586 -0.17814633 5
2.0314677 -0.36149371 0.40108052 13
2.0056343 -0.35725787 -0.10676537 6
2.0335903 -0.36260381 0.47689623 14
2.0177989 -0.36015147 -0.035777435 7
2.0073905 -0.36154824 0.035602912 8
2.0087495 -0.362517 0.10697471 9
2.0096707 -0.36304545 0.17866927 10
1.9924476 -0.36029321 -0.32069072 3
2.0099971 -0.36382899 0.25080714 11
1.9884473 -0.36028671 -0.248126 4
2.0116954 -0.36486164 0.3238194 12
1.9996148 -0.3626706 -0.17779772 5
2.0301933 -0.36858264 0.40108052 13
2.0083051 -0.36497092 -0.10697471 6
2.0284777 -0.36900261 0.47599643 14
2.0086598 -0.36575973 -0.035637815 7
2.0120163 -0.3696371 0.035707623 8
2.0074718 -0.36952662 0.10697471 9
1.9946752 -0.36753103 0.17744908 10
1.9970055 -0.36832079 -0.32162929 3
2.012619 -0.37156373 0.25129461 11
1.9930338 -0.36830765 -0.24885722 4
2.0006971 -0.370085 0.32225505 12
1.994418 -0.36892346 -0.17744908 5
2.0327554 -0.37638199 0.40184379 13
2.0109465 -0.37270689 -0.10718405 6
2.0271773 -0.37608108 0.47599643 14
2.0034387 -0.37203875 -0.035568006 7
1.9930896 -0.37299654 0.03539348 8
2.0180135 -0.3783901 0.10760273 9
1.9934453 -0.37414357 0.17744908 10
1.9899491 -0.37384692 -0.32069072 3
2.0211303 -0.38007009 0.25251329 11
1.9976541 -0.37601641 -0.24958843 4
2.0111065 -0.378912 0.32413223 12
1.9931836 -0.37553519 -0.17744908 5
2.0237789 -0.38166538 0.40031728 13
2.0136247 -0.38011432 -0.10739339 6
2.0374079 -0.38497224 0.47869584 14
2.0061238 -0.37942368 -0.035637815 7
1.9878467 -0.37920204 0.035323672 8
2.0225656 -0.38655677 0.10791675 9
1.9999551 -0.38259721 0.17814633 10
1.9886321 -0.38079089 -0.32069072 3
2.0041945 -0.38413346 0.25056338 11
2.002178 -0.38410929 -0.25031966 4
2.0039513 -0.38481218 0.32319364 12
1.9957743 -0.38324195 -0.17779772 5
2.0243626 -0.38909799 0.40069893 13
2.0044405 -0.38563156 -0.10697471 6
2.0283976 -0.39060774 0.47689623 14
2.0126414 -0.38793793 -0.035777435 7
2.0372393 -0.39304799 0.55594331 15
2.0002515 -0.38880953 0.035568006 8
1.9976789 -0.38903314 0.10666069 9
1.9986074 -0.38957605 0.17814633 10
1.9872906 -0.38773018 -0.32069072 3
1.9969965 -0.38998568 0.24983218 11
1.9891355 -0.38881093 -0.24885722 4
2.0122893 -0.3937014 0.32475799 12
1.9982666 -0.39132002 -0.17814633 5
2.0268452 -0.39691654 0.40146214 13
1.9991622 -0.39185771 -0.10676537 6
2.0308461 -0.39843613 0.47779605 14
2.0151992 -0.39573163 -0.035847243 7
2.0396464 -0.40090212 0.55697864 15
2.0028055 -0.39656618 0.035637815 8
1.9923906 -0.39522675 0.10645135 9
2.0123196 -0.39954507 -0.39879084 2
2.0030286 -0.39806375 0.17866927 10
1.9897308 -0.39578208 -0.32131645 3
1.999517 -0.39772865 0.25031966 11
1.9877661 -0.39575189 -0.24885722 4
1.9992791 -0.39840683 0.32288077 12
1.9968885 -0.39829284 -0.17814633 5
2.0311527 -0.4054957 0.40260699 13
1.9977126 -0.39918235 -0.10676537 6
2.0179067 -0.40358379 0.47509661 14
2.0059621 -0.40119484 -0.035707623 7
2.0420229 -0.40877774 0.55801392 15
2.0013385 -0.40390414 0.035637815 8
1.9987592 -0.40410972 0.10687003 9
1.9743505 -0.39917478 -0.39154008 2
1.9957684 -0.40386769 0.17814633 10
1.9922092 -0.40350938 -0.32194218 3
2.0038826 -0.40623787 0.25105089 11
1.9940842 -0.40461379 -0.24983218 4
2.003613 -0.40691137 0.3238194 12
1.9837706 -0.40288159 -0.17710046 5
2.0354965 -0.41375646 0.40375188 13
2.0080497 -0.40854234 -0.10739339 6
2.0203049 -0.41140288 0.47599643 14
1.9966406 -0.40694693 -0.035568006 7
2.0329394 -0.41471478 0.55594331 15
1.9901226 -0.40887547 0.035463288 8
2.0012488 -0.41188952 0.10707937 9
1.9748681 -0.40645993 -0.3919217 2
1.9904438 -0.41002774 0.17779772 10
1.9869193 -0.40966323 -0.32131645 3
2.0160611 -0.41603854 0.25275704 11
1.9965478 -0.41237506 -0.25031966 4
1.9983112 -0.41310292 0.32319364 12
1.9784501 -0.40899712 -0.17675185 5
2.020582 -0.41807464 0.40108052 13
2.0085673 -0.41595429 -0.10749806 6
2.0226729 -0.4192436 0.47689623 14
2.0069561 -0.41635126 -0.035777435 7
2.0239136 -0.42023763 0.55387276 15
1.9867259 -0.41541055 0.035428386 8
2.0056636 -0.42010108 0.10739339 9
1.9772804 -0.41415602 -0.39268494 2
1.9909502 -0.417382 0.17797202 10
1.9816108 -0.4157851 -0.32069072 3
1.9951694 -0.41899359 0.25031966 11
1.9950962 -0.41934177 -0.25031966 4
2.0045893 -0.4217025 0.32444513 12
1.9887089 -0.41836172 -0.17779772 5
2.011426 -0.4235073 0.39955404 13
1.993423 -0.42008007 -0.10676537 6
2.0326381 -0.42871451 0.47959566 14
2.0094035 -0.42418036 -0.035847243 7
2.0299945 -0.42889714 0.55594331 15
1.9833078 -0.42192689 0.03539348 8
1.9924647 -0.42460191 0.10676537 9
1.9796629 -0.42187384 -0.39344814 2
1.9914298 -0.42474478 0.17814633 10
1.9801474 -0.42269975 -0.32069072 3
1.9839883 -0.42388168 0.24910097 11
1.9858553 -0.42464301 -0.24934469 4
2.0069685 -0.42952406 0.32507086 12
1.9833394 -0.42446706 -0.17744908 5
2.0156944 -0.43175951 0.40069893 13
1.9841328 -0.42536119 -0.10634667 6
2.0235076 -0.43417183 0.47779605 14
2.0079107 -0.43119192 -0.035847243 7
2.0284851 -0.43598056 0.55594331 15
1.9955041 -0.43180785 0.035637815 8
1.9910457 -0.43120682 0.10676537 9
1.9666661 -0.42628622 -0.39115849 2
1.9996704 -0.43380556 0.1790179 10
1.9863811 -0.43128562 -0.32194218 3
1.9902558 -0.43249062 0.25007591 11
1.9804815 -0.43072861 -0.24885722 4
2.0016725 -0.43533742 0.32444513 12
1.9935267 -0.43393019 -0.17849496 5
2.0218482 -0.44046453 0.40222538 13
1.9826359 -0.43228453 -0.10634667 6
2.014364 -0.43957064 0.47599643 14
2.0025625 -0.43699533 -0.035777435 7
2.0383525 -0.44517809 0.55904913 15
1.9921082 -0.43799338 0.035602912 8
1.9895283 -0.43815428 0.10676537 9
1.965166 -0.43314856 -0.39115849 2
1.9923072 -0.4394955 0.17849496 10
1.9849401 -0.43787032 -0.32194218 3
2.0004413 -0.44165596 0.25153834 11
1.9829189 -0.43815038 -0.24934469 4
1.9885681 -0.43976268 0.32256791 12
1.9803278 -0.4383029 -0.17744908 5
2.0242102 -0.4480153 0.40298861 13
1.9889916 -0.4405846 -0.10676537 6
2.0167003 -0.4470917 0.47689623 14
1.9971201 -0.44311658 -0.035707623 7
2.0292425 -0.45061547 0.55697864 15
1.9808095 -0.44276333 0.035428386 8
1.9918847 -0.44596907 0.10697471 9
1.9637189 -0.43966293 -0.39115849 2
1.9752853 -0.44261461 0.17710046 10
1.9795446 -0.44393188 -0.32131645 3
1.9988874 -0.44863611 0.25153834 11
1.9852512 -0.44593954 -0.24983218 4
1.9908754 -0.44756791 0.32319364 12
1.9787858 -0.44521287 -0.17744908 5
2.0149724 -0.4533546 0.40146214 13
1.9952352 -0.44927976 -0.10718405 6
2.0151274 -0.45412856 0.47689623 14
1.9955612 -0.45008513 -0.035707623 7
1.9831519 -0.45056105 0.035498194 8
2.0020006 -0.45557833 0.10760273 9
1.9697512 -0.44860122 -0.39268494 2
1.9814203 -0.45162258 0.17779772 10
1.9740525 -0.4503057 -0.32069072 3
1.9915029 -0.45428634 0.25080714 11
1.9914236 -0.45463389 -0.25080714 4
1.997004 -0.45627463 0.32444513 12
1.9772197 -0.45211744 -0.17744908 5
2.0094697 -0.45986089 0.40069893 13
1.9857879 -0.45480612 -0.10676537 6
2.0248463 -0.46412367 0.47959566 14
2.0017745 -0.45883533 -0.035847243 7
1.9834355 -0.45827678 0.035533097 8
1.9926146 -0.46076399 0.10718405 9
1.9719987 -0.45635948 -0.39344814 2
1.9973006 -0.46258211 0.17936651 10
1.9840146 -0.45986989 -0.32256791 3
1.9801558 -0.45933965 0.24958843 11
1.9762083 -0.45878744 -0.24910097 4
1.9973236 -0.46368945 0.32475799 12
1.9833926 -0.46082011 -0.17814633 5
2.0116768 -0.46776175 0.40146214 13
1.9802974 -0.46082965 -0.10655601 6
2.0156219 -0.46942076 0.47779605 14
2.0040557 -0.46672711 -0.035917051 7
1.9896923 -0.46667808 0.035672721 8
1.9851608 -0.46634638 0.10687003 9
1.962749 -0.46144301 -0.3919217 2
1.9898554 -0.46818224 0.17884357 10
1.9747874 -0.46463695 -0.32131645 3
1.9863507 -0.46772349 0.25056338 11
1.976608 -0.46579352 -0.24934469 4
1.9937701 -0.4702051 0.32444513 12
1.9817718 -0.46774063 -0.17814633 5
2.0158467 -0.47578308 0.40260699 13
1.9904212 -0.47014883 -0.10718405 6
2.0064683 -0.47430903 0.47599643 14
1.9946308 -0.47187835 -0.035777435 7
1.9919417 -0.47454745 0.035742529 8
1.9932346 -0.4755908 0.10739339 9
1.9612081 -0.46794918 -0.3919217 2
1.9844162 -0.47385275 0.17849496 10
1.9769958 -0.47244561 -0.32194218 3
1.994359 -0.47696292 0.25178206 11
1.9788313 -0.47361451 -0.24983218 4
1.9825115 -0.47486115 0.32288077 12
1.980127 -0.47465548 -0.17814633 5
2.0218103 -0.48464733 0.40413347 13
1.9848835 -0.47616202 -0.10697471 6
2.0123801 -0.48312974 0.47779605 14
1.9890825 -0.4779036 -0.035707623 7
1.9824988 -0.47961688 0.035602912 8
1.9954445 -0.48348621 0.10760273 9
1.9861912 -0.48161119 -0.39726433 2
1.9826663 -0.48112282 0.17849496 10
1.9714119 -0.47875619 -0.32131645 3
1.9965402 -0.48485857 0.25226957 11
1.9848818 -0.48239422 -0.25080714 4
1.9866002 -0.48317909 0.3238194 12
1.9745864 -0.48062214 -0.17779772 5
2.0085757 -0.48926657 0.40184379 13
1.9908867 -0.48532584 -0.10739339 6
2.0105958 -0.49050218 0.47779605 14
1.9912879 -0.48579189 -0.035777435 7
1.971018 -0.4844932 0.035428386 8
2.0014167 -0.49270639 0.10802142 9
1.97904 -0.48756409 0.17832063 10
1.965893 -0.48468909 -0.32069072 3
1.9908949 -0.4912219 0.25178206 11
1.9869548 -0.49061766 -0.25129461 4
2.0001576 -0.49424806 0.32632235 12
1.9806335 -0.48942357 -0.17849496 5
2.0030437 -0.49533218 0.40108052 13
1.9814255 -0.4903532 -0.10697471 6
2.0164378 -0.49939141 0.47959566 14
1.9933758 -0.49404913 -0.035847243 7
1.9731952 -0.49233863 0.035498194 8
1.9880584 -0.49678445 0.10739339 9
1.9927888 -0.49833605 0.17971513 10
1.9680216 -0.49250746 -0.32131645 3
1.9776145 -0.4952749 0.25031966 11
1.9717515 -0.4941723 -0.24958843 4
1.9888399 -0.49882406 0.32475799 12
1.9769803 -0.49584958 -0.17832063 5
2.0089195 -0.50423294 0.40260699 13
1.9797018 -0.49726668 -0.10697471 6
2.0071225 -0.50452673 0.47779605 14
1.9955176 -0.50197995 -0.035917051 7
1.9792186 -0.50118691 0.035637815 8
1.982528 -0.50239313 0.10718405 9
1.9833127 -0.5033288 0.1790179 10
1.9701194 -0.5003466 -0.32194218 3
1.9816456 -0.50364202 0.25105089 11
1.9681777 -0.50021911 -0.24934469 4
1.9948324 -0.50736415 0.32600945 12
1.9752375 -0.50274748 -0.17832063 5
2.0128546 -0.51269609 0.40375188 13
1.9818246 -0.50516075 -0.10718405 6
1.997885 -0.50925446 0.47599643 14
1.993842 -0.50859451 -0.035917051 7
1.9833564 -0.50923932 0.035742529 8
1.9847199 -0.50995868 0.10739339 9
1.9777737 -0.50890994 0.17866927 10
1.9761012 -0.50884736 -0.32319364 3
1.989576 -0.51268733 0.25226957 11
1.9741975 -0.50872451 -0.25031966 4
1.9720981 -0.50855064 0.32256791 12
1.9697012 -0.50829917 -0.17797202 5
2.0130441 -0.51985896 0.40413347 13
1.9878733 -0.51372886 -0.10760273 6
2.0075057 -0.51880246 0.47869584 14
1.9805284 -0.51219946 -0.035707623 7
1.9739161 -0.51379865 0.035602912 8
1.9906585 -0.51889873 0.10781208 9
1.9702917 -0.51395702 0.17814633 10
1.9667577 -0.51340187 -0.32194218 3
1.9897854 -0.51978391 0.25251329 11
1.9743302 -0.51611471 -0.25056338 4
1.9817772 -0.51843107 0.32444513 12
1.9776423 -0.5173493 -0.17884357 5
2.0018129 -0.52404565 0.40222538 13
1.9861588 -0.52031803 -0.10760273 6
2.0056825 -0.52580678 0.47869584 14
1.9903339 -0.52215433 -0.035917051 7
1.9682436 -0.51966488 0.035533097 8
1.9888352 -0.52584428 0.10781208 9
1.9819682 -0.5243988 0.17936651 10
1.9802303 -0.52430886 -0.32444513 3
1.9841212 -0.52570957 0.25202581 11
1.9763544 -0.52402085 -0.25105089 4
1.9856834 -0.52686536 0.32538372 12
1.9758244 -0.52424943 -0.17884357 5
1.9999715 -0.53103006 0.40222538 13
1.972749 -0.52417064 -0.10697471 6
2.0189013 -0.53681076 0.48229504 14
1.9962288 -0.53115541 -0.036056671 7
1.9741441 -0.52860105 0.035672721 8
1.9850582 -0.53226608 0.10770741 9
1.9801257 -0.53131396 0.17936651 10
1.9784399 -0.53160203 0.25153834 11
1.964928 -0.52833909 -0.24983218 4
1.9876474 -0.53482002 0.32600945 12
1.9682105 -0.52959013 -0.17832063 5
2.0056887 -0.54004985 0.40375188 13
1.9709072 -0.5310536 -0.10697471 6
2.0019629 -0.53979617 0.47869584 14
1.9808481 -0.53447384 -0.035812337 7
1.9742167 -0.53601277 0.035707623 8
1.9716243 -0.536048 0.10707937 9
1.9801816 -0.5387457 0.17954083 10
1.9804027 -0.53954846 0.25202581 11
1.9649869 -0.53571695 -0.25007591 4
1.9838625 -0.54123503 0.32569659 12
1.9663498 -0.53645724 -0.17832063 5
2.0037913 -0.54704767 0.40375188 13
1.9767481 -0.54003549 -0.10739339 6
2.0000663 -0.546781 0.47869584 14
1.9731839 -0.53980201 -0.035707623 7
1.9818784 -0.54590029 0.035882145 8
1.977348 -0.54539508 0.10749806 9
1.9762729 -0.5454697 0.17936651 10
1.9822387 -0.54786104 0.25251329 11
1.9591837 -0.54185706 -0.24958843 4
1.9704429 -0.54534119 0.3238194 12
1.9624504 -0.54312921 -0.17814633 5
2.0017726 -0.55438828 0.40375188 13
1.9786048 -0.54834378 -0.10760273 6
1.9980488 -0.55410796 0.47869584 14
1.9673387 -0.54596102 -0.035637815 7
1.9645525 -0.54851294 0.035602912 8
1.9888966 -0.55605841 0.10823077 9
1.9705195 -0.55129129 0.1790179 10
1.9822257 -0.55531245 0.25275704 11
1.964926 -0.55083591 -0.25056338 4
1.9742332 -0.55381668 0.32475799 12
1.9509507 -0.54728544 -0.17727478 5
1.9979353 -0.5608418 0.40337023 13
1.9843702 -0.55740762 -0.10802142 6
2.0073588 -0.56424308 0.48139524 14
1.9692707 -0.55390793 -0.035707623 7
1.9568535 -0.55373377 0.035498194 8
1.9888651 -0.56354201 0.10833544 9
1.9647496 -0.55707937 0.17866927 10
1.9821848 -0.56277043 0.2530008 11
1.9668105 -0.55877644 -0.25105089 4
1.9760879 -0.56178492 0.32538372 12
1.9566944 -0.55627149 -0.17797202 5
1.9959655 -0.56781256 0.40337023 13
1.9747285 -0.56214356 -0.10760273 6
1.9711716 -0.56187499 -0.035777435 7
1.9625976 -0.56276578 0.035637815 8
1.9753675 -0.5671739 0.10770741 9
1.9685376 -0.56558466 0.1791922 10
1.9687622 -0.5663932 0.25153834 11
1.9553097 -0.56289268 -0.24983218 4
1.9817076 -0.57086658 0.32663518 12
1.9623988 -0.56530434 -0.17866927 5
1.9958575 -0.57532007 0.40375188 13
1.9650781 -0.56681913 -0.10718405 6
1.9845673 -0.57319111 -0.036056671 7
1.9721431 -0.57296044 0.035847243 8
1.9714581 -0.57350773 0.10760273 9
1.9799426 -0.57635081 0.1804124 10
1.9743961 -0.57548398 0.25251329 11
1.9645329 -0.57335317 0.32413223 12
1.9680638 -0.57438374 -0.17936651 5
1.9976063 -0.5833841 0.40451509 13
1.9707558 -0.57591599 -0.10760273 6
1.9710394 -0.57674569 -0.035847243 7
1.9720492 -0.58040565 0.035882145 8
1.9790229 -0.58320886 0.10812609 9
1.9740963 -0.58213151 0.18006375 10
1.9799905 -0.58462083 0.25348827 11
1.9625195 -0.58020717 0.32413223 12
1.9545832 -0.57786077 -0.17832063 5
2.003088 -0.59258127 0.40604156 13
1.9725639 -0.58392555 -0.10781208 6
1.9651798 -0.58248591 -0.035777435 7
1.9585131 -0.58385813 0.035672721 8
1.9694225 -0.5874846 0.10770741 9
1.964416 -0.58673799 0.17936651 10
1.9760358 -0.59096009 0.25324452 11
1.9719394 -0.59010988 0.32600945 12
1.9487368 -0.58353704 -0.17797202 5
1.9897236 -0.59618872 0.40375188 13
1.9858186 -0.5953964 -0.10864946 6
1.9708985 -0.59129781 -0.035917051 7
1.9469941 -0.58746135 0.035498194 8
1.9711837 -0.59551078 0.10791675 9
1.958542 -0.5924378 0.1790179 10
1.9740653 -0.59750956 0.25324452 11
1.9717581 -0.59756255 0.32632235 12
1.9543147 -0.59264863 -0.17866927 5
1.9877356 -0.60278356 0.40375188 13
1.9551649 -0.59327906 -0.10707937 6
1.9649959 -0.59701139 -0.035847243 7
1.9544935 -0.59717566 0.035672721 8
1.9634681 -0.60029238 0.10760273 9
1.9718077 -0.60359484 0.1804124 10
1.9624779 -0.60148811 0.25202581 11
1.9810969 -0.60757303 0.32819954 12
1.956148 -0.60029507 -0.1790179 5
1.989373 -0.61087096 0.40451509 13
1.9530821 -0.60010028 -0.10707937 6
1.9744736 -0.60705018 -0.036056671 7
1.9563235 -0.60483503 0.035742529 8
1.953729 -0.60478014 0.10718405 9
1.9734949 -0.61165369 0.18076101 10
1.9661605 -0.60975659 0.25275704 11
1.9733044 -0.61272728 0.32726091 12
1.9597486 -0.60889316 -0.17954083 5
1.9910859 -0.61862963 0.40527833 13
1.9510813 -0.60657364 -0.10707937 6
1.9608867 -0.61037278 -0.035847243 7
1.961834 -0.61404943 0.035882145 8
1.9554178 -0.6127907 0.10739339 9
1.9638512 -0.6158101 0.18006375 10
1.9697019 -0.61839998 0.25348827 11
1.9579623 -0.61546516 0.32507086 12
1.9539171 -0.61419362 -0.1791922 5
1.9945329 -0.62734324 0.40642318 13
1.9565728 -0.61577886 -0.10749806 6
1.9549298 -0.61601192 -0.035777435 7
1.9520534 -0.61847794 0.035742529 8
1.9646895 -0.62323624 0.10802142 9
1.9578915 -0.62145579 0.17971513 10
1.9750985 -0.62767661 0.2544632 11
1.9633317 -0.62469178 0.32632235 12
1.9688489 -0.6264472 -0.18076101 5
1.984848 -0.63191932 0.40489674 13
1.9658294 -0.62624222 -0.10812609 6
1.9603878 -0.62526262 -0.035917051 7
1.9422659 -0.62284553 0.035602912 8
1.9663053 -0.63131154 0.10823077 9
1.9576074 -0.62889588 0.17988946 10
1.9653367 -0.63213587 0.25348827 11
1.9743011 -0.6357798 0.32851243 12
1.9807613 -0.63824165 0.40451509 13
1.9484245 -0.62819743 -0.10728873 6
1.9619995 -0.6333304 -0.035986863 7
1.951492 -0.63332516 0.035812337 8
1.9621899 -0.63755417 0.10812609 9
1.9610846 -0.63757342 0.1804124 10
1.9612305 -0.6383779 0.25324452 11
1.9795823 -0.64511573 0.32976389 12
1.9822544 -0.64636928 0.40527833 13
1.9462197 -0.63499492 -0.10728873 6
1.9711819 -0.64390081 -0.036196291 7
1.9530691 -0.64138108 0.035882145 8
1.9504658 -0.64128047 0.10760273 9
1.9720951 -0.64877331 0.18163256 10
1.9665321 -0.64770412 0.25421947 11
1.9660623 -0.64831018 0.3278867 12
1.9893079 -0.65636033 0.40718642 13
1.9477843 -0.6430369 -0.10749806 6
1.9575303 -0.64701217 -0.035986863 7
1.9603066 -0.65134728 0.036056671 8
1.9595865 -0.65186763 0.10823077 9
1.9584759 -0.65187788 0.1805867 10
1.9717923 -0.65707493 0.25519443 11
1.9544182 -0.65204322 0.32632235 12
1.9944539 -0.66578698 0.40871289 13
1.9531053 -0.65236294 -0.10791675 6
1.9514668 -0.65257299 -0.035917051 7
1.9504392 -0.6556375 0.035917051 8
1.957414 -0.65836233 0.10823077 9
1.9543005 -0.6580745 0.1804124 10
1.9676054 -0.66331941 0.25495067 11
1.961604 -0.66167754 0.3278867 12
1.9790972 -0.66834784 0.40604156 13
1.9621693 -0.66301274 -0.10854478 6
1.9549754 -0.66096216 -0.036021769 7
1.9406813 -0.65952808 0.035777435 8
1.9571109 -0.66549265 0.10833544 9
1.9596517 -0.66711986 0.18110962 10
1.9635162 -0.66920036 0.25470695 11
1.9650077 -0.67009151 0.32882527 12
1.9599599 -0.66951585 -0.10854478 6
1.9698026 -0.673262 -0.036335908 7
1.9498307 -0.66985822 0.035986863 8
1.94911 -0.67037147 0.10802142 9
1.9574286 -0.67361462 0.18110962 10
1.9575326 -0.67441475 0.25421947 11
1.9701264 -0.67952293 0.33007675 12
1.9636606 -0.67882717 -0.0362661 7
1.9512581 -0.67797297 0.036056671 8
1.9467582 -0.67717111 0.10802142 9
1.9643544 -0.68406051 0.18198119 10
1.9589157 -0.68255001 0.25470695 11
1.962147 -0.68444407 0.32913816 12
1.949953 -0.68171787 -0.036056671 7
1.9506468 -0.68578333 0.036091577 8
1.9519188 -0.68661332 0.10844011 9
1.9525583 -0.68760431 0.18110962 10
1.9657615 -0.69302529 0.25592566 11
1.9522945 -0.68866062 0.3278867 12
1.9437909 -0.68718725 -0.035986863 7
1.9464775 -0.69157857 0.036056671 8
1.9496312 -0.69308239 0.10844011 9
1.9502673 -0.69407547 0.18110962 10
1.9653225 -0.70020634 0.25616938 11
1.9593036 -0.69844729 0.32945102 12
1.9565665 -0.69901156 -0.0362661 7
1.9422916 -0.69735402 0.036021769 8
1.9586002 -0.70359522 0.10906815 9
1.9460804 -0.69986475 0.18093532 10
1.9592543 -0.7053749 0.2556819 11
1.9588351 -0.70561022 0.32976389 12
1.9542377 -0.70549595 -0.0362661 7
1.941848 -0.70447278 0.036056671 8
1.9449917 -0.70599747 0.10844011 9
1.951239 -0.70903611 0.18163256 10
1.9457115 -0.70779651 0.25421947 11
1.9639093 -0.71480447 0.33101538 12
1.9631592 -0.716084 -0.036475532 7
1.9390044 -0.71226227 0.036056671 8
1.9421419 -0.71379948 0.10844011 9
1.9502469 -0.71755117 0.18180689 10
1.954031 -0.71971792 0.2556819 11
1.9554635 -0.72063315 0.33007675 12
1.9385067 -0.71938401 0.036091577 8
1.9433831 -0.72196561 0.10864946 9
1.9439954 -0.72296542 0.18145825 10
1.9590756 -0.72896296 0.25665686 11
1.949234 -0.72607565 0.32945102 12
1.9378562 -0.72684866 0.036126483 8
1.9578074 -0.73472166 0.10959151 9
1.937857 -0.7280066 0.18110962 10
1.9565192 -0.73579693 0.25665686 11
1.9505131 -0.73392683 0.33007675 12
1.9298253 -0.73114544 0.036021769 8
1.9589658 -0.74296778 0.10980085 9
1.9427547 -0.73759532 0.18180689 10
1.9540684 -0.74228096 0.25665686 11
1.9553249 -0.74353933 0.33132821 12
1.9328638 -0.74002224 0.036126483 8
1.9453007 -0.74517316 0.10917282 9
1.9421582 -0.74474698 0.18198119 10
1.9477588 -0.74767452 0.25616938 11
1.9510044 -0.74931115 0.33101538 12
1.9378598 -0.74931252 0.0362661 8
1.9426877 -0.75195903 0.10917282 9
1.9525515 -0.7565608 0.18320136 10
1.9434179 -0.75341195 0.25592566 11
1.9465355 -0.75540221 0.33070248 12
1.9370948 -0.75680006 0.036301006 8
1.943771 -0.76019061 0.10938216 9
1.9388998 -0.75867552 0.1821555 10
1.9481695 -0.76308703 0.25690058 11
1.9383696 -0.76002902 0.32976389 12
1.9503934 -0.77064067 0.10990552 9
1.9325337 -0.76397395 0.18180689 10
1.9510313 -0.7720741 0.25763181 11
1.9495461 -0.77818453 0.11001018 9
1.935406 -0.77293199 0.1823298 10
1.944638 -0.77740598 0.25714433 11
1.9394087 -0.78199738 0.10959151 9
1.9419346 -0.78341001 0.18320136 10
1.9382313 -0.7827028 0.25665686 11
1.9405044 -0.78993046 0.10980085 9
1.9447235 -0.7924394 0.1837243 10
1.9373252 -0.79021335 0.25690058 11
1.9414296 -0.79821825 0.11001018 9
1.9364182 -0.79694802 0.18320136 10
1.9438719 -0.80041248 0.25811929 11
1.9349425 -0.80345839 0.10980085 9
1.9319249 -0.80260074 0.18302706 10
1.946565 -0.80947971 0.25885051 11
1.9291115 -0.80933952 0.18302706 10
1.9382367 -0.81396365 0.25811929 11
1.9409512 -0.82228613 0.18442155 10
1.9317285 -0.81917435 0.25763181 11
1.938069 -0.82905638 0.18442155 10
1.9361567 -0.82903802 0.25860679 11
1.9278468 -0.83265626 0.1837243 10
1.9405395 -0.83894223 0.25958171 11
1.9159428 -0.83506441 0.18285275 10
1.9395664 -0.84616661 0.25982547 11
1.922282 -0.84542382 0.1837243 10
1.9349327 -0.85179389 0.25958171 11
1.9284242 -0.85617113 0.18459585 10
1.9265056 -0.85612446 0.25885051 11
1.9307504 -0.86609393 0.25982547 11
