# .PCD v0.7 - Point Cloud Data file format
VERSION 0.7
FIELDS x y z intensity
SIZE 4 4 4 4
TYPE F F F F
COUNT 1 1 1 1
WIDTH 501
HEIGHT 1
VIEWPOINT 0 0 0 1 0 0 0
POINTS 501
DATA ascii
2.778276 0.85736364 0.0507516 8
2.8065329 0.86072344 -0.051240265 7
2.7791905 0.8475644 0.050716694 8
2.7903819 0.84512436 -0.050891217 7
2.7859616 0.8390106 0.050786503 8
2.7875676 0.83365935 -0.050786503 7
2.7812066 0.82700008 0.050646886 8
2.7847068 0.82222557 -0.050681788 7
2.7764013 0.81503433 0.050507262 8
2.7914002 0.81361866 -0.0507516 7
2.7773092 0.80478072 0.05047236 8
2.7942231 0.80387044 -0.0507516 7
2.7877917 0.79728115 0.050611977 8
2.7814846 0.79022866 -0.05047236 7
2.7827225 0.78585881 0.05047236 8
2.7834506 0.78501409 0.15156494 9
2.7803755 0.77943438 -0.050402552 7
2.7777436 0.77399272 0.05033274 8
2.7937346 0.77792311 0.15198363 9
2.7867992 0.77127731 -0.05047236 7
2.7745109 0.76318526 0.050228026 8
2.8079884 0.7713412 0.15261166 9
2.7856159 0.76049215 -0.050402552 7
2.7792192 0.75353497 0.050262932 8
2.7952418 0.75735557 0.15177429 9
2.7959774 0.75284284 -0.050542168 7
2.7797709 0.74379832 0.050228026 8
2.7824318 0.74346966 0.1509369 9
2.7831266 0.73897225 -0.050262932 7
2.788151 0.7356202 0.05033274 8
2.7811477 0.7327342 0.15072757 9
2.7820406 0.72933602 -0.15072757 6
2.7798855 0.72773415 -0.050158214 7
2.7752192 0.72185671 0.0500535 8
2.7836885 0.72302097 0.15072757 9
2.7923045 0.72162002 -0.15114626 6
2.7843454 0.71852511 -0.050193124 7
2.7661004 0.70918459 0.049844075 8
2.7978041 0.71627373 0.15135561 9
2.7773874 0.70743108 -0.15020421 6
2.7907121 0.70978922 -0.050262932 7
2.7743754 0.7009936 0.049948789 8
2.7809219 0.70161653 0.15030889 9
2.7819917 0.70136869 0.25100854 10
2.7662797 0.69432759 -0.14947151 6
2.7931728 0.70004278 -0.050262932 7
2.7865074 0.69372237 0.050123312 8
2.7793567 0.69142568 0.15009953 9
2.7882898 0.69261599 0.25135714 10
2.7745028 0.68610752 -0.14978553 6
2.7877142 0.68885684 -0.050123312 7
2.7887926 0.68447739 0.050123312 8
2.7855139 0.68315727 0.15030889 9
2.7847657 0.68194336 0.25083423 10
2.7942269 0.68115962 -0.15072757 6
2.7783256 0.67676961 -0.049913883 7
2.7754979 0.67146444 0.049844075 8
2.7839985 0.67249244 0.15009953 9
2.7831383 0.67177063 0.2504856 10
2.794528 0.67142385 -0.15062289 6
2.78456 0.66800094 -0.049983691 7
2.7739344 0.66084445 0.049774267 8
2.7902155 0.66369408 0.15030889 9
2.7913973 0.66294581 0.25100854 10
2.7814212 0.65750045 -0.14978553 6
2.790767 0.65919548 -0.0500535 7
2.7802317 0.65158629 0.049844075 8
2.7847366 0.65212798 0.14989018 9
2.787874 0.65183777 0.2504856 10
2.783699 0.64778805 -0.14978553 6
2.7930512 0.64944917 -0.0500535 7
2.7843256 0.64281213 0.049878977 8
2.7753186 0.63971245 0.14926216 9
2.7940154 0.64299649 0.25083423 10
2.7819383 0.63766015 -0.14957617 6
2.7836053 0.63701969 -0.049844075 7
2.7826524 0.63220364 0.049809169 8
2.7891107 0.6331591 0.14989018 9
2.7805879 0.63020378 0.24943975 10
2.8035371 0.63437635 0.35293365 11
2.7841473 0.62794608 -0.14957617 6
2.7818007 0.62690675 -0.049774267 7
2.7769277 0.62122685 0.049669549 8
2.7835071 0.62167728 0.14947151 9
2.7788815 0.61962593 0.2490911 10
2.7940133 0.62044251 -0.14999487 6
2.7839723 0.61719185 -0.049774267 7
2.7751737 0.61066961 0.049599741 8
2.7973645 0.61452907 0.15009953 9
2.7887051 0.61211663 0.24978836 10
2.7903385 0.61145431 0.35073999 11
2.7883568 0.60898042 -0.14957617 6
2.7861097 0.60747081 -0.049774267 7
2.7792423 0.60140216 0.049634643 8
2.7877796 0.6022296 0.14947151 9
2.7948248 0.602732 0.25013697 10
2.7866347 0.60045534 0.35000879 11
2.7835579 0.59826756 -0.2490911 5
2.7788532 0.59624302 -0.14894815 6
2.7882133 0.59774101 -0.049774267 7
2.7872963 0.59245831 0.049739357 8
2.7821527 0.59035015 0.14905281 9
2.7891159 0.59131896 0.24943975 10
2.7868743 0.58982736 0.34976503 11
2.7836802 0.58813488 -0.2489168 5
2.7809176 0.58653867 -0.14894815 6
2.7786446 0.58504629 -0.049564835 7
2.7893474 0.58272582 0.049739357 8
2.7881072 0.58144981 0.14926216 9
2.7814105 0.57954812 0.24856818 10
2.7966902 0.58171201 0.35073999 11
2.7720604 0.57558095 -0.24769662 5
2.782948 0.57682848 -0.14894815 6
2.7806699 0.57534271 -0.049564835 7
2.7796113 0.57057226 0.049529929 8
2.79002 0.57220149 0.14926216 9
2.7834167 0.56983489 0.24856818 10
2.804538 0.5731405 0.35147122 11
2.7701483 0.56510389 -0.24734798 5
2.7966874 0.5695011 -0.14957617 6
2.7825625 0.56611907 -0.049564835 7
2.7756073 0.56016541 0.049425215 8
2.7920003 0.56245959 0.14926216 9
2.7853889 0.56011468 0.24856818 10
2.7947464 0.56149036 0.35000879 11
2.7721038 0.55543143 -0.24734798 5
2.7828929 0.55708808 -0.1487388 6
2.7884433 0.5571869 -0.049634643 7
2.785392 0.55202889 0.049564835 8
2.7861094 0.55115914 0.14884347 9
2.7911401 0.55164814 0.2489168 10
2.7830565 0.54904115 0.3483026 11
2.8045127 0.55225712 0.45272139 12
2.7778404 0.54700488 -0.24769662 5
2.7809012 0.54659939 -0.14852946 6
2.794296 0.54821926 -0.049704451 7
2.7794504 0.54077435 0.049425215 8
2.7801738 0.53990799 0.14842479 9
2.7969601 0.54266143 0.24926542 10
2.7947004 0.54121083 0.34952128 11
2.7850893 0.53834105 0.44927984 12
2.7797327 0.53730565 -0.24769662 5
2.7788699 0.53613281 -0.14832011 6
2.7804837 0.53543615 -0.049425215 7
2.787214 0.53219336 0.049529929 8
2.7859654 0.53094715 0.14863414 9
2.7910089 0.53140354 0.24856818 10
2.7965727 0.53145146 0.34952128 11
2.7908328 0.52935284 0.44990557 12
2.7659314 0.52462965 -0.24630213 5
2.7846494 0.52717173 -0.14852946 6
2.7823355 0.52572781 -0.049425215 7
2.7831578 0.52135694 0.049425215 8
2.7917283 0.52195376 0.14884347 9
2.7810955 0.51946354 0.24752231 10
2.8023138 0.52241457 0.35000879 11
2.7984898 0.52069104 0.4508442 12
2.7638283 0.51424181 -0.24595349 5
2.7943273 0.51890749 -0.14894815 6
2.7841537 0.51601303 -0.049425215 7
2.7751272 0.50983131 0.049250688 8
2.7934437 0.51269245 0.14884347 9
2.7848518 0.5101108 0.24769662 10
2.7943563 0.51084512 0.34879011 11
2.8040879 0.51211709 0.45146993 12
2.769527 0.50530565 -0.24630213 5
2.7804022 0.50628716 -0.14811078 6
2.7897849 0.50749266 -0.049495026 7
2.7748346 0.50027168 0.049215786 8
2.7873535 0.50152421 0.14842479 9
2.7905371 0.50109154 0.24804525 10
2.7901735 0.50052363 0.34805888 11
2.8039136 0.50197828 0.45115703 12
2.7751963 0.49633729 -0.24665076 5
2.7781334 0.49636224 -0.14790143 6
2.7994134 0.49915606 -0.049634643 7
2.7864099 0.49232286 0.049390312 8
2.7812197 0.49040344 0.1480061 9
2.7941453 0.49218118 0.24821955 10
2.7899485 0.49043658 0.34781513 11
2.8017573 0.49150571 0.4505313 12
2.7846763 0.48850924 -0.24734798 5
2.7798493 0.48666099 -0.14790143 6
2.7853804 0.48662731 -0.049355406 7
2.7900817 0.48293379 0.049425215 8
2.7868505 0.48137403 0.14821544 9
2.7899566 0.48140779 0.24769662 10
2.7955558 0.48137051 0.3483026 11
2.7781472 0.47737312 0.446464 12
2.7706556 0.47608587 -0.24595349 5
2.7854681 0.4776302 -0.14811078 6
2.7752354 0.47487983 -0.049145978 7
2.7799215 0.47118589 0.049215786 8
2.7885139 0.4716424 0.14821544 9
2.783762 0.4703376 0.24699937 10
2.8050492 0.47292864 0.34927759 11
2.7835989 0.46881121 -0.34659645 4
2.7836924 0.46832871 0.44708973 12
2.7644417 0.46508998 -0.24525626 5
2.82671 0.47505873 0.55716228 13
2.7910578 0.46856478 -0.14832011 6
2.784765 0.46651036 -0.049285594 7
2.7776034 0.46082664 0.049145978 8
2.7980251 0.4632099 0.14863414 9
2.7893178 0.46126965 0.24734798 10
2.791014 0.46054798 0.34732765 11
2.7852182 0.45909369 -0.34659645 4
2.7872596 0.45892915 0.44740263 12
2.773912 0.45673144 -0.24595349 5
2.8147907 0.46295771 0.55449098 13
2.7847929 0.45752606 -0.14790143 6
2.7863765 0.45678613 -0.049285594 7
2.7811689 0.45144778 0.04918088 8
2.7877955 0.45152476 0.1480061 9
2.7928779 0.45184779 0.24752231 10
2.7886851 0.45017067 0.3468402 11
2.7750449 0.44747183 -0.34513399 4
2.782994 0.44825393 0.446464 12
2.7715554 0.44641152 -0.24560487 5
2.8183279 0.45344189 0.55487263 13
2.7784851 0.44653413 -0.14748274 6
2.7958517 0.44832411 -0.049425215 7
2.7807529 0.44142401 0.049145978 8
2.7814641 0.44054034 0.14758742 9
2.7905023 0.44147402 0.24717368 10
2.7882788 0.44012332 0.34659645 11
2.7687466 0.43654636 -0.34415907 4
2.7825902 0.43823132 0.44615117 12
2.7849054 0.43859595 -0.24665076 5
2.8160145 0.44299033 0.55410933 13
2.7800272 0.43683192 -0.14748274 6
2.7894976 0.43732244 -0.049285594 7
2.7882049 0.43263379 0.049250688 8
2.7908044 0.43253836 0.1480061 9
2.7900574 0.43142542 0.24699937 10
2.7956836 0.43129629 0.34732765 11
2.7741776 0.42748284 -0.34464651 4
2.7762187 0.42779735 0.44489968 12
2.7667274 0.42584056 -0.24490763 5
2.8291864 0.43494844 0.55639905 13
2.7894313 0.42833835 -0.14790143 6
2.7790728 0.42625126 -0.049076166 7
2.7876475 0.42308593 0.049215786 8
2.7903225 0.4224956 0.14790143 9
2.7856364 0.42079014 0.24647643 10
2.7990615 0.42231983 0.3475714 11
2.7795057 0.41887316 -0.34513399 4
2.787462 0.41957334 0.446464 12
2.7642567 0.41558841 -0.24455902 5
2.8111989 0.4226459 0.55258286 13
2.7908366 0.41908646 -0.14790143 6
2.7765884 0.41595593 -0.049006358 7
2.7792168 0.41188613 0.049041264 8
2.7917082 0.41323945 0.14790143 9
2.7870164 0.41155091 0.24647643 10
2.7965908 0.41196737 0.3470839 11
2.7907708 0.41061243 -0.34635273 4
2.7907925 0.41061562 0.4467769 12
2.7735043 0.40757746 -0.24525626 5
2.8087723 0.41225943 0.55181968 13
2.7804255 0.40760311 -0.14727339 6
2.7819099 0.40732482 -0.049076166 7
2.7805672 0.40266818 0.049041264 8
2.7872036 0.40263599 0.14758742 9
2.7923799 0.40238881 0.24682505 10
2.7782929 0.3998639 0.34464651 11
2.7882981 0.40031058 0.44615117 12
2.7749102 0.3978942 -0.24525626 5
2.8178971 0.40405813 0.5533461 13
2.777808 0.39781362 -0.14706406 6
2.7991517 0.39987329 -0.049355406 7
2.7878962 0.39379805 0.049145978 8
2.7866139 0.39262629 0.14748274 9
2.7976451 0.39368126 0.24717368 10
2.7953982 0.39237145 0.34659645 11
2.7838097 0.38975272 0.44521254 12
2.7762146 0.38868934 -0.24525626 5
2.8270681 0.39530751 0.55487263 13
2.7791793 0.38811541 -0.14706406 6
2.7846856 0.3878935 -0.049076166 7
2.7852917 0.38351908 0.049076166 8
2.7899463 0.38316783 0.14758742 9
2.795054 0.38337234 0.24682505 10
2.7947843 0.3823415 0.34635273 11
2.7851532 0.38003361 0.44521254 12
2.7617617 0.37684184 -0.24386176 5
2.8245401 0.38490582 0.55410933 13
2.7884336 0.3794885 -0.14748274 6
2.7780967 0.37709549 -0.04893655 7
2.7866132 0.37379488 0.049076166 8
2.7972059 0.37422052 0.14790143 9
2.7845263 0.37203088 0.24577919 10
2.7980697 0.37284499 0.34659645 11
2.7864628 0.37030855 0.44521254 12
2.7630603 0.36719847 -0.24386176 5
2.8141894 0.37349352 0.55181968 13
2.7897408 0.36975464 -0.14748274 6
2.783361 0.36791915 -0.049006358 7
2.7779868 0.36277005 0.048901644 8
2.8024561 0.36497062 0.14811078 9
2.7877836 0.36256501 0.24595349 10
2.7993541 0.36307624 0.34659645 11
2.7955747 0.36159253 0.446464 12
2.7722292 0.3585729 -0.24455902 5
2.8154759 0.36366847 0.55181968 13
2.7791297 0.3584806 -0.14685471 6
2.788595 0.35871202 -0.049076166 7
2.7832038 0.35357553 0.048971456 8
2.7878616 0.3531771 0.14727339 9
2.7949624 0.35358244 0.24647643 10
2.7887876 0.35181096 0.34513399 11
2.7948599 0.35158736 0.44615117 12
2.76951 0.34839839 -0.24421038 5
2.8206244 0.35432705 0.55258286 13
2.7823458 0.34902531 -0.14695938 6
2.7918146 0.34922332 -0.049111072 7
2.7883904 0.3443476 0.049041264 8
2.789077 0.34344545 0.14727339 9
2.7922246 0.34333697 0.24612781 10
2.7939391 0.34255925 0.3456215 11
2.7862663 0.34063005 0.44458681 12
2.7746646 0.3392117 -0.24455902 5
2.8218436 0.34448102 0.55258286 13
2.779582 0.33882821 -0.14675003 6
2.7791209 0.33778623 -0.048866738 7
2.7955317 0.33532593 0.049145978 8
2.7942255 0.33418128 0.14748274 9
2.7934062 0.33358747 0.24612781 10
2.8030026 0.33374253 0.34659645 11
2.7737069 0.32927257 0.4423967 12
2.7718747 0.32905507 -0.24421038 5
2.823029 0.33462811 0.55258286 13
2.7926486 0.33053139 -0.14737807 6
2.7763112 0.32761648 -0.048796929 7
2.7867539 0.32441145 0.048971456 8
2.789423 0.32373407 0.14716873 9
2.7826784 0.32246044 0.24508193 10
2.8021786 0.32372764 0.34635273 11
2.7826891 0.32049185 0.44364822 12
2.8202791 0.32432255 0.55181968 13
2.7898166 0.32032612 -0.14716873 6
2.7814114 0.31837744 -0.048866738 7
2.7858822 0.31445685 0.04893655 8
2.7984204 0.31537613 0.14758742 9
2.7877471 0.31318927 0.24543057 10
2.7934277 0.31284016 0.34513399 11
2.7974784 0.31279948 0.44583827 12
2.8135891 0.31360659 0.55029315 13
2.7869477 0.31014466 -0.14695938 6
2.7864268 0.30959305 -0.04893655 7
2.7849216 0.30499831 0.048901644 8
2.7955332 0.30517435 0.14737807 9
2.796746 0.30431899 0.24612781 10
2.7924767 0.30335996 0.34489027 11
2.7985535 0.30303183 0.44583827 12
2.7800181 0.30004308 -0.1465407 6
2.8073726 0.30200413 -0.049285594 7
2.7959123 0.29632968 0.049076166 8
2.7885849 0.29506096 0.14695938 9
2.7957582 0.29483321 0.24595349 10
2.7895699 0.29319614 0.34440279 11
2.7877553 0.29251352 0.44396105 12
2.7889943 0.29116732 -0.14695938 6
2.8004029 0.29186431 -0.049145978 7
2.7988687 0.28726122 0.049111072 8
2.789598 0.28532442 0.14695938 9
2.7888422 0.28426352 0.24525626 10
2.808301 0.28575176 0.34659645 11
2.7887592 0.2827799 0.44396105 12
2.7899444 0.2819176 -0.14695938 6
2.7934461 0.28128514 -0.049006358 7
2.789953 0.27601579 0.04893655 8
2.7985756 0.27588251 0.14737807 9
2.7858517 0.27413729 0.24490763 10
2.8093293 0.2754575 0.34659645 11
2.7937093 0.27294147 0.44458681 12
2.7949347 0.27207637 -0.14716873 6
2.7944582 0.27104539 -0.049006358 7
2.780946 0.26532632 0.048762023 8
2.7995217 0.26611122 0.14737807 9
2.792742 0.26497635 0.24543057 10
2.7924874 0.26396739 0.34440279 11
2.7907114 0.26281676 0.44396105 12
2.7918904 0.26194602 -0.14695938 6
2.7993696 0.26166072 -0.049076166 7
2.7878292 0.25616556 0.048866738 8
2.7924776 0.25560981 0.14695938 9
2.7976184 0.25558802 0.24577919 10
2.7874608 0.25367901 0.34367159 11
2.7955468 0.25343108 0.44458681 12
2.7848313 0.25147966 -0.1465407 6
2.8122158 0.25296304 -0.049285594 7
2.7887063 0.24643327 0.048866738 8
2.7933528 0.24585994 0.14695938 9
2.8024631 0.24617025 0.24612781 10
2.7982171 0.24481173 0.34489027 11
2.7865744 0.24281441 0.44302243 12
2.7971435 0.24176666 -0.049006358 7
2.7975199 0.23737288 0.049006358 8
2.794194 0.23610973 0.14695938 9
2.791393 0.23538108 0.24508193 10
2.8030107 0.23537678 0.34537774 11
2.7854366 0.23292063 0.44270959 12
2.7860131 0.23101181 -0.048796929 7
2.7863729 0.22663288 0.048796929 8
2.7910197 0.22603156 0.14675003 9
2.7842541 0.22499323 0.24438471 10
2.8077724 0.22590865 0.34586522 11
2.7862327 0.2231968 0.44270959 12
2.7947764 0.22191781 -0.04893655 7
2.7871468 0.21690714 0.048796929 8
2.8136959 0.21798527 0.14790143 9
2.7969413 0.21619621 0.24543057 10
2.8006272 0.21549644 0.34489027 11
2.7968431 0.21422325 0.44427395 12
2.7915461 0.21185745 -0.048866738 7
2.7898812 0.20732431 0.048831832 8
2.7965133 0.20683569 0.14695938 9
2.7997017 0.20608899 0.24560487 10
2.7934432 0.20513815 0.34391531 11
2.7956033 0.20431574 0.44396105 12
2.7922685 0.20211245 -0.048866738 7
2.7986014 0.19766167 0.048971456 8
2.793268 0.19630516 0.14675003 9
2.8023918 0.19645488 0.24577919 10
2.7961566 0.19503702 0.34415907 11
2.7923923 0.19379374 0.44333532 12
2.7850106 0.1913293 -0.048727117 7
2.7992742 0.18789078 0.048971456 8
2.7899506 0.18628676 0.1465407 9
2.7951083 0.18614118 0.24508193 10
2.8047433 0.18579952 0.34513399 11
2.7851675 0.18352634 0.44208387 12
2.7776797 0.18108554 -0.048587501 7
2.7899346 0.17748415 0.048796929 8
2.7985258 0.1775403 0.14695938 9
2.7877877 0.17588209 0.24438471 10
2.8033938 0.17588298 0.34489027 11
2.7877321 0.17441328 0.4423967 12
2.8022153 0.17335431 -0.049006358 7
2.790508 0.16823064 0.048796929 8
2.8090966 0.16836861 0.14748274 9
2.7963398 0.16662312 0.24508193 10
2.7980168 0.16623299 0.34415907 11
2.7870853 0.15826277 0.048727117 8
2.797703 0.15788606 0.14685471 9
2.7968769 0.15734977 0.24508193 10
2.792634 0.15613323 0.34342784 11
2.7976046 0.14906564 0.048901644 8
2.7922537 0.14780182 0.1465407 9
2.8073831 0.14762002 0.24595349 10
2.7911797 0.14627954 0.34318411 11
2.8021271 0.13900837 0.048971456 8
2.8007319 0.13844916 0.14695938 9
2.7979312 0.13733041 0.24508193 10
2.8115244 0.13701525 0.3456215 11
2.7925849 0.12925236 0.048796929 8
2.8011756 0.1291614 0.14695938 9
2.7904103 0.12768765 0.24438471 10
2.8020482 0.12724012 0.34440279 11
2.7830083 0.11956382 0.048622403 8
2.8016095 0.11938194 0.14695938 9
2.7947993 0.11860445 0.24473332 10
2.7965045 0.11769763 0.34367159 11
2.7834089 0.10984784 0.048622403 8
2.7980175 0.10944624 0.14675003 9
2.80316 0.10915742 0.24543057 10
2.8028493 0.10816554 0.34440279 11
2.7937677 0.10048994 0.048796929 8
2.7983825 0.09967792 0.14675003 9
2.803524 0.09937115 0.24543057 10
2.8012257 0.098310731 0.34415907 11
2.802706 0.090036638 0.14695938 9
2.8018777 0.089032397 0.24525626 10
2.8075044 0.088719383 0.34489027 11
2.8030031 0.080254756 0.14695938 9
2.7902219 0.07891278 0.24421038 10
2.8058262 0.078373961 0.34464651 11
2.8072593 0.070569597 0.14716873 9
2.7964559 0.069321312 0.24473332 10
2.7981327 0.068874247 0.34367159 11
2.7994909 0.061084941 0.14675003 9
2.8046381 0.06021785 0.24543057 10
2.8003407 0.059149027 0.34391531 11
2.7956934 0.051239911 0.1465407 9
2.8088152 0.050499689 0.24577919 10
2.7945671 0.049755652 0.34318411 11
2.8038504 0.041109242 0.14695938 9
2.7930372 0.040464483 0.24438471 10
2.807971 0.031366937 0.14716873 9
2.7911744 0.030204942 0.24421038 10
2.8200467 0.021656375 0.14779675 9
2.7972398 0.020506147 0.24473332 10
2.8092484 0.010786991 0.24577919 10
2.809269 0.00147035 0.24577919 10
2.7953103 -0.0082938774 0.24455902 10
2.793272 -0.018038414 0.24438471 10
2.8051457 -0.027907567 0.24543057 10
2.8090155 -0.037752733 0.24577919 10
2.8108585 -0.047591522 0.24595349 10
2.7847798 -0.056874089 0.24368747 10
