# .PCD v0.7 - Point Cloud Data file format
VERSION 0.7
FIELDS x y z intensity
SIZE 4 4 4 4
TYPE F F F F
COUNT 1 1 1 1
WIDTH 408
HEIGHT 1
VIEWPOINT 0 0 0 1 0 0 0
POINTS 408
DATA ascii
3.1115794 0.41793698 -0.054800555 7
3.1090536 0.40655512 -0.054730747 7
3.1223564 0.39721334 -0.054940179 7
3.1157851 0.38533223 -0.054800555 7
3.1091044 0.37404156 -0.054660939 7
3.098474 0.36179411 -0.054451507 7
3.0997179 0.35097688 -0.054451507 7
3.1121895 0.34743741 0.054660939 8
3.1048996 0.34059146 -0.054521319 7
3.1213357 0.33743209 0.054800555 8
3.1060698 0.32975045 -0.054521319 7
3.1264722 0.32695118 0.054870363 8
3.0992448 0.31809023 -0.054381698 7
3.1216259 0.31543329 0.054765653 8
3.0923765 0.30648017 -0.054242078 7
3.114747 0.30375764 0.054626033 8
3.0736501 0.29487681 -0.1618228 6
3.0934274 0.29568455 -0.054242078 7
3.1058338 0.29194674 0.054451507 8
3.0547729 0.28230721 -0.16077606 6
3.0904582 0.2845172 -0.05417227 7
3.1068337 0.28110421 0.054451507 8
3.0517607 0.27128929 -0.16056673 6
3.0914326 0.27372694 -0.05417227 7
3.1097884 0.27043006 0.054486416 8
3.1438999 0.27229232 0.16538164 9
3.0487094 0.26029438 -0.16035739 6
3.084399 0.26225862 -0.05403265 7
3.1127062 0.25974166 0.054521319 8
3.1348794 0.2604886 0.16485828 9
3.0535803 0.24997884 -0.16056673 6
3.0813098 0.2511647 -0.053962842 7
3.1056204 0.24823655 0.054381698 8
3.137717 0.25024945 0.16496295 9
3.0584166 0.23962952 -0.16077606 6
3.086113 0.24125619 -0.05403265 7
3.0964575 0.23717213 0.054207176 8
3.142554 0.23960109 0.16517229 9
3.0432615 0.22829007 -0.15993871 6
3.086936 0.23048429 -0.05403265 7
3.1052437 0.22694571 0.054346792 8
3.1354036 0.22804971 0.16475362 9
3.0320866 0.2168102 -0.15931067 6
3.0837328 0.21942279 -0.053962842 7
3.1080122 0.21624444 0.054381698 8
3.1262178 0.21641472 0.16423026 9
3.0407956 0.20676751 -0.15972935 6
3.0764992 0.20811653 -0.053823221 7
3.1027617 0.20499781 0.054276984 8
3.1269543 0.20550002 0.16423026 9
3.1392474 0.20575768 0.27523783 10
3.0414987 0.19615254 -0.15972935 6
3.0692246 0.19686493 -0.053683605 7
3.1014626 0.1940417 0.054242078 8
3.1356261 0.19507888 0.16464894 9
3.145946 0.19461863 0.27576074 10
3.0461845 0.18524529 -0.15993871 6
3.0738852 0.18639138 -0.053753413 7
3.0901756 0.18196687 0.05403265 8
3.1342943 0.18401593 0.16454425 9
3.1565514 0.1842171 0.27663234 10
3.0308607 0.17369743 -0.15910132 6
3.074517 0.17566103 -0.053753413 7
3.0907621 0.1717191 0.05403265 8
3.1289349 0.17274296 0.16423026 9
3.1531961 0.17297994 0.27628368 10
3.03142 0.16364494 -0.15910132 6
3.0791051 0.16514127 -0.053823221 7
3.0993307 0.16134429 0.05417227 8
3.107578 0.16068752 0.16307886 9
3.1557422 0.16262428 0.27645802 10
3.0279834 0.15286155 -0.15889199 6
3.0676796 0.15379207 -0.053613789 7
3.1038697 0.15071778 0.054242078 8
3.1200898 0.15041529 0.1637069 9
3.1443501 0.15103331 0.27541214 10
3.0284986 0.14229019 -0.15889199 6
3.0642025 0.14289726 -0.053543981 7
3.0883956 0.13916434 0.053962842 8
3.122591 0.1396116 0.16381156 9
3.1428678 0.13997008 0.27523783 10
2.9976599 0.13140498 -0.2625131 5
3.0329673 0.1318935 -0.15910132 6
3.064683 0.13219953 -0.053543981 7
3.0848665 0.12821609 0.05389303 8
3.1210637 0.12862928 0.1637069 9
3.1413467 0.12891604 0.27506351 10
3.1854227 0.12961113 0.39144436 11
3.0060635 0.12126081 -0.26321036 5
3.0254264 0.12098563 -0.15868263 6
3.0651255 0.12150162 -0.053543981 7
3.0852952 0.11744776 0.05389303 8
3.1095185 0.11728146 0.16307886 9
3.1437685 0.11802382 0.27523783 10
3.1640346 0.11767873 0.38876322 11
2.9925308 0.11025553 -0.26199016 5
3.0178468 0.11013203 -0.15826395 6
3.065531 0.11080077 -0.053543981 7
3.0816894 0.10653834 0.053823221 8
3.1119051 0.10649546 0.16318353 9
3.1501348 0.10725334 0.27576074 10
3.182282 0.10723583 0.39095688 11
3.0048454 0.10020661 -0.26303601 5
3.0182128 0.099597737 -0.15826395 6
3.0579047 0.099837579 -0.053404365 7
3.0900376 0.096028224 0.053962842 8
3.1102617 0.095571555 0.16307886 9
3.1345584 0.095769085 0.27436629 10
3.1707318 0.095768027 0.38949445 11
2.997211 0.089479946 -0.26233879 5
3.0265276 0.089296408 -0.15868263 6
3.0502393 0.088931881 -0.053264745 7
3.0783603 0.084911227 0.053753413 8
3.1145694 0.084822044 0.16328819 9
3.1249154 0.084558047 0.27349472 10
3.1710467 0.084698677 0.38949445 11
2.9855547 0.078701362 -0.2612929 5
3.0268209 0.078731947 -0.15868263 6
3.0465329 0.078180604 -0.053194933 7
3.0706413 0.073973231 0.053613789 8
3.1188397 0.074045114 0.16349754 9
3.1331587 0.073837958 0.27419198 10
3.1514773 0.073169053 0.38705707 11
2.9858112 0.068278559 -0.2612929 5
3.0190904 0.067986675 -0.15826395 6
3.0587826 0.067812316 -0.053404365 7
3.0768788 0.063378431 0.053718507 8
3.1031044 0.062833585 0.16266017 9
3.1294136 0.062819935 0.27384335 10
3.1517134 0.06216706 0.38705707 11
2.9939995 0.058010738 -0.26199016 5
3.0153155 0.057370879 -0.15805461 6
3.055002 0.057059262 -0.053334557 7
3.0830703 0.053277593 0.053823221 8
3.0993018 0.05247597 0.16245082 9
3.1335888 0.052509464 0.27419198 10
3.1499178 0.051683325 0.38681334 11
3.1819217 0.05109752 0.5040319 12
2.9941838 0.047560006 -0.26199016 5
3.0154891 0.047370579 -0.15805461 6
3.0471764 0.046804503 -0.053194933 7
3.0792384 0.04245938 0.053753413 8
3.1034601 0.041711405 0.16266017 9
3.1257915 0.04091882 0.27349472 10
3.1580186 0.040790964 0.3877883 11
3.1880064 0.040063847 0.50497049 12
2.9863625 0.037009932 -0.2612929 5
3.0116482 0.036270503 -0.15784526 6
3.0353241 0.036027282 -0.052985508 7
3.0713749 0.03109283 0.053613789 8
3.1075869 0.030374622 0.16286951 9
3.1199384 0.029950803 0.27297178 10
3.1621168 0.029250383 0.38827574 11
3.1802306 0.028309321 0.50371903 12
2.9824889 0.026549092 -0.26094431 5
3.0157509 0.025792465 -0.15805461 6
3.0474334 0.024998212 -0.053194933 7
3.0654659 0.020330938 0.053509079 8
3.1056767 0.019515041 0.16276483 9
3.1160393 0.019034831 0.27262318 10
3.1522744 0.018157357 0.38705707 11
3.1704333 0.017153786 0.50215465 12
2.9745939 0.016094187 -0.26024702 5
3.0038393 0.015203916 -0.15742657 6
3.055501 0.014400327 -0.053334557 7
3.0675175 0.0096387304 0.053543981 8
3.0937424 0.0086397938 0.16213681 9
3.1260486 0.008182954 0.27349472 10
3.1423931 0.0071303952 0.38583836 11
3.1744246 0.0060950564 0.50278044 12
2.9826016 0.0057267463 -0.26094431 5
3.0078683 0.0047239419 -0.15763591 6
3.0475335 0.0037239622 -0.053194933 7
3.071532 -0.001072167 0.053613789 8
3.0877619 -0.0021556646 0.1618228 9
3.1260581 -0.0027280007 0.27349472 10
3.146369 -0.0038440167 0.38632584 11
3.1665249 -0.0049739694 0.50152892 12
2.9826033 -0.0046850662 -0.26094431 5
3.0078666 -0.0057746964 -0.15763591 6
3.0355301 -0.0068874112 -0.052985508 7
3.0735092 -0.011801486 0.053648699 8
3.089735 -0.012403057 0.16192746 9
3.1160676 -0.013596497 0.27262318 10
3.1443515 -0.014817516 0.38608211 11
3.1605651 -0.015445557 0.50059032 12
2.9745994 -0.015055929 -0.26024702 5
3.0118225 -0.016295686 -0.15784526 6
3.0354905 -0.016953554 -0.052985508 7
3.0494576 -0.021821834 0.053229842 8
3.0956645 -0.023233136 0.16224147 9
3.0960779 -0.024317035 0.27088004 10
3.144285 -0.025244476 0.38608211 11
2.9676135 -0.024344018 -0.36438939 4
3.1624672 -0.026494443 0.50090319 12
2.9705441 -0.025405047 -0.25989842 5
3.0117519 -0.02628316 -0.15784526 6
3.039412 -0.027585583 -0.053055316 7
3.0413644 -0.032381136 0.053090218 8
3.0955644 -0.034038879 0.16224147 9
3.1059413 -0.034695141 0.27175158 10
3.1382229 -0.036151327 0.38535091 11
2.9655254 -0.034679558 -0.36414564 4
3.1663058 -0.037580241 0.50152892 12
2.9704435 -0.035255592 -0.25989842 5
3.0036535 -0.036698375 -0.15742657 6
3.0392971 -0.038194943 -0.053055316 7
3.0392334 -0.042969011 0.053055316 8
3.0834444 -0.044670615 0.16161345 9
3.1097858 -0.045595106 0.27210024 10
3.1301379 -0.046986368 0.38437593 11
2.9475224 -0.044759691 -0.36195198 4
3.1740561 -0.048753835 0.50278044 12
2.978271 -0.045746557 -0.26059568 5
2.9955192 -0.047057372 -0.15700789 6
3.0391452 -0.048803836 -0.053055316 7
3.0510612 -0.05378915 0.053264745 8
3.0832794 -0.054895438 0.16161345 9
3.1135917 -0.056522328 0.27244884 10
3.1319399 -0.057949025 0.38461968 11
2.9433787 -0.054974049 -0.3614645 4
3.1640019 -0.059094671 0.50121611 12
2.9741092 -0.056067277 -0.26024702 5
2.9953365 -0.057513405 -0.15700789 6
3.0269709 -0.058649309 -0.052845888 7
3.0628617 -0.064157799 0.053474173 8
3.0770788 -0.065530196 0.16129944 9
3.0954483 -0.067002408 0.27088004 10
3.1376841 -0.06846451 0.38535091 11
2.9531031 -0.064952597 -0.36268318 4
3.1460023 -0.069744706 0.49840027 12
2.9659278 -0.066270486 -0.2595498 5
3.0031164 -0.067625836 -0.15742657 6
3.0227492 -0.069123618 -0.05277608 7
3.0526235 -0.074604511 0.053299651 8
3.0868144 -0.076518267 0.1618228 9
3.0932174 -0.077217199 0.27070573 10
3.1453638 -0.079617582 0.38632584 11
3.1556134 -0.080979258 0.49996459 12
2.9656785 -0.076623105 -0.2595498 5
3.002862 -0.078108251 -0.15742657 6
3.0264876 -0.079779953 -0.052845888 7
3.0343544 -0.084757194 0.052985508 8
3.0825353 -0.087179869 0.16161345 9
3.0949051 -0.08861091 0.27088004 10
3.1311772 -0.090196356 0.38461968 11
3.1632094 -0.092224173 0.50121611 12
2.9614096 -0.08685796 -0.25920117 5
2.9985628 -0.088995263 -0.15721723 6
3.0301883 -0.090463221 -0.052915696 7
3.0360217 -0.095941238 0.05302041 8
3.0762067 -0.098286003 0.16129944 9
3.1085165 -0.099861398 0.27210024 10
3.1169369 -0.10122107 0.38291353 11
3.1589015 -0.1036877 0.50059032 12
2.9650712 -0.097325414 -0.2595498 5
2.9822645 -0.098931909 -0.15637985 6
3.0298362 -0.10156881 -0.052915696 7
3.0336702 -0.10646823 0.052985508 8
3.0718527 -0.10888186 0.16109009 9
3.0962021 -0.110286 0.27105436 10
3.1185484 -0.11217196 0.38315722 11
3.1525984 -0.1144986 0.49965176 12
2.9607313 -0.10753021 -0.25920117 5
2.9898846 -0.10963409 -0.15679854 6
3.0174737 -0.11170045 -0.052706268 7
3.0552602 -0.1179053 0.053369459 8
3.069458 -0.11952625 0.16098543 9
3.0938075 -0.12101523 0.27088004 10
3.1300392 -0.12352672 0.38461968 11
3.1383626 -0.12495241 0.49746165 12
2.956356 -0.1177059 -0.25885254 5
2.9934752 -0.12023038 -0.15700789 6
3.0130692 -0.12207082 -0.052636456 7
3.0428426 -0.12806489 0.05316003 8
3.077004 -0.13057865 0.1614041 9
3.0854037 -0.1314746 0.27018279 10
3.1256227 -0.13428144 0.38413221 11
3.1458015 -0.1362485 0.49871314 12
2.9499557 -0.12776618 -0.25832963 5
3.0010188 -0.1310273 -0.15742657 6
3.0206156 -0.13293934 -0.05277608 7
3.0363841 -0.13841243 0.053055316 8
3.0765295 -0.14131859 0.1614041 9
3.0889068 -0.1424274 0.27053142 10
3.1172028 -0.14482257 0.38315722 11
3.1512265 -0.14750564 0.49965176 12
2.9594429 -0.13852845 -0.25920117 5
2.9845827 -0.14074935 -0.1565892 6
3.020133 -0.14348246 -0.05277608 7
3.0358825 -0.14901055 0.053055316 8
3.0600588 -0.15126796 0.16056673 9
3.0883908 -0.15320884 0.27053142 10
3.1146958 -0.15560371 0.38291353 11
3.1428008 -0.15810756 0.49840027 12
2.9820786 -0.15106559 -0.15648453 6
3.0236082 -0.15422754 -0.052845888 7
3.0433314 -0.16002686 0.053194933 8
3.0555232 -0.16173749 0.16035739 9
3.0918162 -0.16419972 0.27088004 10
3.1161158 -0.16658103 0.38315722 11
2.9875159 -0.16179806 -0.15679854 6
3.0150647 -0.16434562 -0.052706268 7
3.0447512 -0.17076109 0.053229842 8
3.0589283 -0.17262734 0.16056673 9
3.0892351 -0.17487857 0.27070573 10
3.1174972 -0.17757018 0.38340098 11
2.990921 -0.17245542 -0.15700789 6
3.0024943 -0.17417431 -0.052496839 7
3.0341556 -0.18079348 0.053055316 8
3.0642881 -0.18366241 0.16088074 9
3.0766728 -0.18494363 0.26965985 10
3.1208212 -0.18869081 0.38388845 11
2.9863136 -0.18265076 -0.15679854 6
3.0098519 -0.18514501 -0.052636456 7
3.0215316 -0.19062811 0.052845888 8
3.0676148 -0.19461057 0.16109009 9
3.0839622 -0.19618808 0.2703571 10
3.1082575 -0.19882303 0.38242605 11
2.9816716 -0.19281603 -0.1565892 6
3.0131783 -0.19590972 -0.052706268 7
3.0268335 -0.20157269 0.052950602 8
3.0589457 -0.20478374 0.1606714 9
3.0832586 -0.20695192 0.2703571 10
3.1035831 -0.20940439 0.38193855 11
2.9730101 -0.20267949 -0.15617052 6
3.0204561 -0.20697328 -0.052845888 7
3.0181324 -0.21157771 0.052810986 8
3.0542276 -0.21517947 0.16046207 9
3.0845048 -0.21785362 0.27053142 10
3.1087737 -0.22065829 0.38266978 11
2.9862294 -0.21405558 -0.15690321 6
2.9997699 -0.21607871 -0.052496839 7
3.0253527 -0.2226989 0.052950602 8
3.0475216 -0.22486556 0.16014804 9
3.0797517 -0.22832458 0.27018279 10
3.1079848 -0.23150858 0.38266978 11
2.999037 -0.22602512 -0.052496839 7
3.0126345 -0.23180962 0.05274117 8
3.0606575 -0.23657949 0.16088074 9
3.0690038 -0.23830234 0.26931125 10
3.1032417 -0.24150573 0.3821823 11
3.0022163 -0.2368068 -0.052566648 7
3.0078206 -0.24200352 0.052671362 8
3.059813 -0.24726172 0.16088074 9
3.0701828 -0.24863906 0.26948556 10
3.0984225 -0.25201476 0.38169482 11
3.0013716 -0.24728505 -0.052566648 7
3.0109429 -0.25283593 0.05274117 8
3.0449998 -0.2567662 0.16014804 9
3.0692961 -0.25935447 0.26948556 10
3.0935681 -0.26249304 0.38120735 11
3.0044749 -0.2581026 -0.052636456 7
3.0100422 -0.26334453 0.05274117 8
3.0441315 -0.26686236 0.16014804 9
3.0723414 -0.27041608 0.26983419 10
3.0946102 -0.27346474 0.38145107 11
2.9956355 -0.26735333 -0.052496839 7
3.0270758 -0.27495277 0.053055316 8
3.0411925 -0.27730539 0.16004337 9
3.0713787 -0.28113896 0.26983419 10
3.0976398 -0.28408793 0.38193855 11
2.998666 -0.27817783 -0.052566648 7
3.0161433 -0.28457838 0.052880794 8
3.0521362 -0.2890493 0.1606714 9
3.0624957 -0.29056966 0.26913694 10
3.0986056 -0.29508719 0.3821823 11
2.9972198 -0.29335183 0.052566648 8
3.0590594 -0.30048242 0.16109009 9
3.0634456 -0.30145314 0.26931125 10
3.0936058 -0.30551136 0.38169482 11
3.0041356 -0.30461925 0.052706268 8
3.0381219 -0.3091369 0.16004337 9
3.0663388 -0.31254876 0.26965985 10
3.0846212 -0.31550023 0.38071984 11
3.0050426 -0.31531245 0.05274117 8
3.035038 -0.3195309 0.15993871 9
3.0671542 -0.32399464 0.26983419 10
3.0874496 -0.32668343 0.38120735 11
2.9998906 -0.32589239 0.052671362 8
3.0358319 -0.33086914 0.16004337 9
3.0620432 -0.33426663 0.26948556 10
3.0882044 -0.33821341 0.38145107 11
2.998735 -0.336362 0.052671362 8
3.0386279 -0.34191081 0.16025271 9
3.0549183 -0.34428376 0.26896262 10
3.09095 -0.34943715 0.38193855 11
2.9836373 -0.34521863 0.052427031 8
3.0493815 -0.3533648 0.16088074 9
3.0596352 -0.3556354 0.26948556 10
3.0342472 -0.36234918 0.16014804 9
3.0544183 -0.36583945 0.26913694 10
3.0289993 -0.37245098 0.15993871 9
3.0571434 -0.37645331 0.26948556 10
3.0316434 -0.38352323 0.16014804 9
3.0537665 -0.38740501 0.26931125 10
3.0342474 -0.39461845 0.16035739 9
3.0484445 -0.39754704 0.26896262 10
3.0348315 -0.40547204 0.16046207 9
3.0490127 -0.40845013 0.26913694 10
3.0215251 -0.4144347 0.15983403 9
3.0496154 -0.41882989 0.26931125 10
3.0579991 -0.43086234 0.27018279 10
3.0426733 -0.43954015 0.26896262 10
3.0371788 -0.44957492 0.26861399 10
3.0395308 -0.46077114 0.26896262 10
3.0437279 -0.47282597 0.26948556 10
3.0420587 -0.48344767 0.26948556 10
