# .PCD v0.7 - Point Cloud Data file format
VERSION 0.7
FIELDS x y z intensity
SIZE 4 4 4 4
TYPE F F F F
COUNT 1 1 1 1
WIDTH 1142
HEIGHT 1
VIEWPOINT 0 0 0 1 0 0 0
POINTS 1142
DATA ascii
1.85969 -0.4327634 -0.10006636 6
1.8504696 -0.43709147 -0.099647671 6
1.8392987 -0.44089758 -0.099124312 6
1.8260274 -0.44479984 -0.098496281 6
1.8283412 -0.45213005 -0.09870562 6
1.851765 -0.45860854 -0.033299193 7
1.8306262 -0.45948187 -0.098914966 6
1.8443348 -0.4636071 -0.033194479 7
1.832882 -0.46685511 -0.099124312 6
1.8330986 -0.46725094 -0.033019952 7
1.8158534 -0.4689354 -0.098286942 6
1.8430724 -0.47665095 -0.033229381 7
1.8103414 -0.47425875 -0.098077588 6
1.8414817 -0.48276019 -0.033229381 7
1.8126194 -0.48128459 -0.098286942 6
1.8281901 -0.4861021 -0.033019952 7
1.8147001 -0.4889642 -0.098496281 6
1.8263961 -0.49279949 -0.033019952 7
1.8275496 -0.49619171 0.033054858 8
1.816749 -0.49666545 -0.09870562 6
1.8285224 -0.50022715 -0.033089764 7
1.8083676 -0.49810743 0.032740716 8
1.8222754 -0.50433427 -0.16542161 5
1.8034561 -0.49980363 -0.098077588 6
1.8266768 -0.50692558 -0.033089764 7
1.8162479 -0.50710559 0.032915238 8
1.8013203 -0.50531071 -0.16367848 5
1.794009 -0.50393534 -0.097658902 6
1.8287462 -0.51438177 -0.033159573 7
1.8240876 -0.51616478 0.033089764 8
1.8110441 -0.51486439 -0.16472435 5
1.7999228 -0.51238185 -0.098077588 6
1.8097217 -0.5155127 -0.03284543 7
1.8300552 -0.52441424 0.033229381 8
1.7920051 -0.51621938 -0.16315554 5
1.7982137 -0.5183478 -0.098077588 6
1.8021472 -0.52016306 -0.032740716 7
1.8147708 -0.52689618 0.03298505 8
1.7807199 -0.51936972 -0.16228399 5
1.8002279 -0.52574134 -0.098286942 6
1.8080901 -0.52837998 -0.032880332 7
1.8015023 -0.52952772 0.032775622 8
1.7827176 -0.52671146 -0.16263261 5
1.7908133 -0.5294432 -0.097868249 6
1.8100696 -0.5358234 -0.032950144 7
1.8034761 -0.53695416 0.03284543 8
1.8240597 -0.5437758 0.099752344 9
1.784779 -0.5337621 -0.16298124 5
1.7813009 -0.53339946 -0.097449563 6
1.8120191 -0.5432871 -0.033019952 7
1.809249 -0.54555541 0.03298505 8
1.8106782 -0.54667598 0.099124312 9
1.7829049 -0.53998888 -0.16298124 5
1.7832508 -0.54077327 -0.097658902 6
1.7948041 -0.54496098 -0.032740716 7
1.8111585 -0.55303544 0.033054858 8
1.7992091 -0.55007339 0.098600946 9
1.7771994 -0.54504067 -0.16263261 5
1.7813523 -0.54699469 -0.097658902 6
1.7909796 -0.5506351 -0.03270581 7
1.7862915 -0.55226636 0.032636002 8
1.823989 -0.56461895 0.10006636 9
1.7714806 -0.55005932 -0.16228399 5
1.7832465 -0.55439532 -0.097868249 6
1.7928653 -0.55807209 -0.032775622 7
1.7919866 -0.56088763 0.032775622 8
1.8143836 -0.56859332 0.099647671 9
1.7695496 -0.5562396 -0.16228399 5
1.7698696 -0.55701905 -0.097240217 6
1.7909064 -0.564327 -0.032775622 7
1.7900177 -0.56713945 0.032775622 8
1.8047729 -0.57250768 0.099228986 9
1.7675973 -0.5624131 -0.16228399 5
1.7641083 -0.5619812 -0.097030871 6
1.7946408 -0.57239789 -0.032880332 7
1.7956438 -0.57582676 0.032915238 8
1.7913536 -0.57514066 0.098600946 9
1.7694162 -0.56980115 -0.16263261 5
1.7659378 -0.56936139 -0.097240217 6
1.7831169 -0.57558739 -0.03270581 7
1.7841125 -0.57900488 0.032740716 8
1.8007321 -0.58509332 0.099228986 9
1.8057137 -0.58706033 0.16611885 10
1.7761434 -0.57847518 -0.22935812 4
1.7598391 -0.57350475 -0.16193536 5
1.7658384 -0.57614177 -0.09734489 6
1.7772951 -0.58056635 -0.032636002 7
1.7801807 -0.58460516 0.03270581 8
1.8006794 -0.59168506 0.099333659 9
1.7941904 -0.5902468 0.16524729 10
1.754042 -0.57839638 -0.16158675 5
1.7676096 -0.58355445 -0.097554229 6
1.7734613 -0.58582956 -0.032601096 7
1.772539 -0.58861458 0.032601096 8
1.7949165 -0.59639341 0.099124312 9
1.7884419 -0.59493542 0.16489866 10
1.7722678 -0.59024227 -0.22935812 4
1.7483343 -0.5829494 -0.16123812 5
1.7580868 -0.58688307 -0.097135544 6
1.7809925 -0.59487498 -0.032775622 7
1.7743688 -0.59576237 0.032670904 8
1.7814648 -0.59883696 0.098496281 9
1.7902362 -0.60213321 0.16524729 10
1.7645531 -0.59452343 -0.22862691 4
1.7520555 -0.59065318 -0.16176106 5
1.7485614 -0.59015507 -0.096716851 6
1.7732217 -0.59916776 -0.032670904 7
1.7722784 -0.60195249 0.032670904 8
1.7680181 -0.6011939 0.097868249 9
1.7881235 -0.60837865 0.16524729 10
1.7380407 -0.59235436 -0.22545831 4
1.7631835 -0.60126698 -0.16298124 5
1.7540512 -0.59883636 -0.097135544 6
1.7692271 -0.60470706 -0.032636002 7
1.7777311 -0.61073399 0.032810524 8
1.7772409 -0.61125922 0.098496281 9
1.778453 -0.61202329 0.16455004 10
1.7509761 -0.60359317 -0.22740822 4
1.742134 -0.60122561 -0.16123812 5
1.7481745 -0.60365164 -0.096926205 6
1.7595457 -0.60826576 -0.032496382 7
1.7604769 -0.61168528 0.032531288 8
1.778869 -0.61877161 0.09870562 9
1.7724348 -0.61722708 0.16420141 10
1.7432352 -0.60774106 -0.226677 4
1.7325003 -0.60467696 -0.16054088 5
1.7648051 -0.61664313 -0.097972922 6
1.7649624 -0.61704379 -0.032636002 7
1.7525637 -0.61614376 0.03242657 8
1.7728213 -0.62396109 0.098496281 9
1.7702694 -0.62341028 0.16420141 10
1.8028841 -0.63560319 0.23472038 11
1.746612 -0.61610729 -0.22740822 4
1.7415444 -0.61500329 -0.16158675 5
1.7513429 -0.61880738 -0.09734489 6
1.7664595 -0.62484223 -0.03270581 7
1.7617074 -0.62627661 0.032636002 8
1.7631058 -0.62746704 0.098077588 9
1.7717264 -0.63123178 0.16455004 10
1.7763467 -0.63322729 0.23155177 11
1.7351021 -0.61886597 -0.22618952 4
1.7375107 -0.62040877 -0.16141243 5
1.7490631 -0.62522227 -0.09734489 6
1.7605019 -0.62965769 -0.032636002 7
1.7653773 -0.63383526 0.032740716 8
1.7573668 -0.63165176 0.097868249 9
1.7698457 -0.63648582 0.16455004 10
1.7312818 -0.62364113 -0.22594579 4
1.7412853 -0.62758797 -0.16193536 5
1.7472003 -0.63040906 -0.09734489 6
1.7547534 -0.63382661 -0.03256619 7
1.7631541 -0.63999367 0.032740716 8
1.7551513 -0.63778228 0.097868249 9
1.7601233 -0.63993675 0.1638528 10
1.7814347 -0.64838916 0.23277046 11
1.7365553 -0.63239771 -0.22692074 4
1.7315961 -0.630934 -0.16123812 5
1.7524943 -0.63924164 -0.097763576 6
1.7450167 -0.63720435 -0.03242657 7
1.7458911 -0.64063352 0.032461476 8
1.7566638 -0.64528233 0.098077588 9
1.7578788 -0.64607686 0.1638528 10
1.7810235 -0.65528905 0.2330142 11
1.7306114 -0.63708395 -0.22643325 4
1.7217941 -0.63452059 -0.16054088 5
1.7502524 -0.64535517 -0.097763576 6
1.7540377 -0.64744657 -0.032636002 7
1.7398944 -0.64533317 0.032391667 8
1.7618901 -0.65419114 0.098496281 9
1.7517637 -0.6511271 0.16350417 10
1.7768646 -0.66081005 0.23277046 11
1.7320981 -0.64450568 -0.22692074 4
1.7195687 -0.64052701 -0.16054088 5
1.7366468 -0.64757884 -0.097135544 6
1.7480199 -0.6521672 -0.03256619 7
1.746879 -0.65521711 0.03256619 8
1.7483764 -0.65612686 0.097868249 9
1.7569407 -0.66004062 0.16420141 10
1.7307298 -0.65053862 -0.29284537 3
1.7632827 -0.66312557 0.23130804 11
1.7222925 -0.64805341 -0.22594579 4
1.7229161 -0.64863133 -0.16106381 5
1.7343758 -0.65363687 -0.097135544 6
1.7569594 -0.6624983 -0.032775622 7
1.7428266 -0.66029799 0.032531288 8
1.7479428 -0.66293412 0.097972922 9
1.7564887 -0.66687661 0.16437572 10
1.7684968 -0.67178887 0.232283 11
1.7182784 -0.65305597 -0.22570205 4
1.7318146 -0.65889251 -0.16210969 5
1.7321987 -0.65938473 -0.097135544 6
1.7359499 -0.66150647 -0.03242657 7
1.7442461 -0.66780752 0.032601096 8
1.7475998 -0.66944128 0.098077588 9
1.7486868 -0.67055774 0.1638528 10
1.7299502 -0.66371924 -0.2934711 3
1.7698473 -0.67938077 0.23277046 11
1.7196946 -0.66047329 -0.22618952 4
1.7629113 -0.67707127 0.29910272 12
1.7221808 -0.66177315 -0.16141243 5
1.7410711 -0.66972953 -0.097763576 6
1.7300143 -0.66582298 -0.032356761 7
1.7326964 -0.66998202 0.03242657 8
1.756428 -0.67986321 0.09870562 9
1.7426198 -0.67521793 0.16350417 10
1.7037947 -0.66017425 -0.2894038 3
1.7657341 -0.68452859 0.23252673 11
1.724898 -0.66904378 -0.22716448 4
1.7623788 -0.68393558 0.29941559 12
1.7161456 -0.66633826 -0.16106381 5
1.7388407 -0.6754995 -0.097763576 6
1.7314068 -0.6733073 -0.03242657 7
1.7284845 -0.67529851 0.032391667 8
1.750324 -0.68453526 0.098496281 9
1.744082 -0.68244499 0.1638528 10
1.694122 -0.66323704 -0.28815234 3
1.7614855 -0.68996394 0.232283 11
1.7225521 -0.67506075 -0.22716448 4
1.7581415 -0.68936217 0.29910272 12
1.7139267 -0.67202562 -0.16106381 5
1.725317 -0.67718667 -0.097135544 6
1.736491 -0.68227202 -0.03256619 7
1.7298371 -0.6827963 0.032461476 8
1.7404939 -0.68770504 0.098077588 9
1.7453948 -0.68999374 0.16420141 10
1.6954705 -0.6705997 -0.28877807 3
1.7479913 -0.69172579 0.23082055 11
1.7109567 -0.67741567 -0.22594579 4
1.7612343 -0.69767749 0.30004135 12
1.715275 -0.67947173 -0.16141243 5
1.7155162 -0.68026012 -0.096716851 6
1.7415333 -0.69128036 -0.03270581 7
1.7311579 -0.69031179 0.032531288 8
1.7306629 -0.69081467 0.097658902 9
1.7429756 -0.69608217 0.16420141 10
1.696788 -0.67797977 -0.2894038 3
1.7510959 -0.7000339 0.23155177 11
1.7030522 -0.68117225 -0.22521456 4
1.7514522 -0.70088547 0.29878986 12
1.7165924 -0.68693554 -0.16176106 5
1.7168393 -0.68772972 -0.096926205 6
1.7279733 -0.69288987 -0.032496382 7
1.7324475 -0.69784468 0.032601096 8
1.728241 -0.69685155 0.097658902 9
1.7368399 -0.70067126 0.1638528 10
1.6980747 -0.6853773 -0.29002953 3
1.7504823 -0.70688534 0.2317955 11
1.7061858 -0.68934375 -0.22594579 4
1.7471637 -0.70625466 0.29847699 12
1.703101 -0.68844324 -0.16071519 5
1.7218341 -0.69671506 -0.09734489 6
1.7181306 -0.69591451 -0.032356761 7
1.7225921 -0.70087337 0.032461476 8
1.7333201 -0.70559096 0.098077588 9
1.7270031 -0.7037223 0.16315554 10
1.6920135 -0.68980908 -0.2894038 3
1.7516804 -0.71449083 0.232283 11
1.7019312 -0.69454521 -0.22570205 4
1.7484697 -0.71353722 0.29910272 12
1.6969982 -0.69287771 -0.16036656 5
1.7193917 -0.70272118 -0.09734489 6
1.7195152 -0.70312184 -0.03242657 7
1.7147092 -0.70430261 0.032356761 8
1.7382355 -0.71467501 0.098496281 9
1.7282209 -0.71126282 0.16350417 10
1.6787564 -0.69090527 -0.28752658 3
1.7437946 -0.71802825 0.23155177 11
1.701454 -0.70094138 -0.22594579 4
1.7477947 -0.72038901 0.29941559 12
1.6945695 -0.69879711 -0.16036656 5
1.7096666 -0.70537198 -0.096926205 6
1.7244434 -0.71217304 -0.03256619 7
1.7159343 -0.71181607 0.03242657 8
1.7209737 -0.71461076 0.097658902 9
1.7313727 -0.7192831 0.16402711 10
1.6799827 -0.69827741 -0.28815234 3
1.7339458 -0.72106194 0.23057681 11
1.6971642 -0.70611382 -0.22570205 4
1.7470931 -0.72724468 0.29972848 12
1.6996003 -0.70747536 -0.16106381 5
1.7670557 -0.73591614 0.37207755 13
1.7035067 -0.70979911 -0.096716851 6
1.721947 -0.71818817 -0.03256619 7
1.7152838 -0.71857417 0.032461476 8
1.7184688 -0.72061372 0.097658902 9
1.7270142 -0.72455162 0.1638528 10
1.6811777 -0.70566642 -0.28877807 3
1.7387394 -0.73018461 0.23155177 11
1.6873686 -0.70895791 -0.22472709 4
1.7390809 -0.73104227 0.29878986 12
1.7007939 -0.71494788 -0.16141243 5
1.7680956 -0.74360204 0.37284079 13
1.7083824 -0.71883959 -0.097135544 6
1.7120579 -0.72108978 -0.03242657 7
1.7219733 -0.72845274 0.032636002 8
1.7160697 -0.72630835 0.097658902 9
1.7208053 -0.72902107 0.16350417 10
1.6914356 -0.71692681 -0.29096815 3
1.739835 -0.73779947 0.23203924 11
1.6923186 -0.71764952 -0.22570205 4
1.7311918 -0.73449069 0.29785126 12
1.6872839 -0.71620947 -0.16036656 5
1.7727174 -0.75283909 0.37436727 13
1.7095393 -0.72636068 -0.09734489 6
1.7022961 -0.72363394 -0.032286953 7
1.7085135 -0.72944772 0.03242657 8
1.7209986 -0.73513335 0.098077588 9
1.7110505 -0.73159039 0.16280691 10
1.6690707 -0.7139858 -0.28752658 3
1.7410289 -0.74512714 0.23252673 11
1.6990544 -0.72716284 -0.22692074 4
1.7360101 -0.74333769 0.29910272 12
1.6812369 -0.72023165 -0.16001794 5
1.7575796 -0.75329953 0.37169594 13
1.7071211 -0.73202574 -0.09734489 6
1.7109133 -0.73400545 -0.032496382 7
1.7024124 -0.73352689 0.032356761 8
1.7147541 -0.73955441 0.097868249 9
1.6711373 -0.72074294 -0.35375988 2
1.7159325 -0.74041778 0.16350417 10
1.6666939 -0.71951669 -0.28752658 3
1.7312589 -0.74774802 0.23155177 11
1.6946834 -0.73230177 -0.226677 4
1.735218 -0.75017679 0.29941559 12
1.6861545 -0.72896546 -0.16071519 5
1.7442604 -0.75444746 0.36940622 13
1.6936862 -0.73292345 -0.096716851 6
1.7046708 -0.73838347 -0.03242657 7
1.7053427 -0.74185801 0.032461476 8
1.7121621 -0.74553549 0.097868249 9
1.6650112 -0.72500432 -0.35299668 2
1.7169907 -0.74799454 0.1638528 10
1.6641722 -0.72533011 -0.28752658 3
1.7213596 -0.75061285 0.23057681 11
1.6757416 -0.73106885 -0.22448336 4
1.7380201 -0.7586 0.30035421 12
1.6872516 -0.73644084 -0.16106381 5
1.7524114 -0.7652455 0.37169594 13
1.6911174 -0.7388311 -0.096716851 6
1.7057474 -0.7459318 -0.032496382 7
1.7045735 -0.74861032 0.032496382 8
1.6987091 -0.74638849 0.097240217 9
1.6516867 -0.72607148 -0.35070693 2
1.7180169 -0.75558758 0.16420141 10
1.6706705 -0.73511267 -0.28909093 3
1.7241796 -0.75901634 0.23130804 11
1.6749961 -0.73771393 -0.22472709 4
1.7264559 -0.76037818 0.29878986 12
1.6846707 -0.7423259 -0.16106381 5
1.7461367 -0.76977396 0.3709327 13
1.6885282 -0.74472964 -0.096716851 6
1.6996052 -0.7499696 -0.03242657 7
1.7112229 -0.7583096 0.032670904 8
1.7106991 -0.7587921 0.098077588 9
1.6473477 -0.73103613 -0.35032535 2
1.7080848 -0.75834608 0.16350417 10
1.67364 -0.7430535 -0.29002953 3
1.7234674 -0.76553559 0.23155177 11
1.6725407 -0.74326432 -0.22472709 4
1.7201811 -0.76479506 0.29816413 12
1.6747874 -0.74496299 -0.16036656 5
1.7579248 -0.78194338 0.37398565 13
1.6896988 -0.75194907 -0.096926205 6
1.7749219 -0.79024619 0.4485524 14
1.6933239 -0.75427049 -0.032356761 7
1.6976131 -0.75937909 0.032461476 8
1.7045275 -0.76282907 0.097868249 9
1.6556655 -0.74130863 -0.35261503 2
1.7019242 -0.76237714 0.16315554 10
1.6584176 -0.74323589 -0.28783944 3
1.7207845 -0.77154696 0.23155177 11
1.6808032 -0.75397289 -0.22618952 4
1.7212403 -0.77211213 0.29878986 12
1.665037 -0.74724972 -0.15966932 5
1.7444385 -0.78324991 0.37169594 13
1.6943513 -0.76111627 -0.09734489 6
1.7543778 -0.78844863 0.44405338 14
1.6908133 -0.75988162 -0.032356761 7
1.6914402 -0.76335913 0.032391667 8
1.7018545 -0.76877427 0.097868249 9
1.6512787 -0.74627501 -0.35223341 2
1.6992526 -0.76831335 0.16315554 10
1.6559439 -0.74873137 -0.28783944 3
1.710982 -0.77397645 0.23057681 11
1.6764852 -0.75872403 -0.22594579 4
1.7185346 -0.77811569 0.29878986 12
1.6769373 -0.75963402 -0.16106381 5
1.7346781 -0.78578997 0.37016946 13
1.680903 -0.76178402 -0.096716851 6
1.7464291 -0.79184788 0.44270366 14
1.6917925 -0.76743114 -0.03242657 7
1.6868114 -0.76872426 0.032356761 8
1.6917566 -0.7716912 0.097449563 9
1.6522361 -0.75366396 -0.35299668 2
1.6965604 -0.77424014 0.16315554 10
1.6531885 -0.75479561 -0.28783944 3
1.706328 -0.77941751 0.23033307 11
1.6736931 -0.76486361 -0.22594579 4
1.7228571 -0.78769469 0.30004135 12
1.6670275 -0.76216924 -0.16036656 5
1.7353574 -0.79377598 0.3709327 13
1.6780995 -0.76793975 -0.096716851 6
1.7435151 -0.79824358 0.44270366 14
1.6926047 -0.77529216 -0.032496382 7
1.6877512 -0.77627879 0.03242657 8
1.6926811 -0.7792623 0.097658902 9
1.6442453 -0.75696379 -0.35185182 2
1.7010862 -0.78349155 0.1638528 10
1.6541319 -0.7622152 -0.2884652 3
1.7053996 -0.78620005 0.23057681 11
1.6674079 -0.76903844 -0.22545831 4
1.7111291 -0.78956556 0.29847699 12
1.6715933 -0.77132267 -0.16106381 5
1.7361408 -0.80147433 0.37169594 13
1.6826617 -0.77714241 -0.097135544 6
1.733642 -0.80105501 0.44090405 14
1.6789973 -0.77616131 -0.032286953 7
1.6904726 -0.78469127 0.032531288 8
1.6899507 -0.78516614 0.097658902 9
1.6398125 -0.76187146 -0.3514702 2
1.6929206 -0.78690523 0.16332985 10
1.6586258 -0.77131635 -0.28971666 3
1.713444 -0.79717231 0.23203924 11
1.6593142 -0.77234101 -0.22472709 4
1.7047809 -0.79386592 0.29785126 12
1.661666 -0.77378857 -0.16036656 5
1.7297735 -0.80587161 0.3709327 13
1.6799387 -0.78301126 -0.097135544 6
1.7378998 -0.81039602 0.44270366 14
1.6835264 -0.78539896 -0.03242657 7
1.6804798 -0.78719425 0.032391667 8
1.6908164 -0.79275608 0.097868249 9
1.6335878 -0.76592392 -0.35070693 2
1.684752 -0.79027146 0.16280691 10
1.6505586 -0.77458382 -0.28877807 3
1.7142447 -0.80483592 0.23252673 11
1.6494211 -0.77475256 -0.22375213 4
1.7037872 -0.80065203 0.29816413 12
1.6589549 -0.77958417 -0.16036656 5
1.7269499 -0.81190473 0.3709327 13
1.6808101 -0.79057086 -0.09734489 6
1.7456402 -0.82143587 0.4454031 14
1.6735379 -0.78786391 -0.032286953 7
1.6704901 -0.78963703 0.032252047 8
1.6862334 -0.79779911 0.097763576 9
1.6397777 -0.77581972 -0.35261503 2
1.6855849 -0.7978524 0.16315554 10
1.6478448 -0.78034055 -0.28877807 3
1.6988671 -0.80486548 0.23082055 11
1.661057 -0.7873072 -0.22570205 4
1.7081215 -0.80997992 0.29941559 12
1.6562234 -0.78537023 -0.16036656 5
1.7276527 -0.81961089 0.37169594 13
1.6708226 -0.79300755 -0.096926205 6
1.7462828 -0.8291961 0.44630289 14
1.6816149 -0.79884911 -0.032496382 7
1.6749432 -0.79890698 0.032391667 8
1.6816359 -0.80281979 0.097658902 9
1.6441463 -0.78492212 -0.3541415 2
1.689981 -0.80716604 0.1638528 10
1.6415461 -0.78438449 -0.28815234 3
1.6960474 -0.81079066 0.23082055 11
1.6475536 -0.7879616 -0.2242396 4
1.7052838 -0.81593746 0.29941559 12
1.6642556 -0.79630643 -0.16141243 5
1.7212398 -0.82394123 0.3709327 13
1.6680443 -0.79883498 -0.096926205 6
1.7293183 -0.82855046 0.44270366 14
1.6824225 -0.80644286 -0.03256619 7
1.6721443 -0.80474871 0.032391667 8
1.6788232 -0.80868495 0.097658902 9
1.6290152 -0.78469253 -0.3514702 2
1.6871532 -0.81306028 0.1638528 10
1.6459156 -0.79354143 -0.2894038 3
1.6967828 -0.81843084 0.23130804 11
1.644793 -0.79370791 -0.2242396 4
1.6953096 -0.8184498 0.29816413 12
1.6650543 -0.80384338 -0.16176106 5
1.7324959 -0.83677524 0.37398565 13
1.6724392 -0.80812854 -0.09734489 6
1.7158887 -0.82949299 0.44000426 14
1.6687961 -0.80708688 -0.032356761 7
1.7546397 -0.84898174 0.52229685 15
1.6747216 -0.81320107 0.032496382 8
1.6723976 -0.81279415 0.097449563 9
1.6192031 -0.78694135 -0.34994373 2
1.6789293 -0.81633091 0.16332985 10
1.6413592 -0.79841769 -0.28909093 3
1.6957005 -0.82521743 0.23155177 11
1.6455822 -0.80118239 -0.22472709 4
1.6906664 -0.82349759 0.29785126 12
1.651491 -0.80441582 -0.16071519 5
1.7260346 -0.84109765 0.37322241 13
1.669608 -0.81396157 -0.09734489 6
1.7199888 -0.83889461 0.44180387 14
1.6659687 -0.81290722 -0.032356761 7
1.727361 -0.84323663 0.51504993 15
1.6664854 -0.81640273 0.032391667 8
1.669693 -0.81833553 0.097449563 9
1.6270229 -0.79777461 -0.35223341 2
1.6724921 -0.82043159 0.16298124 10
1.6296955 -0.79979086 -0.28752658 3
1.6999373 -0.83463097 0.23252673 11
1.6463389 -0.80867207 -0.22521456 4
1.6950183 -0.83258307 0.29910272 12
1.6486731 -0.81017572 -0.16071519 5
1.7125171 -0.84192055 0.3709327 13
1.6667566 -0.81978458 -0.09734489 6
1.7310383 -0.85177642 0.4454031 14
1.6668522 -0.82019293 -0.03242657 7
1.7314881 -0.85237312 0.51712048 15
1.6583905 -0.81926751 0.032286953 8
1.6299689 -0.80558074 -0.41975865 1
1.6847299 -0.83301127 0.098496281 9
1.6207088 -0.80170816 -0.3514702 2
1.6731894 -0.82803208 0.16332985 10
1.6305753 -0.80694312 -0.28815234 3
1.6918232 -0.83762121 0.2317955 11
1.6436483 -0.81412703 -0.22521456 4
1.6921018 -0.83849466 0.29910272 12
1.649405 -0.81769556 -0.16106381 5
1.7061979 -0.84585077 0.37016946 13
1.6604502 -0.82353228 -0.097135544 6
1.7299497 -0.85837823 0.44585299 14
1.6675614 -0.82778466 -0.032496382 7
1.7285022 -0.85841203 0.51712048 15
1.6608899 -0.82772714 0.032391667 8
1.6114509 -0.8034398 -0.41570953 1
1.6639394 -0.82997221 0.097449563 9
1.6233118 -0.80970716 -0.35261503 2
1.6793481 -0.83802408 0.16420141 10
1.6259812 -0.81174749 -0.28783944 3
1.6782336 -0.83819973 0.23033307 11
1.6354692 -0.81719762 -0.22448336 4
1.6962323 -0.84792918 0.30035421 12
1.6466844 -0.82316071 -0.16106381 5
1.7067468 -0.85355765 0.3709327 13
1.6468484 -0.82396138 -0.096507512 6
1.7164873 -0.85917813 0.44315359 14
1.6700258 -0.8362866 -0.032601096 7
1.7289497 -0.86617088 0.51815575 15
1.6615636 -0.83531612 0.032461476 8
1.6103777 -0.80993557 -0.41615945 1
1.6538954 -0.83218443 0.097030871 9
1.6152142 -0.81272131 -0.3514702 2
1.6728535 -0.84208935 0.1638528 10
1.6301949 -0.82097232 -0.28909093 3
1.678843 -0.84583914 0.23082055 11
1.6326067 -0.82290155 -0.22448336 4
1.6809154 -0.84761906 0.29816413 12
1.6473589 -0.83069789 -0.16141243 5
1.7037569 -0.85951006 0.3709327 13
1.6582267 -0.83690417 -0.09734489 6
1.7169567 -0.86692119 0.44405338 14
1.6563871 -0.83670127 -0.032391667 7
1.7362608 -0.87742883 0.52126157 15
1.6729056 -0.84834623 0.032740716 8
1.6110164 -0.81731528 -0.41705924 1
1.6581045 -0.84156835 0.097449563 9
1.6053648 -0.81480032 -0.34994373 2
1.6610212 -0.84341335 0.16298124 10
1.6308415 -0.82844716 -0.28971666 3
1.6811894 -0.85439235 0.23155177 11
1.6385719 -0.8330937 -0.22570205 4
1.6761857 -0.85258579 0.29785126 12
1.6373459 -0.83283001 -0.16071519 5
1.7077453 -0.86901367 0.3724592 13
1.6517354 -0.84087503 -0.097135544 6
1.7139202 -0.87290919 0.44405338 14
1.6481112 -0.83975464 -0.032286953 7
1.7194183 -0.87646544 0.51712048 15
1.652131 -0.8450743 0.032391667 8
1.6116232 -0.82470918 -0.41795903 1
1.6622682 -0.85099167 0.097868249 9
1.609501 -0.82397777 -0.3514702 2
1.6616137 -0.85102272 0.16332985 10
1.6244237 -0.83233315 -0.28909093 3
1.6817298 -0.86206663 0.23203924 11
1.6338875 -0.83790249 -0.22545831 4
1.6784722 -0.86113667 0.29878986 12
1.6308832 -0.8367213 -0.16036656 5
1.6959683 -0.87048709 0.37055111 13
1.6487901 -0.84663558 -0.097135544 6
1.7143295 -0.88066739 0.44495317 14
1.6505055 -0.84824455 -0.032391667 7
1.7163484 -0.88246197 0.51712048 15
1.6420624 -0.84716868 0.032252047 8
1.6052712 -0.82854223 -0.41705924 1
1.6628368 -0.8586216 0.098077588 9
1.6031262 -0.82778949 -0.35070693 2
1.660403 -0.85773206 0.16350417 10
1.6162438 -0.83527762 -0.28815234 3
1.6698935 -0.86337328 0.23082055 11
1.6344792 -0.84542465 -0.22594579 4
1.6807191 -0.86971396 0.29972848 12
1.6350306 -0.84607178 -0.16106381 5
1.6946629 -0.87730438 0.3709327 13
1.6422777 -0.85054874 -0.096926205 6
1.7147056 -0.88843924 0.44585299 14
1.654636 -0.85768181 -0.032531288 7
1.7098275 -0.88666904 0.51608521 15
1.6497389 -0.85843378 0.032461476 8
1.5937265 -0.82964146 -0.41480973 1
1.6527437 -0.86073059 0.097658902 9
1.6106745 -0.83882141 -0.35299668 2
1.6591659 -0.8644433 0.16367848 10
1.6098149 -0.83908814 -0.28752658 3
1.6651096 -0.86827916 0.23057681 11
1.619198 -0.84469789 -0.2242396 4
1.6776731 -0.87557548 0.29972848 12
1.6356001 -0.85361761 -0.16141243 5
1.6881095 -0.88139719 0.37016946 13
1.635758 -0.85442674 -0.096716851 6
1.7046853 -0.89080912 0.44405338 14
1.6551763 -0.86530519 -0.032601096 7
1.7169932 -0.89800388 0.51919103 15
1.6502737 -0.86604565 0.032531288 8
1.5959971 -0.83791721 -0.41615945 1
1.6463437 -0.86434978 0.097449563 9
1.597308 -0.83896112 -0.35070693 2
1.6596658 -0.87208319 0.16402711 10
1.6138701 -0.84837902 -0.28877807 3
1.6638255 -0.87501019 0.23082055 11
1.6162395 -0.85034478 -0.2242396 4
1.6677676 -0.87745506 0.29847699 12
1.6396627 -0.86303377 -0.16210969 5
1.6954454 -0.89277279 0.3724592 13
1.6433682 -0.8657167 -0.09734489 6
1.6946696 -0.89311987 0.44225377 14
1.6452216 -0.86705995 -0.032461476 7
1.7208414 -0.90729672 0.52126157 15
1.6491601 -0.87244844 0.03256619 8
1.5966544 -0.84502822 -0.41705924 1
1.6433165 -0.87009132 0.097449563 9
1.5908999 -0.84269375 -0.34994373 2
1.6530906 -0.87600535 0.16367848 10
1.6145389 -0.85557604 -0.2894038 3
1.6696841 -0.88517183 0.23203924 11
1.6204257 -0.85942012 -0.22521456 4
1.6594597 -0.88049352 0.2975384 12
1.6208018 -0.86034471 -0.16054088 5
1.6959437 -0.90023106 0.37322241 13
1.6440163 -0.87303501 -0.097554229 6
1.6951405 -0.9005633 0.44315359 14
1.6386533 -0.87092054 -0.032391667 7
1.7040181 -0.90604258 0.51712048 15
1.6390474 -0.87443471 0.03242657 8
1.5988526 -0.85334921 -0.41840896 1
1.6508403 -0.88146663 0.098077588 9
1.5950241 -0.85166359 -0.3514702 2
1.6396322 -0.87584978 0.16263261 10
1.6080581 -0.85934448 -0.28877807 3
1.6735864 -0.89473838 0.2330142 11
1.6349205 -0.87443352 -0.22765194 4
1.663343 -0.89000863 0.29878986 12
1.6109129 -0.86195481 -0.15984364 5
1.6858675 -0.90243942 0.37169594 13
1.64448 -0.88065422 -0.097763576 6
1.6988575 -0.91015601 0.44495317 14
1.6356032 -0.87663525 -0.032391667 7
1.7008452 -0.9119851 0.51712048 15
1.6289412 -0.87636113 0.032286953 8
1.5872842 -0.85430717 -0.41615945 1
1.6477534 -0.88722372 0.098077588 9
1.5954988 -0.85908753 -0.35223341 2
1.638319 -0.88251287 0.16280691 10
1.5963539 -0.86026692 -0.28721371 3
1.6617165 -0.89586473 0.2317955 11
1.6213751 -0.8744812 -0.22618952 4
1.6671799 -0.89956141 0.30004135 12
1.606141 -0.86662656 -0.15966932 5
1.6827072 -0.9083187 0.37169594 13
1.6308516 -0.88069493 -0.097135544 6
1.7025282 -0.91978568 0.44675279 14
1.6325332 -0.88233918 -0.032391667 7
1.6976513 -0.91791666 0.51712048 15
1.6276299 -0.88299543 0.032321859 8
1.634115 -0.88725209 0.097449563 9
1.5959409 -0.86652529 -0.35299668 2
1.6439825 -0.89298123 0.16367848 10
1.6037552 -0.87149292 -0.28909093 3
1.651603 -0.8978672 0.23082055 11
1.6113372 -0.87634176 -0.22521456 4
1.6657648 -0.90631956 0.30035421 12
1.6153568 -0.87889326 -0.16088949 5
1.6760776 -0.91230977 0.3709327 13
1.6242594 -0.88447201 -0.096926205 6
1.6890396 -0.92012954 0.44405338 14
1.6434903 -0.895688 -0.032670904 7
1.7046136 -0.92938536 0.5202263 15
1.6333095 -0.89346999 0.032496382 8
1.6345117 -0.89486891 0.097658902 9
1.5860183 -0.86831957 -0.3514702 2
1.6478451 -0.90254271 0.16437572 10
1.6024358 -0.87803513 -0.2894038 3
1.6519402 -0.9055354 0.23130804 11
1.6065279 -0.88100654 -0.22497083 4
1.6556635 -0.90832812 0.29910272 12
1.6105323 -0.88356829 -0.16071519 5
1.6832092 -0.9238224 0.37322241 13
1.6211621 -0.89013636 -0.096926205 6
1.6789854 -0.9222669 0.44225377 14
1.6263336 -0.89371479 -0.032391667 7
1.7047449 -0.93719137 0.52126157 15
1.6354338 -0.90206325 0.032601096 8
1.6313781 -0.90056902 0.097658902 9
1.5795401 -0.87195289 -0.35070693 2
1.6411965 -0.90636289 0.16402711 10
1.6028192 -0.88553387 -0.29002953 3
1.652244 -0.91321677 0.2317955 11
1.6051799 -0.88756961 -0.22521456 4
1.6507543 -0.91314578 0.29878986 12
1.6022079 -0.88629138 -0.16019225 5
1.6799742 -0.92969221 0.37322241 13
1.6215398 -0.89772451 -0.097135544 6
1.6825747 -0.93189877 0.44405338 14
1.6267023 -0.90132475 -0.032461476 7
1.7082217 -0.94688267 0.52333212 15
1.6252847 -0.90387881 0.032461476 8
1.6282246 -0.90625805 0.097658902 9
1.5833486 -0.88128042 -0.35223341 2
1.6293191 -0.90723985 0.16315554 10
1.5928155 -0.88727808 -0.28877807 3
1.6577162 -0.92381018 0.2330142 11
1.6038059 -0.89413399 -0.22545831 4
1.6492819 -0.91986459 0.29910272 12
1.5991044 -0.89187878 -0.16019225 5
1.67329 -0.93363768 0.3724592 13
1.6323481 -0.91116714 -0.097972922 6
1.6861173 -0.94156682 0.44585299 14
1.6235464 -0.9069975 -0.032461476 7
1.6151427 -0.90563458 0.032321859 8
1.6389853 -0.91975558 0.098496281 9
1.5768385 -0.88488048 -0.3514702 2
1.6261424 -0.91292167 0.16315554 10
1.5897087 -0.8928327 -0.28877807 3
1.6389059 -0.92083979 0.23082055 11
1.6041359 -0.90167224 -0.22594579 4
1.6495047 -0.92755252 0.29972848 12
1.597718 -0.89843178 -0.16036656 5
1.6631764 -0.93562251 0.3709327 13
1.6187143 -0.91098225 -0.09734489 6
1.6896127 -0.951271 0.44765261 14
1.623855 -0.91462189 -0.032531288 7
1.6189349 -0.91520333 0.032461476 8
1.621858 -0.91760314 0.097658902 9
1.5839924 -0.8961798 -0.35375988 2
1.636817 -0.9264437 0.16455004 10
1.5779878 -0.89350975 -0.28721371 3
1.6391361 -0.9285118 0.23130804 11
1.5940706 -0.90335125 -0.22497083 4
1.6496936 -0.93525314 0.30035421 12
1.6032385 -0.90891653 -0.16123812 5
1.6633157 -0.94335943 0.37169594 13
1.6085758 -0.91268456 -0.096926205 6
1.6761132 -0.9513911 0.44495317 14
1.6206524 -0.92028469 -0.032531288 7
1.6174675 -0.921839 0.032496382 8
1.622115 -0.92523795 0.097868249 9
1.5791492 -0.90073073 -0.3533783 2
1.6353036 -0.93313897 0.16472435 10
1.5851523 -0.90488845 -0.28909093 3
1.6376086 -0.93521225 0.23155177 11
1.5909075 -0.90891016 -0.22497083 4
1.6429889 -0.93904549 0.29972848 12
1.6000561 -0.91450727 -0.16123812 5
1.6702386 -0.95500684 0.37398565 13
1.6157823 -0.92424405 -0.097554229 6
1.6693994 -0.95530033 0.44405338 14
1.6139593 -0.92394918 -0.032461476 7
1.6177076 -0.92947179 0.03256619 8
1.6188754 -0.93089461 0.097868249 9
1.6216743 -0.9328807 0.16367848 10
1.5888325 -0.91435724 -0.29034239 3
1.6412157 -0.9448846 0.23252673 11
1.5911655 -0.91643941 -0.22545831 4
1.6294315 -0.93885779 0.29785126 12
1.586496 -0.91411883 -0.16019225 5
1.6702967 -0.96279204 0.37474889 13
1.6160066 -0.93187398 -0.097763576 6
1.6626787 -0.95917422 0.44315359 14
1.6037965 -0.92557919 -0.032321859 7
1.6058012 -0.93010175 0.032391667 8
1.619072 -0.93854314 0.098077588 9
1.6201317 -0.93953526 0.1638528 10
1.5736705 -0.91295892 -0.28815234 3
1.6379074 -0.9506079 0.23252673 11
1.5913903 -0.92398155 -0.22594579 4
1.6363932 -0.9504928 0.29972848 12
1.5832955 -0.91965115 -0.16019225 5
1.6567409 -0.96269852 0.3724592 13
1.6161973 -0.93951678 -0.097972922 6
1.6761662 -0.97476876 0.44765261 14
1.6074697 -0.93519408 -0.032461476 7
1.5990912 -0.93368465 0.032321859 8
1.6226836 -0.94821978 0.098496281 9
1.6202822 -0.94719589 0.16420141 10
1.5670637 -0.91645193 -0.28752658 3
1.6277255 -0.95230973 0.23155177 11
1.6001477 -0.93655008 -0.22765194 4
1.6347702 -0.95719719 0.30004135 12
1.586953 -0.92919916 -0.16088949 5
1.6465943 -0.96450645 0.3709327 13
1.602569 -0.93909401 -0.09734489 6
1.6761158 -0.98258495 0.4485524 14
1.6110952 -0.94484586 -0.032601096 7
1.6061623 -0.94534689 0.032531288 8
1.6055965 -0.94576871 0.097658902 9
1.6221155 -0.95588052 0.16472435 10
1.5672585 -0.9239229 -0.28815234 3
1.6261014 -0.95899403 0.2317955 11
1.5883204 -0.93708628 -0.22643325 4
1.6399246 -0.9679181 0.30160567 12
1.5802683 -0.93270761 -0.16054088 5
1.6499797 -0.97424108 0.3724592 13
1.5992811 -0.94468236 -0.09734489 6
1.6626093 -0.98248124 0.44585299 14
1.61123 -0.95249927 -0.032670904 7
1.6028528 -0.95094758 0.032531288 8
1.6091548 -0.9554463 0.098077588 9
1.617056 -0.96051937 0.16455004 10
1.5759112 -0.93645161 -0.29034239 3
1.6193311 -0.9626357 0.23130804 11
1.5748025 -0.93653691 -0.22497083 4
1.6229547 -0.96555668 0.29910272 12
1.5872765 -0.94433028 -0.16158675 5
1.649943 -0.98200279 0.37322241 13
1.5959737 -0.95025903 -0.09734489 6
1.6491244 -0.98229527 0.44315359 14
1.5975884 -0.95197588 -0.032461476 7
1.6063884 -0.96064222 0.032670904 8
1.6059777 -0.96077704 0.098077588 9
1.6136934 -0.96615815 0.16455004 10
1.5743272 -0.94296199 -0.29065526 3
1.6227723 -0.97236365 0.232283 11
1.5783343 -0.94611073 -0.22594579 4
1.6180497 -0.9699176 0.29878986 12
1.5737183 -0.94371718 -0.16054088 5
1.6532393 -0.99179608 0.37474889 13
1.6063471 -0.96404636 -0.098182261 6
1.6557099 -0.99406451 0.44585299 14
1.5978515 -0.95932716 -0.032531288 7
1.5912042 -0.95873976 0.03242657 8
1.606035 -0.96844 0.098286942 9
1.6051935 -0.96869677 0.16402711 10
1.5745742 -0.95021874 -0.29128101 3
1.6229377 -0.9797914 0.23277046 11
1.5751883 -0.95133942 -0.22594579 4
1.6180357 -0.97760278 0.29941559 12
1.5670042 -0.94714338 -0.16019225 5
1.6398602 -0.9911797 0.3724592 13
1.596305 -0.9652341 -0.097763576 6
1.6624088 -1.0056013 0.4485524 14
1.5979148 -0.96696937 -0.032601096 7
1.5878478 -0.96428823 0.03242657 8
1.6028147 -0.97376049 0.098286942 9
1.6053772 -0.97608459 0.16437572 10
1.6144203 -0.98235494 0.23203924 11
1.5752491 -0.95889646 -0.22643325 4
1.6232218 -0.98809874 0.30097994 12
1.5706615 -0.95647967 -0.16088949 5
1.633037 -0.99485499 0.37169594 13
1.586104 -0.96664274 -0.09734489 6
1.6622163 -1.0134269 0.44945222 14
1.5946994 -0.97226298 -0.032601096 7
1.5863473 -0.97059214 0.032461476 8
1.5977024 -0.97830629 0.098182261 9
1.6053578 -0.98376447 0.16472435 10
1.607769 -0.98562807 0.23155177 11
1.5686762 -0.96203935 -0.22594579 4
1.6231302 -0.99582469 0.30160567 12
1.5707093 -0.96404094 -0.16123812 5
1.6364219 -1.0043727 0.37322241 13
1.5828899 -0.97189718 -0.09734489 6
1.6488835 -1.0128137 0.44675279 14
1.5981108 -0.98201114 -0.032740716 7
1.5897579 -0.980322 0.032601096 8
1.5925782 -0.9828285 0.098077588 9
1.6105634 -0.9943158 0.1655959 10
1.6076963 -0.99332118 0.23203924 11
1.5619315 -0.9654218 -0.22545831 4
1.6078832 -0.99421233 0.29941559 12
1.5741123 -0.9737103 -0.16193536 5
1.6362453 -1.0121443 0.37398565 13
1.5862811 -0.98162055 -0.097763576 6
1.6420242 -1.0165118 0.44585299 14
1.5878729 -0.98337227 -0.032601096 7
1.5982153 -0.99325401 0.03284543 8
1.5891377 -0.98838168 0.098077588 9
1.6001422 -0.99600077 0.16489866 10
1.6109595 -1.003124 0.2330142 11
1.5636066 -0.9740169 -0.22618952 4
1.6027266 -0.99877399 0.29910272 12
1.5605593 -0.97287494 -0.16088949 5
1.6391879 -1.0222903 0.37551212 13
1.570811 -0.9800275 -0.097030871 6
1.6382875 -1.0225233 0.44585299 14
1.5776453 -0.98467386 -0.032461476 7
1.5793133 -0.9895494 0.032531288 8
1.595657 -1.0005658 0.09870562 9
1.5932803 -0.99946272 0.16455004 10
1.6106347 -1.0111327 0.23350169 11
1.5633883 -0.98185283 -0.226677 4
1.604073 -1.0077943 0.30004135 12
1.560528 -0.98043615 -0.16123812 5
1.6289607 -1.023827 0.37398565 13
1.5741438 -0.98975718 -0.097449563 6
1.5875655 -0.9989695 -0.032740716 7
1.5724678 -0.99292088 0.032461476 8
1.5955316 -1.0082633 0.098914966 9
1.5897819 -1.0050182 0.16455004 10
1.6020626 -1.0135648 0.23277046 11
1.5700158 -0.99367362 -0.22813943 4
1.6055523 -1.0165576 0.30097994 12
1.5570961 -0.98587751 -0.16123812 5
1.6220598 -1.027406 0.37322241 13
1.5639309 -0.9909699 -0.097030871 6
1.5840687 -1.0045052 -0.032740716 7
1.5723665 -1.0005507 0.032531288 8
1.5852637 -1.0095353 0.098496281 9
1.5946656 -1.0159142 0.16542161 10
1.5951673 -1.0170165 0.232283 11
1.6036595 -1.0232184 0.30129281 12
1.5570045 -0.99345011 -0.16158675 5
1.6184635 -1.0330617 0.37322241 13
1.5604622 -0.99642277 -0.097030871 6
1.5872928 -1.0143355 -0.032880332 7
1.5856975 -1.0168276 0.032880332 8
1.5750065 -1.010748 0.098077588 9
1.5911098 -1.0214744 0.16542161 10
1.5949476 -1.0247245 0.23277046 11
1.5967548 -1.0266733 0.30066708 12
1.5602307 -1.0031892 -0.16228399 5
1.6280571 -1.0472015 0.37627536 13
1.5569745 -1.0018638 -0.097030871 6
1.5736551 -1.0133741 -0.032670904 7
1.5804591 -1.0212713 0.03284543 8
1.5783553 -1.0203025 0.098496281 9
1.5808431 -1.0226932 0.16472435 10
1.59636 -1.0335221 0.23350169 11
1.5867094 -1.0276673 0.29941559 12
1.5517032 -1.0053792 -0.16176106 5
1.6276867 -1.0550139 0.3770386 13
1.5668744 -1.0159856 -0.097868249 6
1.5702859 -1.0185869 -0.032670904 7
1.568684 -1.0210524 0.032670904 8
1.5781312 -1.027986 0.09870562 9
1.5722564 -1.024941 0.16420141 10
1.5979121 -1.0420634 0.23423289 11
1.5946922 -1.0407569 0.30160567 12
1.5365062 -1.003165 -0.16054088 5
1.611028 -1.0518192 0.37398565 13
1.5634967 -1.021176 -0.097868249 6
1.5667208 -1.024062 -0.032670904 7
1.5550776 -1.0199416 0.032461476 8
1.5845516 -1.0400641 0.099333659 9
1.5771762 -1.0356171 0.16507298 10
1.58597 -1.0421839 0.2330142 11
1.5910497 -1.0463171 0.30160567 12
1.542982 -1.0150925 -0.16158675 5
1.6073467 -1.0574365 0.37398565 13
1.5499125 -1.0200393 -0.097240217 6
1.5731566 -1.0361242 -0.032880332 7
1.5631857 -1.0330814 0.03270581 8
1.5675844 -1.0367748 0.098496281 9
1.5750313 -1.0424905 0.16524729 10
1.5757021 -1.0433298 0.23203924 11
1.5906808 -1.0540469 0.3022314 12
1.5460719 -1.0248756 -0.16228399 5
1.6100049 -1.0676606 0.37551212 13
1.5428345 -1.023505 -0.097030871 6
1.5695302 -1.0416093 -0.032880332 7
1.5577246 -1.0376952 0.032670904 8
1.5604503 -1.0402976 0.098286942 9
1.5763553 -1.0512984 0.16577022 10
1.5817741 -1.0557101 0.23350169 11
1.5851643 -1.0587727 0.30191854 12
1.5472749 -1.0338562 -0.16280691 5
1.609533 -1.0754555 0.37627536 13
1.5458944 -1.0333239 -0.097449563 6
1.5590535 -1.0429075 -0.032740716 7
1.564055 -1.049813 0.032880332 8
1.5634413 -1.0501927 0.09870562 9
1.5675311 -1.0537344 0.16524729 10
1.5780795 -1.0612251 0.23350169 11
1.57982 -1.0631967 0.30160567 12
1.5535733 -1.045927 -0.1638528 5
1.6120939 -1.0857342 0.37780184 13
1.5454094 -1.0412148 -0.097658902 6
1.5487708 -1.0438727 -0.032601096 7
1.552465 -1.049123 0.03270581 8
1.5601342 -1.0550994 0.09870562 9
1.5627476 -1.0572642 0.16507298 10
1.5780252 -1.0684034 0.23398916 11
1.5732014 -1.0659385 0.30097994 12
1.6056151 -1.0883098 0.3770386 13
1.5456195 -1.0480375 -0.097868249 6
1.5521026 -1.0532244 -0.032740716 7
1.5421816 -1.050034 0.03256619 8
1.5663449 -1.0672867 0.099333659 9
1.5621542 -1.06523 0.16542161 10
1.5710064 -1.0716679 0.23350169 11
1.5808913 -1.0792197 0.30317003 12
1.588647 -1.0853274 0.37398565 13
1.5318742 -1.0469337 -0.097240217 6
1.5550197 -1.0631504 -0.032880332 7
1.5465666 -1.0613368 0.032740716 8
1.555837 -1.0684978 0.098914966 9
1.5600685 -1.0718044 0.1655959 10
1.5621607 -1.0740447 0.23277046 11
1.5785526 -1.0861263 0.30348289 12
1.592935 -1.096432 0.37589374 13
1.5282103 -1.0522746 -0.097240217 6
1.5576991 -1.0733813 -0.033019952 7
1.5477871 -1.0701407 0.03284543 8
1.5520978 -1.073922 0.098914966 9
1.5645088 -1.0829133 0.16646746 10
1.5600338 -1.0806215 0.2330142 11
1.5682578 -1.0871284 0.3022314 12
1.595551 -1.1064606 0.37742022 13
1.531092 -1.0621563 -0.097658902 6
1.5473722 -1.0742506 -0.032880332 7
1.5456829 -1.0766799 0.032880332 8
1.5548935 -1.083902 0.099333659 9
1.5541821 -1.0838093 0.16577022 10
1.5660197 -1.0928768 0.23447664 11
1.5612143 -1.0903339 0.30160567 12
1.5371975 -1.0743593 -0.098286942 6
1.5403358 -1.0773531 -0.032810524 7
1.5320942 -1.0751765 0.032670904 8
1.5511005 -1.0893229 0.099333659 9
1.5487592 -1.0880824 0.1655959 10
1.5686908 -1.1029035 0.23545158 11
1.5573989 -1.095777 0.30160567 12
1.5465024 -1.0889175 -0.099124312 6
1.5431042 -1.0873307 -0.032950144 7
1.5299646 -1.0816724 0.03270581 8
1.5538104 -1.099345 0.099752344 9
1.5514568 -1.0980861 0.16629316 10
1.5567319 -1.1026354 0.23423289 11
1.5600109 -1.105776 0.30285716 12
1.5425606 -1.0950255 -0.033019952 7
1.5294371 -1.0893266 0.032775622 8
1.5369523 -1.0954881 0.098914966 9
1.5508587 -1.1058083 0.16664177 10
1.5480257 -1.1046038 0.23350169 11
1.5657868 -1.1181023 0.30473438 12
1.5387288 -1.1004034 -0.033019952 7
1.533749 -1.1004876 0.032950144 8
1.5365561 -1.1029079 0.099124312 9
1.5502256 -1.1135399 0.1669904 10
1.5489961 -1.1134765 0.23423289 11
1.5540518 -1.1175221 0.30317003 12
1.5318259 -1.1031628 -0.032950144 7
1.5398163 -1.1125945 0.033159573 8
1.5361276 -1.1103374 0.099333659 9
1.5432959 -1.1163392 0.16664177 10
1.5533353 -1.1244271 0.23545158 11
1.5439374 -1.1180351 0.30191854 12
1.5249215 -1.1058885 -0.032880332 7
1.5264165 -1.1106356 0.032950144 8
1.54193 -1.1227466 0.099961683 9
1.5331436 -1.1167583 0.16594453 10
1.5592228 -1.136588 0.23691402 11
1.5432172 -1.125746 0.3025443 12
1.5291256 -1.1171027 -0.033054858 7
1.5144663 -1.110046 0.032775622 8
1.5380015 -1.1281221 0.099961683 9
1.5356613 -1.1268181 0.16664177 10
1.5472456 -1.1361493 0.23569533 11
1.5472375 -1.1369746 0.30410865 12
1.5284381 -1.1248041 -0.033124667 7
1.5234519 -1.1248281 0.033054858 8
1.5244162 -1.1263626 0.099333659 9
1.5349233 -1.1345401 0.1669904 10
1.5352907 -1.1356406 0.23447664 11
1.5416715 -1.1411932 0.30379578 12
1.5195162 -1.130139 0.033054858 8
1.5204751 -1.1316768 0.099333659 9
1.5309535 -1.139891 0.1669904 10
1.5313172 -1.1409929 0.23447664 11
1.5329278 -1.1430254 0.30285716 12
1.5267646 -1.1438292 0.033299193 8
1.5213095 -1.1405716 0.099647671 9
1.5253713 -1.1440328 0.16681609 10
1.5368509 -1.153481 0.23593907 11
1.5289285 -1.1483693 0.30285716 12
1.5099932 -1.139515 0.033019952 8
1.5284758 -1.1543006 0.10038038 9
1.517989 -1.1472133 0.16646746 10
1.5423161 -1.1660213 0.2374015 11
1.5264859 -1.154891 0.30317003 12
1.5042148 -1.1438315 0.03298505 8
1.5276165 -1.1620473 0.10058971 9
1.5139753 -1.1525052 0.16646746 10
1.5253993 -1.1620429 0.23545158 11
1.5318722 -1.1673964 0.30504724 12
1.5035889 -1.1512446 0.033054858 8
1.5140386 -1.1600841 0.099961683 9
1.5194296 -1.1650568 0.16751333 10
1.5215375 -1.1670948 0.23545158 11
1.5340557 -1.1775478 0.3062987 12
1.5043117 -1.1601498 0.033159573 8
1.50998 -1.165362 0.099961683 9
1.5187118 -1.1725242 0.16786195 10
1.5237378 -1.1772536 0.23642655 11
1.4986734 -1.164167 0.033124667 8
1.5090564 -1.1730773 0.10017103 9
1.5130371 -1.1765953 0.16768765 10
1.5227524 -1.1850036 0.23691402 11
1.5080976 -1.1808003 0.10038038 9
1.5042152 -1.178184 0.16716471 10
1.524856 -1.1952102 0.23788899 11
1.5039667 -1.1860574 0.10038038 9
1.504786 -1.1871296 0.16768765 10
1.5160004 -1.1968354 0.23715776 11
1.4982535 -1.1900578 0.1002757 9
1.5037527 -1.1948539 0.16803627 10
1.5009371 -1.1934716 0.23545158 11
1.490971 -1.1927851 0.10006636 9
1.502684 -1.2025855 0.16838489 10
1.5060587 -1.2061491 0.23691402 11
1.4916738 -1.2014813 0.10038038 9
1.4955848 -1.2050619 0.16803627 10
1.5113226 -1.2186127 0.23837645 11
1.4905729 -1.2091974 0.10058971 9
1.4898223 -1.2090195 0.16786195 10
1.5101415 -1.2263837 0.23886393 11
1.4987162 -1.2245026 0.10142709 9
1.4871355 -1.2154735 0.16803627 10
1.4997051 -1.2266204 0.23788899 11
1.4859602 -1.2231897 0.16838489 10
1.4923499 -1.2293236 0.2374015 11
1.4878167 -1.2334557 0.16908213 10
1.4926329 -1.2383279 0.23813272 11
1.478914 -1.2348108 0.16855921 10
1.495918 -1.2498945 0.23935141 11
1.4761196 -1.2412479 0.16873352 10
1.4915459 -1.2551086 0.23935141 11
1.4793801 -1.252831 0.16960508 10
1.4826125 -1.2564573 0.23862019 11
1.4749979 -1.2579874 0.16960508 10
