# .PCD v0.7 - Point Cloud Data file format
VERSION 0.7
FIELDS x y z intensity
SIZE 4 4 4 4
TYPE F F F F
COUNT 1 1 1 1
WIDTH 605
HEIGHT 1
VIEWPOINT 0 0 0 1 0 0 0
POINTS 605
DATA ascii
2.6433601 0.25732115 -0.2323572 5
2.6343238 0.24716252 -0.23148565 5
2.6173117 0.23635209 -0.22991684 5
2.6101811 0.22652604 -0.2292196 5
2.610956 0.21741271 -0.2292196 5
2.617413 0.21703176 -0.13764358 6
2.6116991 0.20829676 -0.2292196 5
2.620146 0.20805138 -0.13774826 6
2.6203563 0.19978662 -0.22991684 5
2.616873 0.19860108 -0.1375389 6
2.6051412 0.18948172 -0.22852236 5
2.6195424 0.18961003 -0.13764358 6
2.5978045 0.18028922 -0.22782511 5
2.6201568 0.18092281 -0.13764358 6
2.6023939 0.17148262 -0.22817372 5
2.6227355 0.17236331 -0.13774826 6
2.6029768 0.16239808 -0.22817372 5
2.6113889 0.1620079 -0.13712022 6
2.607506 0.15354457 -0.22852236 5
2.6159263 0.15312418 -0.13732956 6
2.6331179 0.1536694 -0.046039447 7
2.5921111 0.14356087 -0.22712786 5
2.6283851 0.14510849 -0.1379576 6
2.6236548 0.14393005 -0.045864921 7
2.6167548 0.13668165 -0.32173508 4
2.5846143 0.13454929 -0.22643061 5
2.6169078 0.13531581 -0.13732956 6
2.6241412 0.1347702 -0.045864921 7
2.6152329 0.12744929 -0.32149133 4
2.5930285 0.12591234 -0.22712786 5
2.6173642 0.12617958 -0.13732956 6
2.6285908 0.12580118 -0.045934737 7
2.5918655 0.11724252 -0.31856647 4
2.593452 0.11686199 -0.22712786 5
2.6018267 0.11632814 -0.13649218 6
2.6330092 0.11680145 -0.046004545 7
2.5882921 0.10802949 -0.31807902 4
2.5938442 0.10780776 -0.22712786 5
2.6101992 0.10757488 -0.13691087 6
2.6174166 0.10695595 -0.045725305 7
2.6455557 0.10394375 0.046213973 8
2.5926208 0.099145032 -0.31856647 4
2.578294 0.097697154 -0.22573337 5
2.6225338 0.098913886 -0.1375389 6
2.609781 0.097521931 -0.045585688 7
2.6259179 0.093994878 0.045864921 8
2.5929511 0.09009628 -0.31856647 4
2.5786195 0.088695943 -0.22573337 5
2.6148944 0.089029893 -0.13712022 6
2.6180995 0.088681571 -0.045725305 7
2.6222477 0.084239438 0.045795113 8
2.5972321 0.080713451 -0.31905395 4
2.5828962 0.079817958 -0.226082 5
2.607204 0.079657003 -0.13670154 6
2.6264021 0.079327226 -0.045864921 7
2.6065345 0.07462953 0.045515876 8
2.5816233 0.071209602 -0.31710407 4
2.583159 0.070800796 -0.226082 5
2.5994799 0.070340127 -0.13628285 6
2.6146693 0.069837838 -0.045655496 7
2.6287689 0.066082656 0.045899831 8
2.5739181 0.062006928 -0.31612909 4
2.5913579 0.061973318 -0.22677925 5
2.5997095 0.061266366 -0.13628285 6
2.614897 0.060711067 -0.045655496 7
2.6209869 0.056733593 0.045760211 8
2.5860269 0.053267725 -0.31759155 4
2.5796065 0.052683856 -0.22573337 5
2.6078954 0.052350961 -0.13670154 6
2.6030972 0.051345691 -0.045446068 7
2.6131546 0.048350528 0.04562059 8
2.625963 0.047670629 0.13764358 9
2.582212 0.0450732 -0.31710407 4
2.5717909 0.04444233 -0.22503611 5
2.6120408 0.044225886 -0.13691087 6
2.6072445 0.043234378 -0.045515876 7
2.6053097 0.039109111 0.045480974 8
2.6360989 0.038649715 0.13816693 9
2.5863235 0.036115304 -0.31759155 4
2.5759149 0.03551909 -0.22538476 5
2.5922084 0.034840032 -0.13586415 6
2.6073794 0.03413244 -0.045515876 7
2.603431 0.029990917 0.045446068 8
2.6302259 0.029381406 0.13785292 9
2.5745237 0.026961714 -0.31612909 4
2.5800076 0.026568826 -0.22573337 5
2.5883198 0.025750892 -0.13565481 6
2.6094825 0.025050525 -0.045550782 7
2.6075187 0.020935722 0.045515876 8
2.6283157 0.020183988 0.13774826 9
2.5666621 0.017918667 -0.31515417 4
2.5760999 0.017536176 -0.22538476 5
2.5923884 0.01674092 -0.13586415 6
2.6015553 0.015892023 -0.045411162 7
2.6155748 0.011869257 0.045655496 8
2.6163867 0.010960936 0.13712022 9
2.5706789 0.0089736348 -0.31564164 4
2.568176 0.008516687 -0.2246875 5
2.60042 0.0077159437 -0.13628285 6
2.5975957 0.0067996406 -0.04534135 7
2.6056018 0.0027279605 0.045480974 8
2.6243978 0.0018328576 0.1375389 9
2.5778666 0.00090056949 -0.40829399 3
2.5746648 -0 -0.31612909 4
2.5761597 -0.00044962467 -0.22538476 5
2.6004312 -0.0013615827 -0.13628285 6
2.601603 -0.0022703272 -0.045411162 7
2.5875983 -0.006322708 0.045166828 8
2.6243882 -0.0073286933 0.1375389 9
2.5699527 -0.0080737704 -0.40704253 3
2.5786192 -0.0090011153 -0.31661656 4
2.5801253 -0.0099070184 -0.22573337 5
2.5764437 -0.010342563 -0.13502678 6
2.6055784 -0.011369052 -0.045480974 7
2.5975587 -0.015414406 0.04534135 8
2.6163578 -0.016439276 0.13712022 9
2.5462015 -0.017331712 -0.4032881 3
2.5587215 -0.017863536 -0.31417918 4
2.5721056 -0.018854856 -0.22503611 5
2.5763884 -0.019785631 -0.13502678 6
2.6055229 -0.020464147 -0.045480974 7
2.5994844 -0.024954027 0.045376256 8
2.6003027 -0.025869645 0.13628285 9
2.6338038 -0.026662666 0.23043977 10
2.5560021 -0.026321214 -0.40485242 3
2.5546691 -0.027199335 -0.31369171 4
2.5799935 -0.027919305 -0.22573337 5
2.5842922 -0.028868021 -0.13544546 6
2.5974321 -0.029921591 -0.04534135 7
2.6033807 -0.034080122 0.045446068 8
2.6081851 -0.035053603 0.13670154 9
2.6356871 -0.035883322 0.2306141 10
2.5558946 -0.035243165 -0.40485242 3
2.5585282 -0.036172751 -0.31417918 4
2.575896 -0.036867965 -0.22538476 5
2.5841756 -0.037888706 -0.13544546 6
2.581316 -0.038748026 -0.045062114 7
2.5952482 -0.043034788 0.045306448 8
2.6120484 -0.043769386 0.13691087 9
2.6136327 -0.04470852 0.22869666 10
2.5478559 -0.044028163 -0.40360096 3
2.5663257 -0.045243431 -0.31515417 4
2.5637991 -0.045646489 -0.22433887 5
2.5840275 -0.04690893 -0.13544546 6
2.5891709 -0.047454346 -0.045201734 7
2.5850945 -0.051441777 0.045131925 8
2.6158733 -0.052967731 0.13712022 9
2.611469 -0.053790502 0.22852236 10
2.5397956 -0.052314192 -0.40234947 3
2.5701308 -0.053836562 -0.31564164 4
2.5676079 -0.054680385 -0.2246875 5
2.5798643 -0.055391874 -0.13523613 6
2.5889895 -0.056491952 -0.045201734 7
2.5888977 -0.060558651 0.045201734 8
2.6076858 -0.061908904 0.13670154 9
2.6232269 -0.06273596 0.22956821 10
2.547497 -0.061369721 -0.40360096 3
2.5580201 -0.062516667 -0.31417918 4
2.5674124 -0.063194573 -0.2246875 5
2.5676754 -0.064097889 -0.13460809 6
2.5967727 -0.065731272 -0.04534135 7
2.5946674 -0.069756456 0.045306448 8
2.5994678 -0.070793554 0.13628285 9
2.6190088 -0.071783178 0.2292196 10
2.5512164 -0.070370696 -0.40422669 3
2.5538177 -0.071334586 -0.31369171 4
2.5831089 -0.072603963 -0.226082 5
2.5834076 -0.073514849 -0.13544546 6
2.5805366 -0.074334666 -0.045062114 7
2.5964067 -0.078873821 0.04534135 8
2.6031971 -0.079989642 0.13649218 9
2.6107767 -0.080678634 0.22852236 10
2.5509551 -0.079275675 -0.40422669 3
2.6388843 -0.082469255 0.32417247 11
2.5575213 -0.080373347 -0.31417918 4
2.5629117 -0.081438266 -0.22433887 5
2.5791428 -0.082404613 -0.13523613 6
2.5802612 -0.083341956 -0.045062114 7
2.5821257 -0.087462611 0.04509702 8
2.6029022 -0.089075997 0.13649218 9
2.6104634 -0.090247065 0.22852236 10
2.5427511 -0.08835049 -0.40297523 3
2.6286612 -0.09133552 0.32295379 11
2.561193 -0.089438826 -0.31466666 4
2.5546472 -0.090103097 -0.22364163 5
2.5828154 -0.091999285 -0.13544546 6
2.5839515 -0.092491314 -0.045131925 7
2.569798 -0.096475869 0.044887587 8
2.6145332 -0.099069268 0.13712022 9
2.6041594 -0.099131361 0.22799942 10
2.5345314 -0.096923865 -0.40172374 3
2.6243415 -0.10081702 0.32246631 11
2.560848 -0.098825477 -0.31466666 4
2.5543172 -0.099019922 -0.22364163 5
2.5705042 -0.10054606 -0.13481744 6
2.5875914 -0.10211907 -0.045201734 7
2.5814335 -0.10593753 0.04509702 8
2.598207 -0.10753436 0.13628285 9
2.6117601 -0.10855192 0.22869666 10
2.5341775 -0.10577043 -0.40172374 3
2.61604 -0.10964455 0.32149133 11
2.544621 -0.10709611 -0.31271678 4
2.5619185 -0.10827205 -0.22433887 5
2.5621555 -0.10917805 -0.13439874 6
2.5872195 -0.11115082 -0.045201734 7
2.5790505 -0.11485879 0.045062114 8
2.5938456 -0.11597132 0.1360735 9
2.6133559 -0.1177577 0.22887097 10
2.5456331 -0.1151513 -0.40360096 3
2.6116753 -0.11859547 0.32100388 11
2.5402653 -0.11579704 -0.31222928 4
2.5655055 -0.11739632 -0.2246875 5
2.5657492 -0.11830496 -0.13460809 6
2.578846 -0.11935991 -0.045062114 7
2.5866451 -0.12379299 0.045201734 8
2.5894351 -0.12483249 0.13586415 9
2.6029785 -0.12639612 0.22799942 10
2.5412912 -0.12340069 -0.40297523 3
2.6172159 -0.12754534 0.32173508 11
2.5359018 -0.12402629 -0.3117418 4
2.5531402 -0.12576275 -0.22364163 5
2.5653429 -0.12681265 -0.13460809 6
2.5744193 -0.12816218 -0.044992302 7
2.5722179 -0.13210335 0.044957399 8
2.5989799 -0.13393261 0.13638751 9
2.596576 -0.13471751 0.22747649 10
2.532954 -0.13185991 -0.40172374 3
2.6167548 -0.13668035 0.32173508 11
2.5473478 -0.13350086 -0.31320426 4
2.6275957 -0.13770647 0.41674146 12
2.5447505 -0.13381009 -0.22294438 5
2.5728624 -0.13618889 -0.13502678 6
2.5739801 -0.13669856 -0.044992302 7
2.5677719 -0.14041401 0.044887587 8
2.5965023 -0.14289416 0.13628285 9
2.526787 -0.13949984 -0.4919056 2
2.5980792 -0.1438906 0.22765081 10
2.528558 -0.14004028 -0.40109801 3
2.6083591 -0.14491659 0.32076016 11
2.5468912 -0.1419474 -0.31320426 4
2.61921 -0.14643656 0.41549 12
2.5562038 -0.14336152 -0.22399026 5
2.5644202 -0.14427131 -0.13460809 6
2.5774803 -0.14590862 -0.045062114 7
2.5632737 -0.14914405 0.044817779 8
2.5880389 -0.15103826 0.13586415 9
2.5223906 -0.14764877 -0.49114239 2
2.6055436 -0.15297244 0.22834805 10
2.5319979 -0.14909799 -0.40172374 3
2.5999107 -0.15355243 0.31978518 11
2.5384536 -0.15036732 -0.31222928 4
2.6325135 -0.15593904 0.41768005 12
2.5557144 -0.15183741 -0.22399026 5
2.5599134 -0.15298362 -0.13439874 6
2.5809746 -0.15469433 -0.045131925 7
2.5767365 -0.15850279 0.045062114 8
2.583509 -0.15982462 0.13565481 9
2.5140224 -0.1559664 -0.48961592 2
2.6030049 -0.16194284 0.22817372 10
2.5314894 -0.15749359 -0.40172374 3
2.6033494 -0.16242041 0.32027265 11
2.5339785 -0.1585364 -0.3117418 4
2.6220956 -0.16450882 0.41611573 12
2.5591455 -0.16100778 -0.22433887 5
2.559392 -0.16147177 -0.13439874 6
2.5684447 -0.16294305 -0.044922493 7
2.5801294 -0.16820611 0.045131925 8
2.5829058 -0.1692926 0.13565481 9
2.5095441 -0.16448423 -0.48885265 2
2.5924835 -0.17037475 0.22730216 10
2.5348372 -0.16703068 -0.40234947 3
2.6126406 -0.17261541 0.32149133 11
2.5333805 -0.16782284 -0.3117418 4
2.5938807 -0.17228538 0.41173556 12
2.5466101 -0.16959208 -0.22329301 5
2.5667546 -0.17138359 -0.13481744 6
2.5618446 -0.17195401 -0.044817779 7
2.5675564 -0.1763891 0.044922493 8
2.5862842 -0.17858276 0.13586415 9
2.5128419 -0.17395222 -0.48961592 2
2.5858791 -0.17946175 0.22677925 10
2.5223846 -0.17549755 -0.40047228 3
2.6120222 -0.18173417 0.32149133 11
2.5367398 -0.17694122 -0.31222928 4
2.5952342 -0.18147643 0.41204843 12
2.5380528 -0.17792307 -0.22259577 5
2.5661092 -0.18079007 -0.13481744 6
2.5612288 -0.18089548 -0.044817779 7
2.5589149 -0.18522102 0.044782877 8
2.5936131 -0.18818763 0.13628285 9
2.5161355 -0.18300745 -0.49037915 2
2.5852368 -0.18848704 0.22677925 10
2.5217566 -0.18430123 -0.40047228 3
2.6034195 -0.19072635 0.32051641 11
2.5400338 -0.18652841 -0.31271678 4
2.6024649 -0.19111307 0.41329992 12
2.5413902 -0.18707399 -0.22294438 5
2.5535114 -0.18886243 -0.13418941 6
2.5665646 -0.19027825 -0.044922493 7
2.5602803 -0.19385666 0.044817779 8
2.5849745 -0.19663391 0.13586415 9
2.521354 -0.19223705 -0.49152401 2
2.5845633 -0.19751006 0.22677925 10
2.5290101 -0.19326474 -0.40172374 3
2.5948555 -0.19875215 0.31954145 11
2.5275257 -0.19403875 -0.31125432 4
2.6096601 -0.20080242 0.41455138 12
2.5407217 -0.19594395 -0.22294438 5
2.5488884 -0.19702131 -0.13398007 6
2.5738595 -0.1998553 -0.045062114 7
2.5695553 -0.20358218 0.044992302 8
2.5683446 -0.20438844 0.13502678 9
2.5070028 -0.19950688 -0.48885265 2
2.5918381 -0.20671329 0.22747649 10
2.5243819 -0.20177665 -0.40109801 3
2.6020608 -0.2084427 0.32051641 11
2.5268328 -0.20286028 -0.31125432 4
2.5971293 -0.20896007 0.41267416 12
2.546016 -0.20484757 -0.22346732 5
2.5521667 -0.2062391 -0.13418941 6
2.5651736 -0.20819147 -0.044922493 7
2.5688291 -0.21255037 0.044992302 8
2.575577 -0.21401393 0.13544546 9
2.4984655 -0.20760646 -0.4873262 2
2.5871298 -0.21542858 0.22712786 10
2.5315361 -0.21124424 -0.40234947 3
2.5973611 -0.2171935 0.32002893 11
2.5261095 -0.21167935 -0.31125432 4
2.5845735 -0.21703269 0.41079697 12
2.5333729 -0.21273324 -0.22242144 5
2.5514312 -0.21514657 -0.13418941 6
2.5584536 -0.21663818 -0.044817779 7
2.5561178 -0.22048487 0.044782877 8
2.5827737 -0.22369245 0.13586415 9
2.5016372 -0.21666527 -0.48808944 2
2.5784223 -0.22376898 0.22643061 10
2.5189757 -0.21905285 -0.40047228 3
2.6044974 -0.22694793 0.32100388 11
2.5253551 -0.22049579 -0.31125432 4
2.5877359 -0.22639753 0.4114227 12
2.5246756 -0.22088048 -0.22172421 5
2.5546436 -0.22440095 -0.13439874 6
2.5596735 -0.2257432 -0.044852685 7
2.5493577 -0.22886963 0.044678163 8
2.5899336 -0.23342377 0.13628285 9
2.5086873 -0.22610123 -0.48961592 2
2.5815942 -0.23312639 0.22677925 10
2.5103264 -0.22713238 -0.39922079 3
2.5957816 -0.23532103 0.32002893 11
2.5285239 -0.22966875 -0.3117418 4
2.5278578 -0.23005305 -0.22207282 5
2.5498669 -0.23295353 -0.13418941 6
2.5588701 -0.23467675 -0.044852685 7
2.552525 -0.23813866 0.044747971 8
2.5731947 -0.2409731 0.13544546 9
2.503973 -0.23449068 -0.48885265 2
2.5847321 -0.24250861 0.22712786 10
2.5134518 -0.23626338 -0.39984655 3
2.577157 -0.24270546 0.31783527 11
2.5198016 -0.23774767 -0.31076685 4
2.5349734 -0.23962554 -0.22277008 5
2.5450616 -0.24147552 -0.13398007 6
2.5580354 -0.24360745 -0.044852685 7
2.5676014 -0.24858883 0.045027211 8
2.5643864 -0.24918109 0.13502678 9
2.4953232 -0.24247023 -0.4873262 2
2.5838697 -0.25152954 0.22712786 10
2.5126116 -0.24503554 -0.39984655 3
2.5901241 -0.2530511 0.31954145 11
2.5169809 -0.2463486 -0.31052312 4
2.5341215 -0.24847279 -0.22277008 5
2.5442033 -0.25035799 -0.13398007 6
2.5551794 -0.25233865 -0.044817779 7
2.5607488 -0.25695097 0.044922493 8
2.5714498 -0.25893137 0.13544546 9
2.4983683 -0.25157246 -0.48808944 2
2.577029 -0.25994751 0.22660492 10
2.5196025 -0.25459906 -0.40109801 3
2.5931749 -0.2624906 0.32002893 11
2.5220304 -0.25573379 -0.31125432 4
2.5292745 -0.25691432 -0.22242144 5
2.5472877 -0.25964242 -0.13418941 6
2.548315 -0.26064593 -0.044713065 7
2.5518806 -0.26506168 0.044782877 8
2.5745032 -0.2683199 0.13565481 9
2.5681791 -0.26811391 0.22590767 10
2.5108399 -0.26257077 -0.39984655 3
2.5902686 -0.27133408 0.31978518 11
2.5171738 -0.26412144 -0.31076685 4
2.5164733 -0.26449201 -0.22137558 5
2.5503383 -0.26895145 -0.13439874 6
2.5513668 -0.26996046 -0.044782877 7
2.544975 -0.2733272 0.044678163 8
2.5735507 -0.27730495 0.13565481 9
2.5731704 -0.27771831 0.22643061 10
2.50598 -0.27090901 -0.39922079 3
2.579438 -0.27930564 0.31856647 11
2.5221572 -0.27354857 -0.31149808 4
2.519496 -0.27370483 -0.22172421 5
2.5374711 -0.27655378 -0.13377072 6
2.5523968 -0.27908209 -0.044817779 7
2.5479801 -0.28265008 0.044747971 8
2.5685973 -0.28584483 0.13544546 9
2.5761459 -0.28714007 0.22677925 10
2.5089455 -0.28009322 -0.39984655 3
2.5784473 -0.28830785 0.31856647 11
2.5152686 -0.28168803 -0.31076685 4
2.5323851 -0.28405249 -0.22294438 5
2.5325205 -0.28496289 -0.13356137 6
2.5514071 -0.28798994 -0.044817779 7
2.5569117 -0.29267955 0.044922493 8
2.5596471 -0.29389787 0.13502678 9
2.5830452 -0.29704121 0.22747649 10
2.5040276 -0.28839728 -0.39922079 3
2.5813694 -0.2977615 0.31905395 11
2.5142701 -0.29046625 -0.31076685 4
2.5274198 -0.29243246 -0.22259577 5
2.5394464 -0.29472229 -0.13398007 6
2.5464137 -0.29643178 -0.044747971 7
2.5538883 -0.30136871 0.044887587 8
2.566539 -0.30376992 0.13544546 9
2.566164 -0.30417967 0.226082 10
2.5069289 -0.29760197 -0.39984655 3
2.5881989 -0.30770776 0.32002893 11
2.5132408 -0.29924095 -0.31076685 4
2.5145133 -0.29983756 -0.22154988 5
2.5384021 -0.30358481 -0.13398007 6
2.5374217 -0.30436599 -0.044608355 7
2.5448806 -0.30931649 0.044747971 8
2.5614979 -0.31224361 0.13523613 9
2.5571761 -0.31216973 0.22538476 10
2.5058749 -0.30635098 -0.39984655 3
2.5851388 -0.31649917 0.31978518 11
2.5141513 -0.30825353 -0.31101057 4
2.5094965 -0.30812743 -0.22120127 5
2.5412915 -0.31293187 -0.13418941 6
2.546267 -0.31444684 -0.044782877 7
2.5358486 -0.31720507 0.044608355 8
2.5643559 -0.32168019 0.13544546 9
2.5600245 -0.32159066 0.22573337 10
2.5722013 -0.3240324 0.31832278 11
2.516999 -0.31752464 -0.31149808 4
2.5202658 -0.31838357 -0.22224714 5
2.528295 -0.32029462 -0.13356137 6
2.5530887 -0.32434109 -0.044922493 7
2.5367091 -0.32631007 0.044643257 8
2.5592558 -0.33011848 0.13523613 9
2.5707424 -0.33205628 0.22677925 10
2.567117 -0.33249909 0.31783527 11
2.5099692 -0.32554266 -0.31076685 4
2.5191391 -0.32717898 -0.22224714 5
2.5271616 -0.32911807 -0.13356137 6
2.5479753 -0.33273321 -0.044852685 7
2.5454671 -0.33647311 0.044817779 8
2.5462079 -0.33747539 0.13460809 9
2.5695674 -0.34102786 0.22677925 10
2.5718441 -0.34224358 0.31856647 11
2.5048821 -0.33377767 -0.31027937 4
2.5258811 -0.33702448 -0.22294438 5
2.5259974 -0.33793747 -0.13356137 6
2.5388706 -0.34056184 -0.044713065 7
2.544277 -0.34535637 0.044817779 8
2.5529306 -0.3474386 0.13502678 9
2.562439 -0.34918815 0.22625631 10
2.5785007 -0.35229376 0.31954145 11
2.5037019 -0.34251928 -0.31027937 4
2.5088975 -0.34367621 -0.22154988 5
2.5327172 -0.34783983 -0.13398007 6
2.5337043 -0.34887648 -0.044643257 7
2.5331531 -0.35285604 0.044643257 8
2.5635707 -0.35800529 0.13565481 9
2.5533113 -0.3570269 0.22555906 10
2.5733237 -0.36074111 0.31905395 11
2.5103545 -0.35236049 -0.31125432 4
2.5037365 -0.35187724 -0.22120127 5
2.5354431 -0.35723582 -0.13418941 6
2.5324709 -0.35771865 -0.044643257 7
2.5279469 -0.36113065 0.044573449 8
2.5623055 -0.36695164 0.13565481 9
2.5579662 -0.36678585 0.226082 10
2.5622241 -0.3683092 0.31783527 11
2.5169685 -0.36225227 -0.31222928 4
2.5024931 -0.36061478 -0.22120127 5
2.52232 -0.36437067 -0.13356137 6
2.5371439 -0.36741623 -0.044747971 7
2.5326068 -0.37082174 0.044678163 8
2.5491524 -0.37415326 0.13502678 9
2.5645556 -0.37687135 0.22677925 10
2.5746703 -0.37927595 0.31954145 11
2.4921227 -0.36756018 -0.30930442 4
2.501219 -0.3693479 -0.22120127 5
2.5131299 -0.3720032 -0.13314268 6
2.5437582 -0.3774443 -0.044887587 7
2.5413175 -0.38025588 0.044852685 8
2.5479643 -0.38215983 0.13502678 9
2.5633588 -0.38492626 0.22677925 10
2.5197473 -0.38017631 -0.22294438 5
2.5237978 -0.38168854 -0.13377072 6
2.5326743 -0.38393533 -0.044713065 7
2.537998 -0.3888216 0.044817779 8
2.5426667 -0.39044529 0.13481744 9
2.5541224 -0.39266068 0.226082 10
2.514467 -0.38836133 -0.22259577 5
2.5263975 -0.39110702 -0.13398007 6
2.5253906 -0.39185384 -0.044608355 7
2.5247719 -0.39582017 0.044608355 8
2.5491805 -0.40055856 0.13523613 9
2.5487998 -0.4009546 0.22573337 10
2.4973521 -0.39464813 -0.22120127 5
2.525017 -0.39992341 -0.13398007 6
2.5319071 -0.40192071 -0.044747971 7
2.5233748 -0.4046309 0.044608355 8
2.5477667 -0.40945446 0.13523613 9
2.555253 -0.41111508 0.22643061 10
2.499893 -0.40399882 -0.22154988 5
2.5157192 -0.40745759 -0.13356137 6
2.5403581 -0.41235834 -0.044922493 7
2.5258939 -0.41408366 0.044678163 8
2.5423803 -0.41769776 0.13502678 9
2.5459385 -0.41873869 0.22573337 10
2.4983954 -0.41315868 -0.22154988 5
2.5102682 -0.4160223 -0.13335203 6
2.5349579 -0.4205687 -0.044852685 7
2.5342197 -0.42499235 0.044852685 8
2.5368929 -0.42635119 0.13481744 9
2.5561755 -0.43005058 0.22677925 10
2.5125804 -0.4249711 -0.22294438 5
2.5166035 -0.42655522 -0.13377072 6
2.5215702 -0.42784983 -0.044643257 7
2.5326452 -0.43427792 0.044852685 8
2.5392501 -0.43632299 0.13502678 9
2.5467277 -0.4380655 0.226082 10
2.5051916 -0.43272173 -0.22242144 5
2.5190349 -0.43601847 -0.13398007 6
2.5140743 -0.43606374 -0.044538539 7
2.5232348 -0.44173652 0.044713065 8
2.5495148 -0.44725457 0.13565481 9
2.5432205 -0.44660798 0.22590767 10
2.5135641 -0.44411388 -0.13377072 6
2.5263205 -0.44727722 -0.044782877 7
2.5138037 -0.44913474 0.044573449 8
2.5440061 -0.45544732 0.13544546 9
2.5377238 -0.4547798 0.22555906 10
2.5119984 -0.45288512 -0.13377072 6
2.5267115 -0.45644847 -0.044817779 7
2.5181224 -0.45898256 0.044678163 8
2.5345418 -0.46288949 0.13502678 9
2.5459206 -0.46542683 0.22643061 10
2.5025449 -0.460206 -0.13335203 6
2.5231364 -0.46490324 -0.044782877 7
2.5184708 -0.46813503 0.044713065 8
2.5329928 -0.47129181 0.13502678 9
2.5442805 -0.4743109 0.22643061 10
2.5048492 -0.46967486 -0.13356137 6
2.5156846 -0.47216105 -0.044678163 7
2.5267284 -0.47834378 0.044887587 8
2.5314162 -0.47968888 0.13502678 9
2.5387788 -0.48200217 0.226082 10
2.5072019 -0.47872785 -0.13377072 6
2.5101767 -0.47974998 -0.044608355 7
2.5094199 -0.48369235 0.044608355 8
2.5375702 -0.49003705 0.13544546 9
2.5293419 -0.48890597 0.22538476 10
2.5134428 -0.48856378 -0.13418941 6
2.5163381 -0.49003816 -0.044747971 7
2.5077164 -0.4924489 0.044608355 8
2.5436833 -0.50043404 0.13586415 9
2.533484 -0.49888682 0.22590767 10
2.5204966 -0.49998611 -0.044852685 7
2.5099039 -0.50198382 0.044678163 8
2.5262539 -0.50617105 0.13502678 9
2.5375879 -0.50890267 0.22643061 10
2.5187359 -0.50878125 -0.044852685 7
2.515974 -0.51233798 0.044817779 8
2.5205581 -0.51418781 0.13481744 9
2.5240834 -0.5153659 0.22538476 10
2.5110683 -0.51636183 -0.044747971 7
2.5141704 -0.52111733 0.044817779 8
2.5226588 -0.52379519 0.13502678 9
2.5033789 -0.52389514 -0.044643257 7
2.5123363 -0.52989024 0.044817779 8
2.5247233 -0.53342342 0.13523613 9
2.5034909 -0.53304678 -0.044678163 7
2.5006952 -0.5365591 0.044643257 8
2.522846 -0.54223311 0.13523613 9
2.513341 -0.54432189 -0.044887587 7
2.5046682 -0.54656386 0.044747971 8
2.5209377 -0.55103618 0.13523613 9
2.5066495 -0.55616981 0.044817779 8
2.5150995 -0.55896592 0.13502678 9
2.5124958 -0.5666762 0.044957399 8
2.5209255 -0.56950229 0.13544546 9
2.4968581 -0.57231551 0.044713065 8
2.5228157 -0.57919228 0.13565481 9
2.4890025 -0.57966697 0.044608355 8
2.5285587 -0.58980989 0.1360735 9
2.4966938 -0.59065354 0.044782877 8
2.5148237 -0.59586966 0.13544546 9
2.5004497 -0.60076642 0.044887587 8
2.5088449 -0.60370988 0.13523613 9
2.5107098 -0.61297357 0.13544546 9
2.516309 -0.6236558 0.13586415 9
2.5179906 -0.63340998 0.1360735 9
2.504153 -0.63923156 0.13544546 9
2.4961059 -0.64646655 0.13513145 9
