# .PCD v0.7 - Point Cloud Data file format
VERSION 0.7
FIELDS x y z intensity
SIZE 4 4 4 4
TYPE F F F F
COUNT 1 1 1 1
WIDTH 1335
HEIGHT 1
VIEWPOINT 0 0 0 1 0 0 0
POINTS 1335
DATA ascii
1.3477592 -0.50283432 -0.1258529 5
1.3979481 -0.52155924 0.2900297 13
1.3285116 -0.49591744 -0.074317068 6
1.3692955 -0.51168621 -0.025515417 7
1.3591298 -0.51032186 0.025340894 8
1.3098162 -0.49206665 -0.32302973 1
1.3554262 -0.50947124 0.075887144 9
1.3176473 -0.49527109 -0.2736201 2
1.3669518 -0.5140757 0.12777032 10
1.3274583 -0.49948764 -0.22463992 3
1.3654821 -0.51406705 0.17914794 11
1.3300965 -0.50101042 -0.17451692 4
1.3697113 -0.51620519 0.23183592 12
1.3423556 -0.50589561 -0.12550427 5
1.3850969 -0.52227974 0.28773996 13
1.3305098 -0.50196177 -0.074526407 6
1.3525354 -0.51081073 -0.02523618 7
1.3610793 -0.51648194 0.025410704 8
1.3080907 -0.49663576 -0.32302973 1
1.3611079 -0.51703638 0.076305829 9
1.3159105 -0.49986747 -0.2736201 2
1.355837 -0.51530492 0.12689877 10
1.3293993 -0.50552249 -0.22526565 3
1.3711007 -0.52165395 0.1801229 11
1.3357604 -0.50847512 -0.17549187 4
1.3568248 -0.51676476 0.22995868 12
1.3368577 -0.50916004 -0.12515564 5
1.3869346 -0.52850962 0.28850323 13
1.3362144 -0.50944906 -0.074945092 6
1.3470075 -0.51410276 -0.02516637 7
1.3480654 -0.51693404 0.025201276 8
1.3209045 -0.50678319 -0.32662892 1
1.3611594 -0.52250016 0.076410502 9
1.3141576 -0.50445783 -0.2736201 2
1.3465902 -0.51717722 0.12620151 10
1.3128753 -0.50449151 -0.2227627 3
1.3711241 -0.52714914 0.18036664 11
1.3413882 -0.51598543 -0.17646682 4
1.3605434 -0.52362633 0.23089729 12
1.3239156 -0.50952959 -0.12410977 5
1.3850814 -0.53334773 0.28850323 13
1.3418828 -0.51698244 -0.075363785 6
1.3526678 -0.52167988 -0.025305988 7
1.3425236 -0.52019149 0.025131466 8
1.3064086 -0.50646019 -0.32347962 1
1.3574653 -0.52652603 0.076305829 9
1.3123888 -0.50904197 -0.2736201 2
1.3503491 -0.52403706 0.12672445 10
1.3111062 -0.50907117 -0.2227627 3
1.3563232 -0.52690035 0.17866047 11
1.3432795 -0.52210295 -0.1769543 4
1.3679127 -0.53195208 0.23246165 12
1.3295566 -0.51703626 -0.12480702 5
1.3722333 -0.53390813 0.28621352 13
1.3363477 -0.52021426 -0.075154446 6
1.3508385 -0.5263983 -0.025305988 7
1.3444237 -0.52633262 0.025201276 8
1.3064473 -0.51172805 -0.32392952 1
1.3481808 -0.52834624 0.075887144 9
1.3179154 -0.51648539 -0.27514657 2
1.355931 -0.53165662 0.12742169 10
1.3129992 -0.51508754 -0.22338845 3
1.3544757 -0.53163153 0.17866047 11
1.3266672 -0.52098387 -0.17500439 4
1.3605317 -0.53455663 0.23152302 12
1.3277438 -0.52167416 -0.12480702 5
1.3740156 -0.54013127 0.28697675 13
1.327089 -0.52195174 -0.074735753 6
1.4071916 -0.55374014 0.34912404 14
1.3564354 -0.53404069 -0.025445608 7
1.3444378 -0.53175783 0.02523618 8
1.2901568 -0.51054877 -0.32033029 1
1.3444713 -0.53231382 0.07578247 9
1.308803 -0.51819175 -0.2736201 2
1.354067 -0.53638637 0.12742169 10
1.3148659 -0.52112323 -0.22401418 3
1.3526118 -0.53635627 0.17866047 11
1.3211501 -0.52414751 -0.17451692 4
1.3604935 -0.54003131 0.23183592 12
1.3277664 -0.52704066 -0.12498133 5
1.3757709 -0.54637349 0.28773996 13
1.3289711 -0.52805591 -0.074945092 6
1.3835195 -0.55000997 0.34372523 14
1.3434144 -0.53433794 -0.02523618 7
1.3520466 -0.53968549 0.025410704 8
1.2921661 -0.51604491 -0.32123011 1
1.344647 -0.53727603 0.075887144 9
1.2998762 -0.51938713 -0.27209365 2
1.3486753 -0.53915852 0.12707306 10
1.3132223 -0.52525145 -0.22401418 3
1.3582921 -0.54355305 0.17963544 11
1.3194969 -0.52829546 -0.17451692 4
1.353289 -0.54209912 0.23089729 12
1.3167645 -0.52773488 -0.12410977 5
1.3849819 -0.55507511 0.2900297 13
1.3273056 -0.53222841 -0.074945092 6
1.3745503 -0.55145127 0.34192562 14
1.3380176 -0.53706598 -0.02516637 7
1.3390269 -0.53991485 0.025201276 8
1.2993929 -0.52419758 -0.32347962 1
1.3520238 -0.54570419 0.076410502 9
1.2979639 -0.52414793 -0.27209365 2
1.3393009 -0.5411126 0.12637582 10
1.3112884 -0.53006113 -0.22401418 3
1.3619076 -0.55052292 0.18036664 11
1.3250058 -0.5358752 -0.17549187 4
1.3477263 -0.5453378 0.23027156 12
1.3112208 -0.53083271 -0.12376115 5
1.3683808 -0.55425125 0.28697675 13
1.325346 -0.53708965 -0.074945092 6
1.3851615 -0.56161106 0.34507492 14
1.35096 -0.54774415 -0.025445608 7
1.325928 -0.54029149 0.024991846 8
1.2830266 -0.52307111 -0.3198804 1
1.3538096 -0.55192834 0.076619849 9
1.3033977 -0.53164136 -0.2736201 2
1.3374038 -0.54578435 0.12637582 10
1.2947996 -0.52866155 -0.22151121 3
1.3451794 -0.54950535 0.17841674 11
1.3249649 -0.54124773 -0.17573561 4
1.3458146 -0.55003893 0.23027156 12
1.3130481 -0.53691465 -0.12410977 5
1.3664378 -0.55902445 0.28697675 13
1.3160695 -0.53868639 -0.074526407 6
1.3778811 -0.56398678 0.34372523 14
1.3342355 -0.54639393 -0.02516637 7
1.335225 -0.54924977 0.025201276 8
1.2740767 -0.52435619 -0.31808078 1
1.3316554 -0.54805321 0.075468451 9
1.3052583 -0.53745568 -0.27438337 2
1.3392709 -0.55173421 0.12672445 10
1.3003447 -0.53596342 -0.2227627 3
1.3378443 -0.55169278 0.17768551 11
1.313987 -0.54185462 -0.17451692 4
1.3494612 -0.55675894 0.23121016 12
1.3186271 -0.54430681 -0.12480702 5
1.3609473 -0.5620538 0.28621352 13
1.3142759 -0.54304767 -0.074526407 6
1.3687991 -0.56557614 0.34192562 14
1.3398083 -0.55387127 -0.025305988 7
1.3389368 -0.55597514 0.025305988 8
1.2813289 -0.53231651 -0.32033029 1
1.3315786 -0.55346483 0.075573131 9
1.2925916 -0.53726 -0.27209365 2
1.3447925 -0.55923241 0.12742169 10
1.3022078 -0.54179025 -0.22338845 3
1.3415054 -0.55841482 0.17841674 11
1.30659 -0.54414845 -0.1737857 4
1.3383925 -0.5576672 0.22964582 12
1.3240751 -0.55197287 -0.12550427 5
1.3699485 -0.5710963 0.28850323 13
1.3161546 -0.5489406 -0.074735753 6
1.3596227 -0.5673489 0.34012601 14
1.3378669 -0.5585447 -0.025305988 7
1.2702491 -0.53265965 -0.36907598 0
1.3369879 -0.56064552 0.025305988 8
1.28126 -0.5375399 -0.32078022 1
1.3351632 -0.56042844 0.075887144 9
1.2906138 -0.54199398 -0.27209365 2
1.3353865 -0.56107056 0.12672445 10
1.3074974 -0.54962128 -0.22463992 3
1.3450378 -0.56540185 0.17914794 11
1.3028526 -0.54793638 -0.17354195 4
1.3364377 -0.56233567 0.22964582 12
1.3129588 -0.55272615 -0.12463271 5
1.3678463 -0.57611364 0.28850323 13
1.3104527 -0.55220973 -0.074526407 6
1.3683082 -0.57687056 0.34282541 14
1.3322239 -0.56165761 -0.02523618 7
1.2861716 -0.54462326 -0.37425235 0
1.3312415 -0.56398195 0.02523618 8
1.2882524 -0.54603481 -0.32302973 1
1.3405545 -0.56820345 0.076305829 9
1.2959436 -0.54956162 -0.2736201 2
1.322415 -0.56105947 0.12567857 10
1.2910242 -0.54800725 -0.22213697 3
1.350265 -0.57343167 0.1801229 11
1.313722 -0.55791259 -0.17524813 4
1.3326485 -0.56622481 0.22933295 12
1.3091879 -0.55652642 -0.1244584 5
1.3622135 -0.57934797 0.28773996 13
1.3232195 -0.56303668 -0.075363785 6
1.3663876 -0.58140492 0.34282541 14
1.3339349 -0.56787109 -0.025305988 7
1.2772526 -0.54584861 -0.3721818 0
1.3201706 -0.56446266 0.025061656 8
1.2738926 -0.54493874 -0.3198804 1
1.3386629 -0.57264572 0.076305829 9
1.2905045 -0.55231124 -0.27285689 2
1.3278733 -0.56857872 0.12637582 10
1.2891999 -0.55228537 -0.22213697 3
1.3392333 -0.57399613 0.17890421 11
1.3173385 -0.56461203 -0.17597936 4
1.339841 -0.5745334 0.23089729 12
1.3164902 -0.56479245 -0.12532996 5
1.3494602 -0.57921594 0.28545028 13
1.3029932 -0.55954069 -0.074317068 6
1.360871 -0.58439499 0.34192562 14
1.3357191 -0.57387024 -0.0253758 7
1.3843714 -0.59505916 0.40375772 15
1.2807572 -0.55237633 -0.37373474 0
1.3219635 -0.57042181 0.025131466 8
1.2702894 -0.54838777 -0.3194305 1
1.3329889 -0.57573116 0.07609649 9
1.2994797 -0.56125826 -0.27514657 2
1.3314674 -0.57534987 0.12689877 10
1.2909877 -0.55812526 -0.2227627 3
1.3263907 -0.57370567 0.17744178 11
1.3026069 -0.56368834 -0.17427318 4
1.3414528 -0.58077651 0.23152302 12
1.31461 -0.56915498 -0.12532996 5
1.3547382 -0.5868091 0.28697675 13
1.2974653 -0.56227016 -0.074107721 6
1.3588227 -0.58914173 0.34192562 14
1.3300387 -0.57693768 -0.025305988 7
1.371653 -0.59527332 0.4006519 15
1.2912198 -0.56224239 -0.37735817 0
1.3236309 -0.57663018 0.025201276 8
1.2719404 -0.55437571 -0.32033029 1
1.3181555 -0.57479244 0.075363785 9
1.2795167 -0.55794364 -0.27133042 2
1.3312771 -0.58079076 0.12707306 10
1.2890316 -0.56262833 -0.2227627 3
1.3334762 -0.58230424 0.17866047 11
1.3024503 -0.56902659 -0.17451692 4
1.3213172 -0.57754391 0.22839434 12
1.3199177 -0.57693219 -0.12602721 5
1.3562791 -0.59310758 0.28773996 13
1.2991544 -0.56839687 -0.074317068 6
1.3460467 -0.58919275 0.33922619 14
1.3243532 -0.57997251 -0.02523618 7
1.3660277 -0.59850723 0.3996166 15
1.2857122 -0.56519133 -0.37632293 0
1.325271 -0.58285707 0.025271084 8
1.26643 -0.55724257 -0.3194305 1
1.3234531 -0.58260894 0.07578247 9
1.2739676 -0.56082451 -0.27056718 2
1.3219482 -0.58222198 0.12637582 10
1.2979058 -0.57190353 -0.22463992 3
1.3350681 -0.58855689 0.17914794 11
1.3004562 -0.57356948 -0.17451692 4
1.3156787 -0.58055776 0.22776861 12
1.3033133 -0.57510138 -0.12463271 5
1.3613846 -0.60100991 0.28926644 13
1.2971624 -0.57292831 -0.074317068 6
1.3475468 -0.59546304 0.34012601 14
1.3150049 -0.5813576 -0.025096562 7
1.3692306 -0.60561615 0.40116954 15
1.262542 -0.56027263 -0.37011126 0
1.3177453 -0.58504534 0.02516637 8
1.2662582 -0.56245089 -0.3198804 1
1.3268868 -0.58965838 0.07609649 9
1.2773844 -0.56765991 -0.27171201 2
1.3199078 -0.58683294 0.12637582 10
1.2904869 -0.57402211 -0.22370131 3
1.3384464 -0.59563482 0.17987917 11
1.302073 -0.57972026 -0.17500439 4
1.3226664 -0.58916569 0.22933295 12
1.2976578 -0.57802594 -0.12428409 5
1.3485191 -0.60096341 0.28697675 13
1.3133962 -0.58558583 -0.075363785 6
1.3561382 -0.60492641 0.34282541 14
1.3166198 -0.58757412 -0.02516637 7
1.3565241 -0.6056664 0.39806372 15
1.2711569 -0.56941485 -0.37321708 0
1.3083959 -0.58637023 0.02502675 8
1.2607309 -0.56527299 -0.3189806 1
1.3193535 -0.59183413 0.07578247 9
1.280769 -0.57452595 -0.27285689 2
1.3178513 -0.59143668 0.12637582 10
1.2848713 -0.57690501 -0.22307558 3
1.329116 -0.59704959 0.17890421 11
1.3036627 -0.58588922 -0.17549187 4
1.324205 -0.59539914 0.22995868 12
1.3029008 -0.58582014 -0.12498133 5
1.3392513 -0.60244536 0.28545028 13
1.3004162 -0.58524883 -0.074735753 6
1.3540183 -0.60965657 0.34282541 14
1.3255002 -0.5970943 -0.0253758 7
1.3614467 -0.6135729 0.40013427 15
1.2762027 -0.57703221 -0.37528762 0
1.3136289 -0.59423059 0.02516637 8
1.2605253 -0.57047379 -0.3194305 1
1.3172795 -0.59643596 0.07578247 9
1.2787557 -0.5789932 -0.27285689 2
1.3230382 -0.59932166 0.12707306 10
1.2900466 -0.58464819 -0.22432704 3
1.3143682 -0.59594733 0.17719805 11
1.2871473 -0.58387595 -0.17354195 4
1.3347104 -0.60573232 0.23214878 12
1.3044767 -0.59201139 -0.12532996 5
1.3442906 -0.61036319 0.28697675 13
1.2910917 -0.5864805 -0.074317068 6
1.3483338 -0.61276668 0.34192562 14
1.3197672 -0.60006213 -0.025305988 7
1.3592967 -0.61832148 0.40013427 15
1.2741807 -0.58148342 -0.37528762 0
1.3151848 -0.60047346 0.02523618 8
1.2620715 -0.57648969 -0.32033029 1
1.3062109 -0.59665173 0.075259112 9
1.2731556 -0.58182132 -0.27209365 2
1.3173143 -0.60227942 0.12672445 10
1.2879978 -0.58914769 -0.22432704 3
1.3249154 -0.606314 0.17890421 11
1.2778817 -0.58505994 -0.172567 4
1.3129373 -0.60110962 0.22870721 12
1.3096478 -0.59988004 -0.12602721 5
1.3457214 -0.6166876 0.28773996 13
1.2926677 -0.59264833 -0.074526407 6
1.3355588 -0.61259472 0.33922619 14
1.3141348 -0.602768 -0.02523618 7
1.3642619 -0.62604851 0.40220481 15
1.2651243 -0.58269495 -0.37321708 0
1.3150026 -0.60566801 0.025271084 8
1.2654624 -0.58311838 -0.32168001 1
1.3095616 -0.60371619 0.075573131 9
1.2639858 -0.58297294 -0.27056718 2
1.3115858 -0.60520446 0.12637582 10
1.2896245 -0.5950709 -0.22495279 3
1.3246999 -0.61153615 0.17914794 11
1.2903519 -0.59595299 -0.17451692 4
1.3126243 -0.60651761 0.22902009 12
1.3039287 -0.60277587 -0.12567857 5
1.3472332 -0.62279445 0.28850323 13
1.2979465 -0.60028529 -0.074945092 6
1.3370572 -0.61865693 0.34012601 14
1.3083932 -0.60567141 -0.02516637 7
1.3550564 -0.62755954 0.40013427 15
1.2526733 -0.58200312 -0.37011126 0
1.3056269 -0.60688299 0.025131466 8
1.2651862 -0.58835381 -0.32212991 1
1.3165007 -0.6124962 0.07609649 9
1.2656057 -0.58881754 -0.27133042 2
1.30054 -0.60534674 0.12550427 10
1.276795 -0.59456557 -0.22307558 3
1.3279552 -0.61867142 0.17987917 11
1.290063 -0.60129213 -0.17476064 4
1.3176605 -0.6144352 0.23027156 12
1.2784483 -0.59615028 -0.12341253 5
1.3379344 -0.62417334 0.28697675 13
1.3030825 -0.60819119 -0.075363785 6
1.3419526 -0.62661839 0.34192562 14
1.3098947 -0.61192763 -0.02523618 7
1.3423567 -0.62737787 0.39702842 15
1.2611288 -0.5912928 -0.37321708 0
1.2962589 -0.60803986 0.024991846 8
1.2560682 -0.58945507 -0.32033029 1
1.3161625 -0.61793673 0.076201163 9
1.2706512 -0.59656924 -0.27285689 2
1.3074359 -0.61411804 0.12637582 10
1.2747117 -0.59901881 -0.22307558 3
1.311416 -0.61654645 0.17792925 11
1.2933452 -0.60832632 -0.17549187 4
1.3155077 -0.61903083 0.23027156 12
1.2835706 -0.60400248 -0.12410977 5
1.3321949 -0.62716734 0.28621352 13
1.2864965 -0.60592788 -0.074526407 6
1.3432827 -0.63296014 0.34282541 14
1.3113682 -0.61820161 -0.025305988 7
1.3471476 -0.63535607 0.39909899 15
1.2590572 -0.59569138 -0.37321708 0
1.3013582 -0.61598313 0.025131466 8
1.246958 -0.59049976 -0.31853068 1
1.3067776 -0.61910677 0.07578247 9
1.2721093 -0.60268211 -0.2736201 2
1.3088851 -0.62038487 0.12672445 10
1.2761828 -0.60515743 -0.22370131 3
1.3092557 -0.62112039 0.17792925 11
1.2804538 -0.60773033 -0.17402944 4
1.318692 -0.62616098 0.23121016 12
1.2850542 -0.6101886 -0.1244584 5
1.3299975 -0.6318137 0.28621352 13
1.2807658 -0.60870034 -0.074317068 6
1.3305055 -0.63262439 0.34012601 14
1.312814 -0.62449342 -0.0253758 7
1.3553879 -0.64503556 0.40220481 15
1.2604569 -0.60174727 -0.37425235 0
1.3064179 -0.62396926 0.025271084 8
1.2466476 -0.59568906 -0.3189806 1
1.295599 -0.61935741 0.075259112 9
1.2611417 -0.60288519 -0.27171201 2
1.3103062 -0.62666917 0.12707306 10
1.2740626 -0.60960847 -0.22370131 3
1.3106608 -0.62740099 0.17841674 11
1.2711631 -0.60876656 -0.17305449 4
1.307591 -0.62649256 0.22964582 12
1.2829164 -0.61467052 -0.1244584 5
1.3348655 -0.6398468 0.28773996 13
1.2894386 -0.6183489 -0.074945092 6
1.3282892 -0.63726491 0.34012601 14
1.2998093 -0.62388039 -0.02516637 7
1.353128 -0.64976281 0.40220481 15
1.2583488 -0.60614341 -0.37425235 0
1.3006291 -0.62678945 0.025201276 8
1.2586036 -0.60680753 -0.3225798 1
1.2970269 -0.62561148 0.075468451 9
1.2572612 -0.60643077 -0.27133042 2
1.304522 -0.62950742 0.12672445 10
1.2790426 -0.61748731 -0.22495279 3
1.3209753 -0.63801563 0.1801229 11
1.2851167 -0.62097293 -0.17524813 4
1.3036177 -0.63019335 0.22933295 12
1.2771754 -0.61741066 -0.12410977 5
1.3326238 -0.64450246 0.28773996 13
1.290868 -0.62458599 -0.075154446 6
1.3260566 -0.64189762 0.34012601 14
1.3012232 -0.63015693 -0.02523618 7
1.3404205 -0.64942825 0.39909899 15
1.2423251 -0.60377663 -0.37011126 0
1.2948365 -0.62957686 0.025131466 8
1.2582303 -0.61204964 -0.32302973 1
1.3020188 -0.63363105 0.075887144 9
1.2551366 -0.61081576 -0.27133042 2
1.2915685 -0.62882423 0.12567857 10
1.2733275 -0.62021822 -0.22432704 3
1.3223093 -0.64436197 0.18061039 11
1.2740196 -0.62110561 -0.17402944 4
1.30141 -0.63474005 0.22933295 12
1.271431 -0.62011832 -0.12376115 5
1.3268372 -0.64742845 0.28697675 13
1.28868 -0.6290881 -0.075154446 6
1.32731 -0.64823288 0.3410258 14
1.2990156 -0.63469523 -0.02523618 7
1.3346742 -0.65240657 0.39806372 15
1.2471482 -0.61151147 -0.3721818 0
1.2854497 -0.63057011 0.024991846 8
1.2438401 -0.61042815 -0.3198804 1
1.2997991 -0.63817209 0.075887144 9
1.2600461 -0.61865431 -0.27285689 2
1.2983072 -0.63772088 0.12655014 10
1.2622904 -0.62030309 -0.2227627 3
1.3075818 -0.64284319 0.17890421 11
1.2754062 -0.62730116 -0.17451692 4
1.3062761 -0.64276749 0.23058443 12
1.2728339 -0.6263119 -0.12410977 5
1.3140008 -0.64685339 0.28468704 13
1.2828927 -0.63181782 -0.074945092 6
1.3320315 -0.65630728 0.34282541 14
1.3003794 -0.64099401 -0.025305988 7
1.3393193 -0.66047919 0.40013427 15
1.2484691 -0.61757421 -0.37321708 0
1.2904097 -0.63860112 0.025131466 8
1.2382089 -0.61303693 -0.3189806 1
1.2939841 -0.64093238 0.075677805 9
1.2631568 -0.6256631 -0.27400175 2
1.2978585 -0.64313352 0.12672445 10
1.2636572 -0.62646037 -0.22338845 3
1.2946596 -0.64211142 0.17744178 11
1.2660959 -0.62822008 -0.17354195 4
1.3057938 -0.64820164 0.23089729 12
1.2777784 -0.63429469 -0.12480702 5
1.3222849 -0.6566757 0.28697675 13
1.2663701 -0.62918264 -0.074107721 6
1.3262423 -0.65921819 0.34192562 14
1.3017151 -0.64731008 -0.0253758 7
1.3404648 -0.66687113 0.40116954 15
1.249763 -0.62365365 -0.37425235 0
1.291751 -0.64488792 0.025201276 8
1.2360615 -0.61735535 -0.3189806 1
1.286379 -0.64276707 0.075363785 9
1.2539402 -0.62655836 -0.27247527 2
1.2991698 -0.64944172 0.12707306 10
1.2667629 -0.63351822 -0.22432704 3
1.3012868 -0.65106785 0.17866047 11
1.2603451 -0.63085866 -0.17305449 4
1.2999907 -0.65098679 0.23027156 12
1.2755566 -0.63875109 -0.12480702 5
1.327006 -0.66480476 0.28850323 13
1.2713083 -0.63717896 -0.074526407 6
1.316965 -0.66034967 0.34012601 14
1.2958728 -0.65005666 -0.025305988 7
1.3381289 -0.67154622 0.40116954 15
1.2406762 -0.62453777 -0.3721818 0
1.2984222 -0.65389031 0.0253758 8
1.2356393 -0.62254304 -0.3194305 1
1.2912616 -0.6508494 0.07578247 9
1.2429798 -0.62651336 -0.27056718 2
1.2933369 -0.65217859 0.12672445 10
1.2698348 -0.64060533 -0.22526565 3
1.2990062 -0.65560621 0.17866047 11
1.2616793 -0.63704371 -0.17354195 4
1.2906575 -0.65195805 0.22902009 12
1.2662055 -0.63960642 -0.12410977 5
1.3211727 -0.66766179 0.28773996 13
1.2833357 -0.64882189 -0.075363785 6
1.314652 -0.66494274 0.34012601 14
1.2935957 -0.65457618 -0.025305988 7
1.3237114 -0.67010522 0.39754605 15
1.2315985 -0.62536621 -0.37011126 0
1.2836516 -0.65207899 0.025131466 8
1.2595177 -0.64009577 -0.32617903 1
1.2908766 -0.65603262 0.075887144 9
1.2512856 -0.63618696 -0.27285689 2
1.283949 -0.65307599 0.12602721 10
1.2587882 -0.64055461 -0.22370131 3
1.3073241 -0.6655401 0.1801229 11
1.266636 -0.64482647 -0.17451692 4
1.2884885 -0.65623444 0.22902009 12
1.2639651 -0.64402246 -0.12410977 5
1.3153359 -0.67048633 0.28697675 13
1.2775047 -0.65148282 -0.075154446 6
1.3228559 -0.67461044 0.34282541 14
1.2878555 -0.65704477 -0.02523618 7
1.3232028 -0.6753695 0.39806372 15
1.2363963 -0.63296825 -0.3721818 0
1.2743629 -0.65268588 0.024991846 8
1.2487165 -0.63982576 -0.32392952 1
1.295804 -0.66395283 0.076305829 9
1.249169 -0.64033288 -0.27285689 2
1.2853221 -0.65914851 0.12637582 10
1.2478694 -0.64021683 -0.22213697 3
1.2927476 -0.66352659 0.17841674 11
1.2662568 -0.6499297 -0.17476064 4
1.291577 -0.66321057 0.22995868 12
1.2724559 -0.65367275 -0.12515564 5
1.3061208 -0.67125481 0.28545028 13
1.2682322 -0.65206265 -0.074735753 6
1.3240777 -0.68077564 0.34372523 14
1.2927825 -0.66497058 -0.0253758 7
1.3312625 -0.68505734 0.40116954 15
1.2377238 -0.63883692 -0.37321708 0
1.2792987 -0.66057807 0.025131466 8
1.2275428 -0.63412488 -0.3189806 1
1.2828326 -0.66297013 0.075677805 9
1.2522709 -0.64717585 -0.27400175 2
1.293748 -0.66889739 0.12742169 10
1.2527578 -0.64798152 -0.22338845 3
1.2817249 -0.6632483 0.17719805 11
1.2604547 -0.6525206 -0.17427318 4
1.2945163 -0.67044032 0.23089729 12
1.2667429 -0.65605623 -0.12480702 5
1.3108603 -0.67919511 0.28697675 13
1.2625165 -0.6544264 -0.074526407 6
1.3113135 -0.68001068 0.3410258 14
1.2904536 -0.66947913 -0.0253758 7
1.3254337 -0.68792033 0.40013427 15
1.2354864 -0.64315349 -0.37321708 0
1.2840794 -0.66873431 0.025271084 8
1.2253219 -0.63840586 -0.3189806 1
1.2716551 -0.66282827 0.075154446 9
1.2395586 -0.64609849 -0.27171201 2
1.2914053 -0.67340934 0.12742169 10
1.2574936 -0.65600514 -0.22463992 3
1.2864413 -0.67139208 0.17817299 11
1.2564096 -0.65599769 -0.17402944 4
1.2921681 -0.67495489 0.23089729 12
1.2715091 -0.66416383 -0.12550427 5
1.3154414 -0.68740386 0.28850323 13
1.2673043 -0.66253066 -0.074945092 6
1.3020245 -0.68097126 0.33922619 14
1.2845651 -0.6721254 -0.025305988 7
1.3264475 -0.69433451 0.40116954 15
1.229813 -0.64566624 -0.3721818 0
1.2764262 -0.67042291 0.02516637 8
1.226536 -0.64449209 -0.3198804 1
1.2817087 -0.6737684 0.075887144 9
1.2338202 -0.64859438 -0.2709488 2
1.2802298 -0.67327625 0.12655014 10
1.2499516 -0.65763134 -0.22370131 3
1.2911164 -0.67957693 0.17914794 11
1.2593814 -0.66315401 -0.17476064 4
1.2775702 -0.67301655 0.22870721 12
1.2621319 -0.66488367 -0.12480702 5
1.3130339 -0.69199139 0.28850323 13
1.2685175 -0.66881335 -0.075154446 6
1.3065342 -0.68914878 0.3410258 14
1.2751367 -0.67287225 -0.02516637 7
1.3171819 -0.69535291 0.39909899 15
1.2275517 -0.64995515 -0.3721818 0
1.2723111 -0.67393839 0.025131466 8
1.2328885 -0.65333194 -0.32212991 1
1.2758198 -0.67636734 0.075677805 9
1.2454252 -0.66025388 -0.27400175 2
1.2725915 -0.67494035 0.12602721 10
1.2459036 -0.66106462 -0.22338845 3
1.2957498 -0.68780243 0.1801229 11
1.2588123 -0.66847706 -0.17500439 4
1.2821912 -0.68117911 0.22995868 12
1.2562845 -0.66741586 -0.1244584 5
1.303676 -0.69288492 0.28697675 13
1.2661752 -0.67323732 -0.075154446 6
1.3110026 -0.69736594 0.34282541 14
1.2763109 -0.67919809 -0.02523618 7
1.3147467 -0.69994646 0.39909899 15
1.2286837 -0.65605599 -0.37321708 0
1.2628957 -0.67460674 0.024991846 8
1.2185694 -0.65120214 -0.3189806 1
1.2875417 -0.68834984 0.076515175 9
1.2361875 -0.66089469 -0.27247527 2
1.2772553 -0.68313712 0.12672445 10
1.238363 -0.66261375 -0.22244984 3
1.2863406 -0.68857396 0.17914794 11
1.2599709 -0.67474133 -0.17549187 4
1.2850293 -0.68844926 0.23089729 12
1.2574594 -0.67367882 -0.12480702 5
1.2977886 -0.69557655 0.28621352 13
1.2602971 -0.67576528 -0.074945092 6
1.3119949 -0.70378029 0.34372523 14
1.2809803 -0.6874314 -0.0253758 7
1.3191037 -0.70818675 0.40116954 15
1.2280872 -0.66125679 -0.37373474 0
1.2675751 -0.68280429 0.025131466 8
1.2162888 -0.65545183 -0.3189806 1
1.2745829 -0.68715322 0.075887144 9
1.2407855 -0.66893238 -0.27400175 2
1.281877 -0.69137454 0.12742169 10
1.2412581 -0.66974646 -0.22338845 3
1.2717013 -0.68645936 0.17744178 11
1.2506213 -0.67536241 -0.17451692 4
1.2826184 -0.69293064 0.23089729 12
1.262112 -0.68185216 -0.12550427 5
1.3022612 -0.70383626 0.28773996 13
1.2509029 -0.67636067 -0.074526407 6
1.3026741 -0.70464706 0.34192562 14
1.2820902 -0.69380212 -0.025445608 7
1.3200214 -0.71462637 0.40220481 15
1.2376556 -0.67199224 -0.37735817 0
1.2739701 -0.69199723 0.025305988 8
1.2191303 -0.66248477 -0.32033029 1
1.2686671 -0.68969035 0.075677805 9
1.2315435 -0.6695087 -0.27247527 2
1.2759554 -0.69394106 0.12707306 10
1.2441181 -0.67690742 -0.22432704 3
1.2797586 -0.69658846 0.17890421 11
1.2447696 -0.67782509 -0.17402944 4
1.268049 -0.69078863 0.22870721 12
1.2632235 -0.68815988 -0.1258529 5
1.2997963 -0.70837772 0.28773996 13
1.2590557 -0.68645942 -0.075154446 6
1.2933632 -0.70545739 0.34012601 14
1.2691286 -0.6925261 -0.02523618 7
1.3141276 -0.7173785 0.40116954 15
1.2217463 -0.66888648 -0.37321708 0
1.2733005 -0.69740057 0.025340894 8
1.2185193 -0.66767281 -0.32078022 1
1.2680032 -0.69507468 0.07578247 9
1.2257558 -0.67191613 -0.27171201 2
1.2700316 -0.69647479 0.12672445 10
1.2452115 -0.68314642 -0.22495279 3
1.2825398 -0.70391667 0.17963544 11
1.245876 -0.68407685 -0.17451692 4
1.2690927 -0.69711286 0.22933295 12
1.257321 -0.69064665 -0.12550427 5
1.304198 -0.71669251 0.28926644 13
1.256652 -0.6908502 -0.075154446 6
1.3011379 -0.71560246 0.34282541 14
1.2737114 -0.70080793 -0.0253758 7
1.3082308 -0.72009814 0.40013427 15
1.2143303 -0.67034626 -0.37166417 0
1.265607 -0.69894081 0.02523618 8
1.2212985 -0.67474931 -0.32212991 1
1.2708133 -0.70239508 0.07609649 9
1.230276 -0.67998958 -0.27323848 2
1.2623618 -0.69801146 0.12620151 10
1.2393621 -0.68557644 -0.22432704 3
1.2783382 -0.70742816 0.1793917 11
1.2434806 -0.68842155 -0.17451692 4
1.2735637 -0.70536691 0.23058443 12
1.2479309 -0.69117004 -0.12480702 5
1.2913848 -0.71553171 0.28697675 13
1.2647138 -0.70104223 -0.07578247 6
1.2986321 -0.72013986 0.34282541 14
1.2677602 -0.70330948 -0.025305988 7
1.2989526 -0.72091043 0.39806372 15
1.2136708 -0.67552042 -0.3721818 0
1.2579181 -0.70043582 0.025131466 8
1.212126 -0.67521495 -0.32033029 1
1.2683538 -0.70682675 0.07609649 9
1.2278949 -0.68427986 -0.27323848 2
1.261658 -0.70338386 0.12637582 10
1.2335111 -0.6879741 -0.22370131 3
1.268927 -0.70801717 0.17841674 11
1.2480031 -0.69662809 -0.17549187 4
1.2693692 -0.70884508 0.23027156 12
1.2489897 -0.6974647 -0.12515564 5
1.2854515 -0.7181201 0.28621352 13
1.2448245 -0.69570881 -0.074735753 6
1.2995124 -0.72657067 0.34372523 14
1.2722782 -0.71163523 -0.025445608 7
1.3031716 -0.72921371 0.40013427 15
1.2146748 -0.68164372 -0.37321708 0
1.2554656 -0.70482248 0.025131466 8
1.2063636 -0.67753345 -0.3194305 1
1.2625201 -0.70907283 0.075887144 9
1.2254989 -0.68856192 -0.27323848 2
1.2661421 -0.71168864 0.12707306 10
1.2379894 -0.69614851 -0.22495279 3
1.2647176 -0.71146888 0.17817299 11
1.2421042 -0.69903308 -0.17500439 4
1.272176 -0.71595693 0.23121016 12
1.2500198 -0.70377523 -0.12550427 5
1.2897792 -0.72645664 0.28773996 13
1.2458684 -0.70201075 -0.074945092 6
1.2901779 -0.72727454 0.34192562 14
1.2733954 -0.71781421 -0.025515417 7
1.3108425 -0.73922485 0.40324008 15
1.2190136 -0.68968475 -0.37528762 0
1.2600831 -0.71292078 0.025271084 8
1.2142856 -0.68728954 -0.32212991 1
1.2548233 -0.71052325 0.075573131 9
1.2230879 -0.69283545 -0.27323848 2
1.267117 -0.71806842 0.12742169 10
1.2356741 -0.70024997 -0.22495279 3
1.2588975 -0.71370095 0.17768551 11
1.2363257 -0.70118952 -0.17451692 4
1.2696691 -0.72039336 0.23121016 12
1.251021 -0.71010131 -0.1258529 5
1.2907779 -0.73266804 0.28850323 13
1.2504808 -0.71008331 -0.075363785 6
1.2809814 -0.72769868 0.34012601 14
1.2604507 -0.71632659 -0.025305988 7
1.3048954 -0.74188632 0.40220481 15
1.2066505 -0.68798214 -0.3721818 0
1.257587 -0.7173149 0.025271084 8
1.2068015 -0.68862659 -0.32078022 1
1.2558045 -0.71687943 0.07578247 9
1.2173736 -0.69494098 -0.27247527 2
1.2612685 -0.72029042 0.12707306 10
1.2400831 -0.70847875 -0.22620426 3
1.2770801 -0.72991133 0.18061039 11
1.2390404 -0.70845687 -0.17524813 4
1.2620027 -0.72187853 0.23027156 12
1.2417415 -0.71028888 -0.12515564 5
1.2916205 -0.73911941 0.28926644 13
1.2514611 -0.71642858 -0.075573131 6
1.2851976 -0.73603964 0.34192562 14
1.2544725 -0.71873391 -0.02523618 7
1.2989457 -0.74451542 0.40116954 15
1.2008919 -0.69026458 -0.3711465 0
1.2550753 -0.72170037 0.025271084 8
1.2145255 -0.6986652 -0.32347962 1
1.2567567 -0.72325093 0.075991817 9
1.2149404 -0.69918615 -0.27247527 2
1.2587466 -0.72468859 0.12707306 10
1.2307553 -0.70885944 -0.22495279 3
1.2710843 -0.73238266 0.1801229 11
1.2434392 -0.71674299 -0.17622308 4
1.2611865 -0.72726607 0.23058443 12
1.2358027 -0.71262842 -0.12480702 5
1.2788292 -0.7377373 0.28697675 13
1.2524124 -0.72278929 -0.07578247 6
1.2893711 -0.7444188 0.34372523 14
1.2554191 -0.7251088 -0.025305988 7
1.2896481 -0.745179 0.39909899 15
1.2051611 -0.69832641 -0.37321708 0
1.2456284 -0.72206551 0.025131466 8
1.2002788 -0.69605714 -0.32033029 1
1.2576796 -0.72963798 0.076201163 9
1.219285 -0.70736355 -0.27400175 2
1.252763 -0.72707796 0.12672445 10
1.2248569 -0.71116757 -0.22432704 3
1.261654 -0.73282695 0.17914794 11
1.2409297 -0.72107911 -0.17622308 4
1.2637634 -0.73464227 0.23152302 12
1.2401975 -0.72094315 -0.12550427 5
1.2796404 -0.74417055 0.28773996 13
1.2429763 -0.72313905 -0.075363785 6
1.2901332 -0.75087547 0.34462503 14
1.247696 -0.72646803 -0.025201276 7
1.2937164 -0.75356561 0.40116954 15
1.2060525 -0.70447785 -0.37425235 0
1.2465534 -0.72842699 0.025201276 8
1.1944771 -0.69827574 -0.3194305 1
1.2516768 -0.73200703 0.075991817 9
1.213419 -0.70963305 -0.27323848 2
1.2536566 -0.7334587 0.12707306 10
1.2257767 -0.71743453 -0.22495279 3
1.2556623 -0.73522043 0.17866047 11
1.2298409 -0.72038966 -0.17500439 4
1.2663044 -0.7420454 0.23246165 12
1.2342355 -0.72325325 -0.12515564 5
1.2804224 -0.7506187 0.28850323 13
1.2301075 -0.72141117 -0.074735753 6
1.2740579 -0.74748528 0.3410258 14
1.2537756 -0.73587996 -0.0253758 7
1.2977418 -0.76198953 0.40324008 15
1.2069154 -0.71064371 -0.37528762 0
1.247449 -0.73480368 0.025271084 8
1.198748 -0.70639843 -0.32123011 1
1.2473935 -0.73535752 0.075887144 9
1.2109345 -0.71386445 -0.27323848 2
1.2579535 -0.74187869 0.12777032 10
1.2266675 -0.72371632 -0.22557852 3
1.2530881 -0.73959899 0.17866047 11
1.2204813 -0.72064102 -0.17402944 4
1.2569032 -0.74244249 0.23121016 12
1.241996 -0.73363698 -0.12620151 5
1.2811748 -0.75708115 0.28926644 13
1.234459 -0.72976625 -0.075154446 6
1.2714409 -0.75192797 0.3410258 14
1.2511992 -0.74025196 -0.0253758 7
1.2983989 -0.76848274 0.40427536 15
1.2500349 -0.74221647 0.0253758 8
1.192924 -0.708588 -0.32033029 1
1.246536 -0.74072748 0.075991817 9
1.2050599 -0.71608114 -0.27247527 2
1.2433678 -0.7391386 0.12655014 10
1.2190403 -0.72496474 -0.22463992 3
1.2624408 -0.75107336 0.18036664 11
1.2247818 -0.72895801 -0.17500439 4
1.249212 -0.74379361 0.23027156 12
1.2325801 -0.73389071 -0.12550427 5
1.2785244 -0.76154864 0.28926644 13
1.2387671 -0.73816037 -0.075573131 6
1.2688084 -0.7563616 0.3410258 14
1.2451726 -0.74256647 -0.025305988 7
1.2874132 -0.76806152 0.40168718 15
1.2422888 -0.74349457 0.025271084 8
1.1971312 -0.71675205 -0.32212991 1
1.2542233 -0.75123191 0.076619849 9
1.2059214 -0.72230089 -0.27323848 2
1.2459073 -0.74654645 0.12707306 10
1.2131138 -0.7271843 -0.22401418 3
1.2598113 -0.75547546 0.18036664 11
1.2273363 -0.73629236 -0.17573561 4
1.2483017 -0.74916607 0.23058443 12
1.226594 -0.73613816 -0.12515564 5
1.2691255 -0.76196474 0.28773996 13
1.2361829 -0.74248004 -0.075573131 6
1.272842 -0.76480067 0.34282541 14
1.2494285 -0.75102925 -0.025445608 7
1.2797577 -0.76956409 0.40013427 15
1.2294124 -0.74162894 0.025061656 8
1.1946219 -0.7209264 -0.32212991 1
1.255013 -0.75766987 0.076829188 9
1.2050734 -0.72752053 -0.2736201 2
1.2432939 -0.75089085 0.12707306 10
1.2054957 -0.72834986 -0.22307558 3
1.2486722 -0.75473422 0.17914794 11
1.2264575 -0.74159926 -0.17597936 4
1.2592008 -0.76169831 0.23308739 12
1.224017 -0.74041533 -0.12515564 5
1.2630987 -0.76435727 0.28697675 13
1.2301666 -0.74472189 -0.075363785 6
1.2768322 -0.77327704 0.34462503 14
1.2399583 -0.75124121 -0.025305988 7
1.2869761 -0.7800346 0.40324008 15
1.2404853 -0.75422686 0.025340894 8
1.1804436 -0.71800315 -0.3189806 1
1.2455357 -0.75789326 0.076410502 9
1.2109125 -0.73682535 -0.27552822 2
1.2474726 -0.75937015 0.12777032 10
1.2063203 -0.73460823 -0.22370131 3
1.2375537 -0.75392443 0.17792925 11
1.2204711 -0.74380964 -0.17549187 4
1.2565343 -0.76608908 0.23308739 12
1.2282296 -0.74883211 -0.1258529 5
1.2637751 -0.77080619 0.28773996 13
1.2207397 -0.74485022 -0.074945092 6
1.2674718 -0.77366805 0.34282541 14
1.2441549 -0.75973356 -0.025445608 7
1.2908398 -0.78855056 0.40531066 15
1.234435 -0.75646269 0.025271084 8
1.1895598 -0.72924876 -0.32212991 1
1.2360723 -0.75805968 0.075991817 9
1.2016387 -0.73694217 -0.27400175 2
1.2431163 -0.76267809 0.12759601 10
1.2071158 -0.7408812 -0.22432704 3
1.2484478 -0.76654917 0.17987917 11
1.2111014 -0.74390948 -0.17451692 4
1.2420713 -0.76323104 0.23089729 12
1.2290032 -0.75520098 -0.12620151 5
1.2677667 -0.77932543 0.28926644 13
1.2215348 -0.75119942 -0.075154446 6
1.2597841 -0.77502441 0.34147573 14
1.2414954 -0.76407176 -0.025445608 7
1.2847892 -0.79102594 0.40427536 15
1.2385924 -0.76497024 0.025410704 8
1.1870071 -0.73339677 -0.32212991 1
1.2334187 -0.76236975 0.075991817 9
1.195719 -0.73906773 -0.27323848 2
1.2319734 -0.76177365 0.12672445 10
1.2078823 -0.74716866 -0.22495279 3
1.2542046 -0.77612537 0.18109787 11
1.2152486 -0.75231206 -0.17549187 4
1.2360407 -0.76548207 0.23027156 12
1.2229718 -0.75738847 -0.1258529 5
1.261701 -0.78167814 0.28850323 13
1.2256958 -0.75966746 -0.075573131 6
1.263696 -0.78352463 0.34327531 14
1.2320235 -0.76418465 -0.025305988 7
1.2787372 -0.79346877 0.40324008 15
1.2291238 -0.76506221 0.025271084 8
1.1943654 -0.74371612 -0.32482934 1
1.2392262 -0.77195072 0.076515175 9
1.1997974 -0.74738932 -0.27476496 2
1.2293068 -0.76606935 0.12672445 10
1.1985614 -0.74720031 -0.22370131 3
1.248119 -0.77839768 0.18061039 11
1.2176678 -0.75970179 -0.17622308 4
1.235037 -0.77083784 0.23058443 12
1.2135599 -0.75743312 -0.12515564 5
1.2589647 -0.78607756 0.28850323 13
1.2264246 -0.76605749 -0.07578247 6
1.2675637 -0.79206169 0.34507492 14
1.2327398 -0.7706005 -0.0253758 7
1.2677699 -0.79280609 0.4006519 15
1.2230579 -0.7672227 0.025201276 8
1.2417347 -0.77924073 0.076829188 9
1.1955185 -0.75052893 -0.27438337 2
1.2367486 -0.77671367 0.12777032 10
1.195946 -0.75137943 -0.22370131 3
1.2403522 -0.77958053 0.17987917 11
1.2150085 -0.76394761 -0.17622308 4
1.2475245 -0.78439236 0.23340026 12
1.2176546 -0.76590788 -0.1258529 5
1.2462432 -0.78419381 0.28621352 13
1.2136016 -0.76394981 -0.075154446 6
1.2680892 -0.79855847 0.34597474 14
1.236946 -0.77894652 -0.025515417 7
1.2684031 -0.79906523 0.40168718 15
1.2238878 -0.77341074 0.025271084 8
1.2288791 -0.77716523 0.076201163 9
1.1962094 -0.75679678 -0.27514657 2
1.2323464 -0.77996039 0.12759601 10
1.195117 -0.75639766 -0.22401418 3
1.2310516 -0.77944189 0.17890421 11
1.2141455 -0.76903474 -0.17646682 4
1.2431103 -0.78768504 0.23308739 12
1.2183391 -0.77228689 -0.12620151 5
1.2569013 -0.79673088 0.28926644 13
1.2144349 -0.7701093 -0.075363785 6
1.2555608 -0.79649568 0.34327531 14
1.2342196 -0.78325939 -0.025515417 7
1.268868 -0.8055588 0.40272245 15
1.2279276 -0.78197479 0.025410704 8
1.2227901 -0.77930325 0.075991817 9
1.1870707 -0.75653875 -0.2736201 2
1.228073 -0.78297156 0.12742169 10
1.1958003 -0.76268929 -0.22463992 3
1.2333436 -0.78693759 0.17963544 11
1.1980674 -0.76472378 -0.17451692 4
1.2353585 -0.78882992 0.23214878 12
1.2191299 -0.77846736 -0.12655014 5
1.2607305 -0.80534101 0.29079291 13
1.2151053 -0.77649468 -0.075573131 6
1.2462052 -0.79667509 0.34147573 14
1.2247394 -0.78325343 -0.0253758 7
1.2725576 -0.81414753 0.40479302 15
1.2268733 -0.78733629 0.025445608 8
1.2301456 -0.79004264 0.076619849 9
1.1844227 -0.76067775 -0.2736201 2
1.2236563 -0.78617662 0.12724738 10
1.203101 -0.77326709 -0.22651713 3
1.2422773 -0.79875314 0.18134159 11
1.2020688 -0.77319664 -0.17549187 4
1.2259526 -0.78886175 0.23089729 12
1.2063522 -0.77624953 -0.12550427 5
1.2546101 -0.80761164 0.2900297 13
1.2123874 -0.7807315 -0.075573131 6
1.2532461 -0.80735242 0.34417513 14
1.2085508 -0.77885777 -0.025096562 7
1.2632133 -0.81439751 0.40272245 15
1.2123634 -0.78401297 0.025201276 8
1.2307338 -0.79650211 0.076829188 9
1.1817602 -0.76480752 -0.2736201 2
1.2175596 -0.78827763 0.12689877 10
1.1904465 -0.77101892 -0.22463992 3
1.2378156 -0.80200517 0.18109787 11
1.2093573 -0.78386623 -0.1769543 4
1.2314788 -0.79850984 0.23246165 12
1.2036352 -0.78045571 -0.12550427 5
1.2484891 -0.80984914 0.28926644 13
1.2130055 -0.7871331 -0.07578247 6
1.2569585 -0.81596643 0.34597474 14
1.2192414 -0.7917847 -0.0253758 7
1.2538828 -0.81459206 0.4006519 15
1.2079439 -0.7871483 0.02516637 8
1.2246001 -0.7986114 0.076619849 9
1.1823723 -0.77107298 -0.27438337 2
1.2181379 -0.79470015 0.12724738 10
1.1827853 -0.77193075 -0.22370131 3
1.2283597 -0.80198014 0.1801229 11
1.2082758 -0.78916842 -0.17719805 4
1.2303375 -0.80388421 0.23277451 12
1.210911 -0.79119128 -0.12655014 5
1.242368 -0.81205404 0.28850323 13
1.2069073 -0.78917652 -0.075573131 6
1.2541026 -0.8203491 0.34597474 14
1.2198166 -0.79822558 -0.025445608 7
1.257497 -0.82319641 0.40272245 15
1.2118751 -0.79575044 0.025305988 8
1.2184666 -0.80068737 0.076410502 9
1.1845958 -0.77842993 -0.27552822 2
1.2186863 -0.80113631 0.12759601 10
1.1883358 -0.78148168 -0.22526565 3
1.2189193 -0.80189902 0.17914794 11
1.2005391 -0.79010725 -0.17646682 4
1.2341236 -0.81251901 0.23402599 12
1.1931649 -0.78555274 -0.12498133 5
1.242805 -0.81854552 0.28926644 13
1.2008096 -0.79118687 -0.075363785 6
1.2512314 -0.82472169 0.34597474 14
1.2270395 -0.80908346 -0.025655037 7
1.2610663 -0.83183587 0.40479302 15
1.2140932 -0.80328602 0.025410704 8
1.2090032 -0.80052513 0.075991817 9
1.1867821 -0.78581178 -0.27667305 2
1.2225264 -0.8097865 0.12829326 10
1.1872473 -0.78671616 -0.22557852 3
1.2243855 -0.81163293 0.18036664 11
1.1861931 -0.78661352 -0.17476064 4
1.218111 -0.80808574 0.23152302 12
1.1970568 -0.79411852 -0.12567857 5
1.2464833 -0.82722116 0.29079291 13
1.2046964 -0.79979223 -0.07578247 6
1.2386049 -0.82261544 0.34327531 14
1.207552 -0.80229557 -0.025305988 7
1.271026 -0.84478754 0.40893409 15
1.2112818 -0.80751914 0.025410704 8
1.2095243 -0.80695748 0.076201163 9
1.2147208 -0.81073081 0.12777032 10
1.1910654 -0.79524314 -0.22683001 3
1.2297987 -0.82141471 0.18158534 11
1.1933433 -0.7973665 -0.17622308 4
1.2152828 -0.81233287 0.23152302 12
1.1876518 -0.79386336 -0.12498133 5
1.2468523 -0.83374971 0.29155618 13
1.2085376 -0.80843455 -0.076201163 6
1.2422041 -0.83126926 0.34507492 14
1.1980971 -0.80205619 -0.02516637 7
1.2520179 -0.83846933 0.40375772 15
1.2084557 -0.81174231 0.025410704 8
1.2133304 -0.81563169 0.076619849 9
1.2085768 -0.81274229 0.12742169 10
1.1850042 -0.79719073 -0.22620426 3
1.2302176 -0.82791919 0.18207282 11
1.1971395 -0.80596167 -0.17719805 4
1.2173553 -0.81988049 0.23246165 12
1.1848735 -0.79800415 -0.12498133 5
1.240678 -0.83590287 0.29079291 13
1.2023958 -0.81041563 -0.075991817 6
1.2392949 -0.8356002 0.34507492 14
1.2135264 -0.81853378 -0.025550324 7
1.2458808 -0.84067357 0.40272245 15
1.2006466 -0.81259328 0.025305988 8
1.2170905 -0.82434219 0.077038541 9
1.2090313 -0.81919134 0.12777032 10
1.1724032 -0.79467231 -0.22432704 3
1.2191051 -0.8266381 0.18085413 11
1.1959617 -0.81124985 -0.17744178 4
1.2210242 -0.82856154 0.23371312 12
1.1853781 -0.80437285 -0.12532996 5
1.2312551 -0.83581793 0.28926644 13
1.2028642 -0.81685203 -0.076201163 6
1.2428185 -0.8443014 0.34687454 14
1.204046 -0.81826878 -0.025410704 7
1.2461338 -0.84718961 0.40375772 15
1.2027591 -0.8201592 0.025410704 8
1.2043072 -0.82183057 0.076410502 9
1.2111009 -0.82677674 0.12829326 10
1.1761473 -0.80321604 -0.22557852 3
1.2112949 -0.82752901 0.1801229 11
1.1865669 -0.81093925 -0.17646682 4
1.2246473 -0.83727831 0.23496459 12
1.1891419 -0.81300366 -0.12602721 5
1.234812 -0.84454411 0.29079291 13
1.1901155 -0.81427902 -0.075573131 6
1.2334311 -0.84423172 0.34507492 14
1.2127322 -0.83037502 -0.025655037 7
1.2463567 -0.8537178 0.40479302 15
1.2031854 -0.82661718 0.025480513 8
1.1999292 -0.82468855 0.076305829 9
1.2114908 -0.83325738 0.12864187 10
1.1749638 -0.80843633 -0.2258914 3
1.2116693 -0.83400333 0.18061039 11
1.1788239 -0.81169879 -0.17573561 4
1.2088482 -0.83237249 0.23246165 12
1.19286 -0.82167041 -0.12672445 5
1.238323 -0.85330516 0.29231939 13
1.1971323 -0.82522953 -0.076201163 6
1.2304766 -0.84853208 0.34507492 14
1.2033869 -0.82985109 -0.025515417 7
1.2530599 -0.86442804 0.40789884 15
1.2103043 -0.83742952 0.025689943 8
1.2036114 -0.8334201 0.076724522 9
1.2052995 -0.83521146 0.12829326 10
1.1803949 -0.81795382 -0.22745575 3
1.2186857 -0.84480232 0.18207282 11
1.1777571 -0.81673467 -0.17597936 4
1.2059354 -0.83658713 0.23246165 12
1.1801635 -0.8190136 -0.12567857 5
1.2354865 -0.85740685 0.29231939 13
1.1976703 -0.83147287 -0.076410502 6
1.235659 -0.85816586 0.34732443 14
1.1971984 -0.83176482 -0.025445608 7
1.2436894 -0.86438662 0.40582827 15
1.1975309 -0.83478779 0.025480513 8
1.2072471 -0.84218729 0.077143207 9
1.1976217 -0.83578318 0.12777032 10
1.1807718 -0.82433063 -0.22808148 3
1.2189842 -0.85132438 0.18256028 11
1.1846627 -0.82766235 -0.17744178 4
1.2094841 -0.84531796 0.23371312 12
1.1692756 -0.81721586 -0.12480702 5
1.2260501 -0.85721451 0.29079291 13
1.1947607 -0.83564842 -0.076410502 6
1.2326559 -0.86247391 0.34732443 14
1.2008408 -0.84052539 -0.025585229 7
1.2374996 -0.86650658 0.40479302 15
1.1913368 -0.83666438 0.025410704 8
1.2092022 -0.84984148 0.077457219 9
1.2012163 -0.84454226 0.12846756 10
1.206264 -0.84872061 0.18109787 11
1.1833898 -0.83293498 -0.17768551 4
1.214602 -0.85522103 0.23527746 12
1.1713033 -0.82473367 -0.12532996 5
1.2198404 -0.8592279 0.2900297 13
1.1853058 -0.83521217 -0.075991817 6
1.2391948 -0.87350798 0.35002384 14
1.2011679 -0.84701681 -0.025655037 7
1.2376245 -0.87304819 0.40582827 15
1.1916739 -0.84312779 0.025480513 8
1.1964481 -0.84713244 0.076829188 9
1.199887 -0.84988171 0.12864187 10
1.2032942 -0.85292602 0.18109787 11
1.1739978 -0.83246785 -0.17671056 4
1.2083869 -0.85716975 0.23465173 12
1.1765424 -0.83458084 -0.12620151 5
1.223238 -0.86802542 0.29155618 13
1.1791259 -0.83703232 -0.07578247 6
1.2266048 -0.87105834 0.34732443 14
1.2014644 -0.85352075 -0.025724847 7
1.2377189 -0.87960088 0.40686354 15
1.198494 -0.85424632 0.025689943 8
1.1902318 -0.84898406 0.076619849 9
1.2050221 -0.8598513 0.12951343 10
1.2035407 -0.85942835 0.18158534 11
1.1710848 -0.83656079 -0.17671056 4
1.2005659 -0.8579371 0.23371312 12
1.1784853 -0.84215802 -0.12672445 5
1.2233949 -0.87457335 0.29231939 13
1.1826953 -0.84579039 -0.076201163 6
1.220387 -0.87306702 0.34642464 14
1.1919731 -0.85305434 -0.025585229 7
1.2456366 -0.89178813 0.41048703 15
1.1938803 -0.8572582 0.025655037 8
1.1937487 -0.85779554 0.077038541 9
1.1923066 -0.85707474 0.12846756 10
1.2037562 -0.86594266 0.18207282 11
1.17138 -0.8429625 -0.17719805 4
1.189548 -0.85635203 0.23214878 12
1.1626025 -0.83695412 -0.12532996 5
1.2298932 -0.8857224 0.2946091 13
1.1862178 -0.85458344 -0.076619849 6
1.2204938 -0.87960035 0.34732443 14
1.1776335 -0.84902364 -0.025340894 7
1.2456497 -0.89839089 0.4115223 15
1.1876402 -0.85907656 0.025585229 8
1.1988366 -0.86781287 0.0775619 9
1.1844665 -0.8577258 0.12794463 10
1.2055484 -0.87363392 0.18280403 11
1.1748592 -0.8517068 -0.17817299 4
1.1961462 -0.86745733 0.23402599 12
1.158061 -0.83983755 -0.12515564 5
1.2140812 -0.88078725 0.29155618 13
1.1896933 -0.86341131 -0.077038541 6
1.22057 -0.88614511 0.34822425 14
1.1892247 -0.86370522 -0.025655037 7
1.1814018 -0.86086154 0.025515417 8
1.189345 -0.86728519 0.077143207 9
1.1879038 -0.866552 0.12864187 10
1.2008882 -0.87666619 0.18256028 11
1.1734822 -0.85697341 -0.17841674 4
1.1978962 -0.87512314 0.23496459 12
1.1663841 -0.85210192 -0.12637582 5
1.204659 -0.88038617 0.2900297 13
1.1769981 -0.86048633 -0.076410502 6
1.2237611 -0.89500195 0.35002384 14
1.1926581 -0.87257415 -0.025794657 7
1.1800019 -0.86616349 0.025550324 8
1.1830909 -0.86906672 0.076933861 9
1.1896883 -0.87423259 0.12916481 10
1.1850269 -0.8714444 0.18061039 11
1.1624885 -0.85518283 -0.17719805 4
1.2011982 -0.8839826 0.23621608 12
1.166612 -0.85853004 -0.12672445 5
1.2110646 -0.89156944 0.29231939 13
1.1739873 -0.86458963 -0.076410502 6
1.2112159 -0.89233297 0.34732443 14
1.189605 -0.87673187 -0.025794657 7
1.178579 -0.8714661 0.025585229 8
1.1832612 -0.87556726 0.077143207 9
1.1898321 -0.88075072 0.12951343 10
1.1883582 -0.88030207 0.18158534 11
1.1949314 -0.88581735 0.23559032 12
1.1700102 -0.86734301 -0.12742169 5
1.2142529 -0.90046906 0.29384586 13
1.1677541 -0.86630243 -0.076201163 6
1.204964 -0.89423275 0.34642464 14
1.172087 -0.87015116 -0.025480513 7
1.1803411 -0.87915838 0.025689943 8
1.1769949 -0.87730497 0.076933861 9
1.1803615 -0.88013488 0.12881619 10
1.1948241 -0.89156795 0.18304777 11
1.1807525 -0.88170975 0.23340026 12
1.1542042 -0.86188519 -0.12602721 5
1.2142479 -0.9070521 0.2946091 13
1.1743224 -0.87754679 -0.076829188 6
1.2080785 -0.90310061 0.34822425 14
1.1818538 -0.88381797 -0.025759753 7
1.1708668 -0.87847286 0.025550324 8
1.1803142 -0.88620484 0.077352546 9
1.1740959 -0.88185662 0.12846756 10
1.1917046 -0.89573318 0.18304777 11
1.1839823 -0.89057577 0.23465173 12
1.1511886 -0.86590886 -0.12602721 5
1.2047993 -0.90656328 0.29308262 13
1.1744435 -0.8840428 -0.077038541 6
1.2173727 -0.91668999 0.35182345 14
1.1723727 -0.88312536 -0.025620133 7
1.1693887 -0.88376009 0.025585229 8
1.1803995 -0.89272916 0.0775619 9
1.1773661 -0.89075804 0.12916481 10
1.1933185 -0.90348238 0.18377897 11
1.1918877 -0.90305358 0.23684181 12
1.1545113 -0.87473476 -0.12672445 5
1.2016275 -0.91076338 0.29308262 13
1.1649843 -0.8833102 -0.076619849 6
1.21106 -0.91857851 0.35092363 14
1.1692828 -0.88721228 -0.025620133 7
1.1678878 -0.88904792 0.025620133 8
1.1694877 -0.8905884 0.077038541 9
1.1790037 -0.8984853 0.12968774 10
1.1759515 -0.89680839 0.18158534 11
1.1888865 -0.9070012 0.23684181 12
1.1546185 -0.88117689 -0.12707306 5
1.198441 -0.91495234 0.29308262 13
1.161894 -0.88737142 -0.076619849 6
1.1987149 -0.91549265 0.34822425 14
1.1742793 -0.89715499 -0.025794657 7
1.1712816 -0.89778185 0.025759753 8
1.168113 -0.89567691 0.077143207 9
1.1807597 -0.90602875 0.13021068 10
1.1792688 -0.90553904 0.18256028 11
1.1811726 -0.90732855 0.23590319 12
1.1580094 -0.88985699 -0.12777032 5
1.2078525 -0.9284935 0.29613557 13
1.1684445 -0.89852458 -0.07724788 6
1.1956725 -0.91946268 0.34822425 14
1.1649579 -0.89616698 -0.025655037 7
1.171464 -0.90410453 0.025829561 8
1.1681408 -0.90219057 0.077352546 9
1.1745955 -0.90750313 0.12986206 10
1.1794004 -0.9118731 0.18304777 11
1.1748736 -0.90902853 0.23527746 12
1.1501694 -0.89023519 -0.12724738 5
1.1985568 -0.92768717 0.2946091 13
1.1654584 -0.90239435 -0.07724788 6
1.1955369 -0.92601728 0.34912404 14
1.164984 -0.90267766 -0.025724847 7
1.1619859 -0.90327924 0.025689943 8
1.1697137 -0.90994161 0.077666566 9
1.1649727 -0.90690649 0.12916481 10
1.1871734 -0.9245221 0.18475394 11
1.1779257 -0.91798109 0.23652895 12
1.1501975 -0.89669466 -0.12759601 5
1.1920522 -0.92965913 0.29384586 13
1.1621432 -0.90665984 -0.07724788 6
1.2044249 -0.93998462 0.35272324 14
1.1665552 -0.91042948 -0.025829561 7
1.1555189 -0.90506589 0.025620133 8
1.1679426 -0.91545492 0.077771239 9
1.1665035 -0.91465563 0.12968774 10
1.1759685 -0.9227401 0.18353525 11
1.1792144 -0.92595214 0.23746756 12
1.1857121 -0.93138897 0.29308262 13
1.1558304 -0.90824294 -0.077038541 6
1.2057327 -0.94779617 0.35407296 14
1.1694981 -0.91964334 -0.025969181 7
1.1586323 -0.91404808 0.025759753 8
1.16474 -0.91952616 0.077771239 9
1.1711216 -0.924896 0.1305593 10
1.1665106 -0.92191589 0.18256028 11
1.1759748 -0.93006277 0.23746756 12
1.1916916 -0.94283098 0.29537234 13
1.152653 -0.91227204 -0.077038541 6
1.1917219 -0.94353151 0.35092363 14
1.1678486 -0.92496175 -0.026004087 7
1.1570003 -0.91933084 0.025794657 8
1.1585574 -0.92089796 0.0775619 9
1.1663266 -0.92773819 0.13038498 10
1.169498 -0.93092734 0.18353525 11
1.1682483 -0.93026572 0.23652895 12
1.1945348 -0.95187908 0.29689881 13
1.1557086 -0.92126971 -0.077457219 6
1.1585209 -0.92384237 -0.025864467 7
1.1617527 -0.92940861 0.025969181 8
1.1539378 -0.92348677 0.077457219 9
1.1601336 -0.92910987 0.13003637 10
1.1695024 -0.93728328 0.18402272 11
1.1666982 -0.93537027 0.23684181 12
1.1883092 -0.95337784 0.29613557 13
1.1557626 -0.92759746 -0.077666566 6
1.1554511 -0.927679 -0.025864467 7
1.1524349 -0.92823845 0.025829561 8
1.1631472 -0.93753636 0.078294598 9
1.1492912 -0.9266988 0.12916481 10
1.1741123 -0.94738907 0.18524142 11
1.1649629 -0.94067812 0.23715468 12
1.179032 -0.95237863 0.2946091 13
1.1526802 -0.93142498 -0.077666566 6
1.1522058 -0.93170673 -0.025864467 7
1.142976 -0.92721641 0.025689943 8
1.1645194 -0.94536728 0.078608617 9
1.1553291 -0.93824106 0.13021068 10
1.1615549 -0.94397008 0.18377897 11
1.1616722 -0.94473881 0.23715468 12
1.1757005 -0.95648831 0.2946091 13
1.1494218 -0.93544292 -0.077666566 6
1.1598002 -0.94456238 -0.0261088 7
1.1490238 -0.93879175 0.025899371 8
1.1550274 -0.94436961 0.078189924 9
1.158216 -0.94731379 0.13090792 10
1.1536444 -0.94424707 0.18304777 11
1.1660084 -0.95504665 0.23871902 12
1.1784289 -0.96556365 0.29613557 13
1.1353366 -0.9305867 -0.076933861 6
1.1549498 -0.94733685 -0.026073895 7
1.1488279 -0.94533813 0.025969181 8
1.1440151 -0.94204748 0.077666566 9
1.1549022 -0.95135093 0.13090792 10
1.1564683 -0.95331889 0.18402272 11
1.1580961 -0.95533991 0.23778042 12
1.1750512 -0.96967131 0.29613557 13
1.1485528 -0.94881558 -0.026004087 7
1.1516799 -0.95444643 0.0261088 8
1.1407197 -0.94603515 0.077666566 9
1.1423739 -0.94774371 0.12986206 10
1.1592429 -0.96242201 0.18499769 11
1.153235 -0.95811433 0.23746756 12
1.1807185 -0.98129618 0.29842529 13
1.1390848 -0.94770318 -0.025864467 7
1.1391299 -0.95077252 0.025899371 8
1.1435421 -0.9551326 0.078085259 9
