# .PCD v0.7 - Point Cloud Data file format
VERSION 0.7
FIELDS x y z intensity
SIZE 4 4 4 4
TYPE F F F F
COUNT 1 1 1 1
WIDTH 799
HEIGHT 1
VIEWPOINT 0 0 0 1 0 0 0
POINTS 799
DATA ascii
2.3559361 0.26634303 -0.20743066 5
2.3469489 0.25703251 -0.20655911 5
2.3478317 0.24883907 -0.20655911 5
2.3328297 0.23901798 -0.20516461 5
2.3296845 0.23048049 -0.204816 5
2.326508 0.22196902 -0.20446737 5
2.33426 0.22188534 -0.12288483 6
2.3312368 0.21421061 -0.204816 5
2.3290536 0.21319023 -0.12257081 6
2.3121238 0.20431848 -0.20307288 5
2.3417211 0.20610908 -0.12319885 6
2.3088527 0.19590889 -0.20272426 5
2.3245146 0.19642177 -0.12225681 6
2.3055506 0.18752463 -0.20237562 5
2.3152325 0.18749981 -0.12173345 6
2.3380542 0.1885266 -0.040943347 7
2.3115356 0.18070377 -0.28468683 4
2.306191 0.1794772 -0.20237562 5
2.2979512 0.17802902 -0.1207914 6
2.3267043 0.1798481 -0.040733919 7
2.2962854 0.17185272 -0.2827369 4
2.2988257 0.17123598 -0.20167838 5
2.3025124 0.17070246 -0.12100074 6
2.3173168 0.17139335 -0.040559392 7
2.3008029 0.16451955 -0.28322437 4
2.2934189 0.16318807 -0.20115545 5
2.3030658 0.16306657 -0.12100074 6
2.3019145 0.16258129 -0.040280156 7
2.2894528 0.15607925 -0.28176194 4
2.2780452 0.15450273 -0.19976096 5
2.3016014 0.15529336 -0.12089607 6
2.2944603 0.15440927 -0.040140536 7
2.2808101 0.14869308 0.039896201 8
2.2860987 0.146634 -0.28127447 4
2.2786214 0.1457551 -0.19976096 5
2.2842414 0.14531404 -0.11995402 6
2.3030188 0.14610502 -0.040280156 7
2.2852826 0.14137514 0.039966013 8
2.2667584 0.13784663 -0.27883708 4
2.2791164 0.13780081 -0.19976096 5
2.2867048 0.13785797 -0.1200587 6
2.2955303 0.13758701 -0.040140536 7
2.2877584 0.13351414 0.040000916 8
2.263262 0.12970665 -0.27834961 4
2.2795608 0.13024159 -0.19976096 5
2.2732136 0.12908292 -0.119326 6
2.2840176 0.12889664 -0.039931107 7
2.2882104 0.12552804 0.040000916 8
2.263701 0.12180608 -0.27834961 4
2.2640853 0.12142941 -0.19836646 5
2.2876112 0.12189151 -0.1200587 6
2.2764661 0.12049973 -0.039791487 7
2.2706611 0.11661623 0.039686773 8
2.2799032 0.11629301 0.11964 9
2.2641125 0.11390295 -0.27834961 4
2.2525558 0.11292746 -0.19732061 5
2.2660801 0.11281251 -0.1189073 6
2.2808673 0.11275059 -0.039861299 7
2.2590699 0.10811636 0.039477345 8
2.2822902 0.10842813 0.11974468 9
2.2644961 0.1059995 -0.27834961 4
2.2489557 0.10487872 -0.19697197 5
2.2524941 0.10425473 -0.11817461 6
2.2772517 0.10460407 -0.039791487 7
2.2634292 0.10040671 0.039547153 8
2.2846503 0.10055018 0.11984935 9
2.2450199 0.097234719 -0.27591223 4
2.2533064 0.09680672 -0.19732061 5
2.2368808 0.095708869 -0.11733723 6
2.273607 0.096486315 -0.039721675 7
2.2557738 0.092178077 0.039407536 8
2.2730134 0.092088923 0.11922132 9
2.2413785 0.089238994 -0.27542472 4
2.2496488 0.088782884 -0.19697197 5
2.249191 0.087978534 -0.11796526 6
2.2659373 0.088237509 -0.039582059 7
2.260093 0.084058769 0.039477345 8
2.2573538 0.083562389 0.11838394 9
2.2638257 0.083010711 0.19819216 10
2.2416904 0.08102382 -0.27542472 4
2.2419808 0.080642536 -0.19627473 5
2.2415004 0.079841867 -0.11754657 6
2.2582376 0.080043428 -0.039442439 7
2.2403738 0.075887062 0.039128296 8
2.2536395 0.075548895 0.11817461 9
2.2481711 0.074578919 0.19679767 10
2.2419469 0.073590115 -0.27542472 4
2.2263176 0.07229919 -0.19488023 5
2.2457452 0.072537743 -0.1177559 6
2.2545061 0.072032981 -0.039372627 7
2.23263 0.067823835 0.03898868 8
2.2578821 0.067801058 0.11838394 9
2.2484059 0.067124821 0.19679767 10
2.2311931 0.0662212 -0.35354191 3
2.2382216 0.065647885 -0.27493724 4
2.2345231 0.064757727 -0.19557749 5
2.2180347 0.063892469 -0.11629051 6
2.2627394 0.06438978 -0.039512251 7
2.240849 0.060244456 0.039128296 8
2.2461257 0.059601761 0.1177559 9
2.248637 0.058882978 0.19679767 10
2.2353706 0.058145192 -0.35416767 3
2.2225616 0.057423867 -0.27298734 4
2.2267683 0.056754801 -0.19488023 5
2.2182539 0.055763029 -0.11629051 6
2.2509561 0.056192007 -0.039302818 7
2.2330582 0.051845767 0.03898868 8
2.2303553 0.051003043 0.11691854 9
2.2508206 0.051079083 0.19697197 10
2.2197609 0.049986634 -0.35166472 3
2.2168038 0.049145892 -0.27225614 4
2.2269528 0.04898205 -0.19488023 5
2.218435 0.048020002 -0.11629051 6
2.24315 0.047770586 -0.039163202 7
2.2272277 0.043931719 0.038883962 8
2.2305198 0.043217808 0.11691854 9
2.237041 0.042953603 0.19575179 10
2.2218966 0.0422749 -0.35197759 3
2.2487099 0.042392474 0.27615595 11
2.212992 0.041332766 -0.27176866 4
2.211174 0.040912781 -0.19348574 5
2.2185893 0.040275335 -0.11629051 6
2.2273078 0.039655928 -0.038883962 7
2.2173703 0.035995156 0.038709439 8
2.2266629 0.035368603 0.11670919 9
2.22124 0.034893654 0.19435729 10
2.2022796 0.034212407 -0.34884888 3
2.2190773 0.033697564 -0.27249986 4
2.2033346 0.033074938 -0.1927885 5
2.2227104 0.032588735 -0.11649985 6
2.2434287 0.032109283 -0.039163202 7
2.2094841 0.028152369 0.038569819 8
2.2307673 0.027645854 0.11691854 9
2.225333 0.027189018 0.19470593 10
2.2023854 0.026524223 -0.34884888 3
2.2390263 0.026575757 0.27493724 11
2.2152116 0.025905376 -0.27201241 4
2.2034366 0.025383076 -0.1927885 5
2.2068334 0.024651824 -0.11566247 6
2.2355287 0.024191974 -0.039023582 7
2.2095687 0.020439072 0.038569819 8
2.2188635 0.020138832 0.11629051 9
2.2234221 0.019403011 0.19453162 10
2.1945634 0.01876919 -0.34759742 3
2.2133002 0.018543141 0.27176866 11
2.2033751 0.018459987 -0.27054995 4
2.1995273 0.017659964 -0.19243988 5
2.2029116 0.016917124 -0.11545313 6
2.2315972 0.016748993 -0.03895377 7
2.2076252 0.013100342 0.038534917 8
2.2149236 0.01275814 0.11608116 9
2.2194893 0.012008658 0.19418299 10
2.1985643 0.011512779 -0.34822315 3
2.21732 0.011222953 0.27225614 11
2.191514 0.011092337 -0.26908755 4
2.2222724 0.010860174 0.35197759 12
2.1995738 0.010366411 -0.19243988 5
2.2049532 0.0096210698 -0.1155578 6
2.2236419 0.0093155941 -0.038814154 7
2.2116556 0.0057893782 0.038604725 8
2.2069645 0.005392984 0.11566247 9
2.2175245 0.0046437117 0.19400868 10
2.1946397 0.0042138197 -0.34759742 3
2.2074194 0.0038531118 0.27103746 11
2.1895535 0.0038219262 -0.2688438 4
2.1985915 0.0034529499 0.34822315 12
2.1836569 0.0030494379 -0.19104539 5
2.2029755 0.0023064269 -0.11545313 6
2.2036636 0.0019236092 -0.038465101 7
2.2016642 -0.0015370518 0.038430199 8
2.2069705 -0.0019259453 0.11566247 9
2.1956115 -0.0026824467 0.19209124 10
2.1788385 -0.0030422343 -0.34509447 3
2.2193303 -0.0034861187 0.27249986 11
2.1994796 -0.0034549371 -0.27006248 4
2.2143941 -0.0038648502 0.3507261 12
2.1756852 -0.0041770209 -0.19034813 5
2.2009737 -0.0049938597 -0.11534845 6
2.2076573 -0.0053943358 -0.038534917 7
2.1876426 -0.010309099 0.038185868 8
2.2109392 -0.010804773 0.11587181 9
2.20156 -0.011527446 0.19261418 10
2.1709073 -0.011745854 -0.34384301 3
2.1994481 -0.012284163 0.27006248 11
2.195478 -0.01226199 -0.269575 4
2.2202868 -0.012788074 0.35166472 12
2.1796358 -0.012934371 -0.19069678 5
2.1849585 -0.013728679 -0.11451109 6
2.211617 -0.014282199 -0.038604725 7
2.1775982 -0.017483253 0.038011342 8
2.1949141 -0.018005386 0.11503445 9
2.2015097 -0.018828018 0.19261418 10
2.1748071 -0.018979253 -0.34446874 3
2.1894701 -0.01948938 0.2688438 11
2.1835151 -0.019436372 -0.26811257 4
2.2024546 -0.01998939 0.34884888 12
2.1795809 -0.02016223 -0.19069678 5
2.1789093 -0.020916672 -0.11419707 6
2.2035592 -0.021537928 -0.038465101 7
2.1835268 -0.024772389 0.038116053 8
2.1908476 -0.025237868 0.11482509 9
2.1974509 -0.026081098 0.19226557 10
2.174732 -0.026191069 -0.34446874 3
2.1973331 -0.026846824 0.26981872 11
2.1715291 -0.026531553 -0.26665017 4
2.1845992 -0.027072581 0.3460331 12
2.1834867 -0.027439946 -0.19104539 5
2.2379284 -0.028514771 0.43504456 13
2.182822 -0.028193666 -0.11440641 6
2.1954775 -0.028740376 -0.038325485 7
2.1774344 -0.031925146 0.038011342 8
2.190752 -0.032502845 0.11482509 9
2.1853993 -0.033186451 0.19121969 10
2.1746333 -0.033402596 -0.34446874 3
2.1952474 -0.034102466 0.269575 11
2.1714292 -0.033732455 -0.26665017 4
2.1785717 -0.034223739 0.34509447 12
2.1674464 -0.034427356 -0.18965089 5
2.2221174 -0.035683669 0.43199161 13
2.1787226 -0.03536718 -0.11419707 6
2.1793749 -0.035758238 -0.038046245 7
2.1733038 -0.039832331 0.03794153 8
2.1866174 -0.040839873 0.11461575 9
2.1866844 -0.040841121 -0.42512247 2
2.1812792 -0.04112101 0.19087107 10
2.1586962 -0.041072186 -0.34196579 3
2.1911383 -0.042072006 0.26908755 11
2.1772375 -0.042185236 -0.26738134 4
2.1784244 -0.042588584 0.34509447 12
2.1633217 -0.042293329 -0.18930228 5
2.2141201 -0.043673031 0.4304651 13
2.1785784 -0.043352358 -0.11419707 6
2.1872187 -0.04428808 -0.038185868 7
2.1671541 -0.047287472 0.03783682 8
2.190455 -0.048560876 0.11482509 9
2.1551237 -0.047777608 -0.41901657 2
2.185106 -0.048823856 0.19121969 10
2.1506402 -0.048429307 -0.34071434 3
2.1770856 -0.049404982 0.26738134 11
2.1711235 -0.049648818 -0.26665017 4
2.1762874 -0.050146934 0.34478158 12
2.1571853 -0.049706776 -0.18877934 5
2.2021782 -0.051128078 0.42817542 13
2.1704268 -0.050769918 -0.11377838 6
2.1790543 -0.05173279 -0.038046245 7
2.166976 -0.054851964 0.03783682 8
2.1742995 -0.055796806 0.11398773 9
2.1510189 -0.055199381 -0.41825336 2
2.1829307 -0.056399547 0.19104539 10
2.1544073 -0.056038871 -0.34134007 3
2.1689625 -0.056796283 0.26640642 11
2.1550617 -0.056808665 -0.26470023 4
2.1760991 -0.057743289 0.34478158 12
2.1530154 -0.057130754 -0.18843071 5
2.2059112 -0.058919635 0.42893866 13
2.1582572 -0.058023766 -0.11315035 6
2.1788604 -0.059338789 -0.038046245 7
2.1607747 -0.062243048 0.037732106 8
2.162113 -0.063036948 0.1133597 9
2.1508131 -0.062707499 -0.41825336 2
2.1787372 -0.063902222 0.19069678 10
2.1463003 -0.063325778 -0.34008855 3
2.1727192 -0.064484797 0.26689389 11
2.1469133 -0.064093933 -0.26372528 4
2.1581142 -0.064805321 0.34196579 12
2.1627603 -0.064944841 -0.18930228 5
2.2017677 -0.066500813 0.42817542 13
2.1580415 -0.065557137 -0.11315035 6
2.1666474 -0.066575572 -0.03783682 7
2.1605442 -0.069785178 0.037732106 8
2.1698642 -0.070844442 0.11377838 9
2.1309466 -0.069946133 -0.41443717 2
2.1625705 -0.070984155 0.18930228 10
2.1539638 -0.07107798 -0.34134007 3
2.1804171 -0.07233189 0.26786885 11
2.1466765 -0.071587674 -0.26372528 4
2.1795919 -0.073066175 0.34540737 12
2.1445863 -0.072267406 -0.18773346 5
2.2015092 -0.074570246 0.42817542 13
2.1617789 -0.073602229 -0.1133597 6
2.1584074 -0.073864594 -0.0376972 7
2.1522801 -0.077415973 0.037592482 8
2.16959 -0.078796916 0.11377838 9
2.1287138 -0.077684373 -0.41405553 2
2.1483581 -0.078401253 0.18808208 10
2.1418443 -0.078537866 -0.33946282 3
2.1682348 -0.079884499 0.26640642 11
2.1463997 -0.079455152 -0.26372528 4
2.1536469 -0.080099836 0.34134007 12
2.1383338 -0.079904027 -0.18721053 5
2.1894495 -0.08219675 0.42588571 13
2.1614947 -0.08152505 -0.1133597 6
2.1581223 -0.081775054 -0.0376972 7
2.1419914 -0.084907934 0.037417959 8
2.1653104 -0.08621081 0.11356904 9
2.1303916 -0.085192949 -0.41443717 2
2.1540287 -0.086514726 0.18860501 10
2.1296995 -0.085909866 -0.3375856 3
2.1560266 -0.087348796 0.26494396 11
2.1421423 -0.086786285 -0.2632378 4
2.155328 -0.087697282 0.3416529 12
2.1460049 -0.087693118 -0.18790779 5
2.1773796 -0.089355849 0.42359596 13
2.1412413 -0.088247143 -0.11231297 6
2.1578238 -0.089307815 -0.0376972 7
2.1397004 -0.091924734 0.037383057 8
2.1570313 -0.093046471 0.11315035 9
2.124213 -0.09200225 -0.41329232 2
2.1577113 -0.093830407 0.18895365 10
2.1333501 -0.093144074 -0.33821136 3
2.1458092 -0.094063282 0.26372528 11
2.1378765 -0.093715549 -0.26275033 4
2.1550252 -0.094844133 0.3416529 12
2.1377404 -0.094457239 -0.18721053 5
2.184917 -0.096923843 0.42512247 13
2.1329558 -0.094991826 -0.11189428 6
2.1575158 -0.096462928 -0.0376972 7
2.1433787 -0.099204637 0.037452865 8
2.1367424 -0.099644952 0.11210363 9
2.1121294 -0.09849716 -0.41100258 2
2.1534073 -0.10079877 0.18860501 10
2.1330295 -0.10021801 -0.33821136 3
2.1494513 -0.10136556 0.26421279 11
2.1256392 -0.10061443 -0.2612879 4
2.1448152 -0.10189728 0.34008855 12
2.1453762 -0.10192393 -0.18790779 5
2.1845834 -0.10416876 0.42512247 13
2.1366191 -0.1022554 -0.11210363 6
2.1451814 -0.10341574 -0.037487768 7
2.1410222 -0.1065864 0.037417959 8
2.14835 -0.10770298 0.11273166 9
2.1078513 -0.10567266 -0.41023937 2
2.1391137 -0.10761422 0.18738484 10
2.1287208 -0.10746385 -0.3375856 3
2.151067 -0.10896835 0.26445648 11
2.1252751 -0.10803366 -0.2612879 4
2.1444466 -0.10938346 0.34008855 12
2.1251092 -0.1083971 -0.18616466 5
2.1842065 -0.11179373 0.42512247 13
2.1402383 -0.10991784 -0.11231297 6
2.1408136 -0.11069667 -0.037417959 7
2.1306527 -0.11352731 0.037243433 8
2.1459668 -0.11509451 0.11262699 9
2.1094301 -0.11313495 -0.41062099 2
2.1267877 -0.11443815 0.18633896 10
2.1164975 -0.11425494 -0.33570841 3
2.1447268 -0.11615425 0.26372528 11
2.1248851 -0.1154516 -0.2612879 4
2.1341896 -0.11633074 0.33852422 12
2.11674 -0.11575013 -0.18546741 5
2.1681204 -0.11855979 0.42206952 13
2.1358531 -0.1171692 -0.11210363 6
2.1364207 -0.11794835 -0.037348151 7
2.1162682 -0.12017041 0.036999103 8
2.1435578 -0.12247069 0.11252232 9
2.1129212 -0.12109029 -0.41138422 2
2.1323214 -0.12257548 0.1868619 10
2.1121206 -0.1217841 -0.33508268 3
2.1363811 -0.12318295 0.26275033 11
2.132396 -0.1233266 -0.26226285 4
2.1377146 -0.12400855 0.33914998 12
2.1203012 -0.1233697 -0.18581605 5
2.1519916 -0.12559047 0.41901657 13
2.1274338 -0.12452986 -0.11168494 6
2.1359961 -0.12540513 -0.037348151 7
2.1237977 -0.12840885 0.037138719 8
2.1271458 -0.12935653 0.11168494 9
2.1085665 -0.12822668 -0.41062099 2
2.1318805 -0.13001794 0.1868619 10
2.107739 -0.12891483 -0.33445692 3
2.1220458 -0.13016164 0.26104417 11
2.1121166 -0.12992261 -0.25982547 4
2.1333025 -0.13159958 0.33852422 12
2.1198578 -0.13077019 -0.18581605 5
2.1554592 -0.13334401 0.41977981 13
2.1150258 -0.13121322 -0.11105692 6
2.1355221 -0.13323312 -0.037348151 7
2.1253321 -0.13594915 0.037173625 8
2.1187088 -0.13626809 0.11126626 9
2.0904732 -0.13445206 -0.40718642 2
2.1334021 -0.13758703 0.18703623 10
2.1112189 -0.13652639 -0.33508268 3
2.127521 -0.13795349 0.26177537 11
2.1076882 -0.13703689 -0.25933796 4
2.1229742 -0.13840285 0.33695987 12
2.1193883 -0.13816907 -0.18581605 5
2.1588986 -0.14112328 0.42054302 13
2.1185408 -0.1388565 -0.11126626 6
2.1230719 -0.13989778 -0.037138719 7
2.1248446 -0.14336713 0.037173625 8
2.1182454 -0.14329323 0.11126626 9
2.0860736 -0.1414827 -0.40642318 2
2.1209819 -0.14422213 0.18599035 10
2.1107295 -0.1438951 -0.33508268 3
2.1290073 -0.14551446 0.2620191 11
2.103236 -0.14412184 -0.25885051 4
2.1225035 -0.14544211 0.33695987 12
2.106967 -0.14474696 -0.18477017 5
2.1505585 -0.14811879 0.41901657 13
2.1220281 -0.1465259 -0.1114756 6
2.1186063 -0.14666115 -0.037068911 7
2.1123891 -0.14956515 0.036964197 8
2.125701 -0.15125343 0.11168494 9
2.0875254 -0.14890327 -0.40680483 2
2.1105289 -0.15091434 0.18511879 10
2.0984185 -0.15004836 -0.33320546 3
2.1285129 -0.1525737 0.2620191 11
2.1067064 -0.15138018 -0.25933796 4
2.1278937 -0.15327592 0.33789849 12
2.0945253 -0.15123981 -0.1837243 5
2.1383064 -0.15440114 0.41672686 13
2.1175466 -0.15327361 -0.11126626 6
2.1180813 -0.15405557 -0.037068911 7
2.0998893 -0.15604873 0.036754768 8
2.1182585 -0.15778553 -0.49039328 1
2.1251879 -0.15830168 0.11168494 9
2.0831044 -0.15553257 -0.40604156 2
2.1120038 -0.15806097 0.18529311 10
2.0939424 -0.15707679 -0.33257973 3
2.1121314 -0.15881194 0.26006919 11
2.1022062 -0.15843467 -0.25885051 4
2.1273737 -0.16033144 0.33789849 12
2.0940123 -0.15818466 -0.1837243 5
2.1299241 -0.16127138 0.41520041 13
2.1050494 -0.15975744 -0.11063822 6
2.1215467 -0.16138189 -0.037138719 7
2.0993602 -0.16301134 0.036754768 8
2.0691521 -0.16102904 -0.47914574 1
2.1067016 -0.16432121 0.1107429 9
2.0845063 -0.16295603 -0.40642318 2
2.1134253 -0.16558792 0.18546741 10
2.09341 -0.1640197 -0.33257973 3
2.107635 -0.16550435 0.25958171 11
2.0897954 -0.16447046 -0.25738806 4
2.1189241 -0.16713504 0.33664703 12
2.1013923 -0.16612124 -0.18442155 5
2.1332917 -0.16864298 0.41596362 13
2.0885799 -0.16547517 -0.10980085 6
2.1169837 -0.16846921 -0.037068911 7
2.1007714 -0.17050025 0.036789671 8
2.0705197 -0.16840875 -0.47959566 1
2.1021335 -0.17134944 0.11053354 9
2.0741704 -0.16907009 -0.40451509 2
2.1128645 -0.17259537 0.18546741 10
2.0888872 -0.17100371 -0.331954 3
2.1030877 -0.17253576 0.25909427 11
2.0852518 -0.1714389 -0.25690058 4
2.1045468 -0.17339504 0.33445692 12
2.096828 -0.17312753 -0.18407291 5
2.13269 -0.17608853 0.41596362 13
2.0959516 -0.17342348 -0.11021954 6
2.1044259 -0.17486429 -0.036859483 7
2.1001637 -0.17783228 0.036789671 8
2.0660355 -0.17530565 -0.47869584 1
2.1074929 -0.17919384 0.11084756 9
2.0676684 -0.17617117 -0.40337023 2
2.0983219 -0.17915185 0.18424724 10
2.0882463 -0.17865872 -0.331954 3
2.1024725 -0.17987584 0.25909427 11
2.0885961 -0.17905585 -0.25738806 4
2.0999925 -0.18040207 0.33383119 12
2.0882709 -0.17976229 -0.18337567 5
2.1359425 -0.18424149 0.41672686 13
2.0953016 -0.18110436 -0.11021954 6
2.0918493 -0.18117379 -0.036650054 7
2.0875461 -0.18447241 0.036580246 8
2.0692616 -0.18322064 -0.47959566 1
2.102843 -0.18656398 0.11063822 9
2.0670409 -0.18338762 -0.40337023 2
2.0937145 -0.18612239 0.18389861 10
2.0758042 -0.18489541 -0.33007675 3
2.1057537 -0.1879335 0.25958171 11
2.0800173 -0.18600251 -0.25641313 4
2.095382 -0.18774514 0.33320546 12
2.0796931 -0.18633942 -0.18267845 5
2.123554 -0.19064295 0.41443717 13
2.0946567 -0.18841721 -0.11021954 6
2.0991375 -0.18955897 -0.036789671 7
2.0829067 -0.19139226 0.036510434 8
2.0472634 -0.1884774 -0.47464675 1
2.0982013 -0.19353624 0.11042888 9
2.0624783 -0.19024116 -0.40260699 2
2.0890841 -0.19306299 0.18355 10
2.0633445 -0.19104746 -0.32819954 3
2.095202 -0.19436599 0.25836304 11
2.0833085 -0.19362941 -0.25690058 4
2.1025813 -0.19579086 0.33445692 12
2.07903 -0.19359776 -0.18267845 5
2.113102 -0.19714254 0.41252908 13
2.0860317 -0.19498427 -0.10980085 6
2.0984631 -0.19688515 -0.036789671 7
2.082226 -0.19866177 0.036510434 8
2.0446532 -0.19543712 -0.47419682 1
2.0935369 -0.20047837 0.11021954 9
2.0618017 -0.19743939 -0.40260699 2
2.0883975 -0.20035408 0.18355 10
2.0705304 -0.19900468 -0.32945102 3
2.0866067 -0.20091736 0.25738806 11
2.0786679 -0.20051911 -0.25641313 4
2.0940204 -0.20236899 0.33320546 12
2.0783415 -0.20085377 -0.18267845 5
2.1026301 -0.20357145 0.41062099 13
2.073411 -0.20110781 -0.10917282 6
2.0977631 -0.20420897 -0.036789671 7
2.0835097 -0.20612575 0.03654534 8
2.0594723 -0.20411065 -0.47779605 1
2.0789118 -0.20640369 0.10948683 9
2.0532849 -0.20385934 -0.40108052 2
2.0876856 -0.20764273 0.18355 10
2.0698233 -0.20623098 -0.32945102 3
2.0918183 -0.20879123 0.25811929 11
2.0621533 -0.20619377 -0.2544632 4
2.0893703 -0.20928349 0.33257973 12
2.0776279 -0.20810729 -0.18267845 5
2.1136272 -0.21208583 0.41291067 13
2.0766709 -0.20874363 -0.10938216 6
2.0811205 -0.20992473 -0.036510434 7
2.0847671 -0.21360113 0.036580246 8
2.0841763 -0.2139082 0.10980085 9
2.048655 -0.21062383 -0.40031728 2
2.0750566 -0.21370418 0.18250412 10
2.0651605 -0.21304929 -0.32882527 3
2.0891025 -0.21588776 0.25787556 11
2.0614212 -0.21339078 -0.2544632 4
2.0788403 -0.21519396 0.33101538 12
2.0610344 -0.21371433 -0.18128395 5
2.0759296 -0.21599132 -0.10938216 6
2.0764351 -0.21641023 -0.036440626 7
2.0701268 -0.21904039 0.036335908 8
2.0854032 -0.22139291 0.10990552 9
2.0518119 -0.21818888 -0.40108052 2
2.0683541 -0.22031309 0.18198119 10
2.0605142 -0.21947801 -0.32819954 3
2.0903487 -0.22302485 0.25811929 11
2.0646496 -0.22064741 -0.25495067 4
2.0780764 -0.22244914 0.33101538 12
2.0602758 -0.22090738 -0.18128395 5
2.075202 -0.22287413 -0.10938216 6
2.0796435 -0.22408551 -0.036510434 7
2.0594106 -0.22517839 0.036161385 8
2.0826323 -0.22845316 0.10980085 9
2.0510769 -0.22499174 -0.40108052 2
2.0715733 -0.22760598 0.1823298 10
2.0440273 -0.22494054 -0.32569659 3
2.0796919 -0.22923273 0.25690058 11
2.0638671 -0.22785302 -0.25495067 4
2.0831778 -0.23035298 0.331954 12
2.0595319 -0.22773829 -0.18128395 5
2.070441 -0.22967619 -0.10917282 6
2.0788486 -0.23134345 -0.036510434 7
2.0546377 -0.23191711 0.036091577 8
2.0738838 -0.23482271 0.10938216 9
2.0502791 -0.23214997 -0.40108052 2
2.0747259 -0.23528479 0.18267845 10
2.0432298 -0.23207416 -0.32569659 3
2.0749345 -0.23604205 0.25641313 11
2.0512252 -0.23370758 -0.25348827 4
2.0803983 -0.23739924 0.33164111 12
2.0666425 -0.23582955 -0.18198119 5
2.0577209 -0.23553915 -0.10854478 6
2.074055 -0.23814236 -0.036440626 7
2.0657334 -0.24047509 0.036301006 8
2.0631328 -0.24090229 0.1088588 9
2.0592065 -0.24044383 -0.40298861 2
2.0659759 -0.24159978 0.18198119 10
2.0502553 -0.24012411 -0.32694808 3
2.0701547 -0.24282101 0.25592566 11
2.046454 -0.24040307 -0.2530008 4
2.065824 -0.24304409 0.32945102 12
2.0618494 -0.24257647 -0.18163256 5
2.0529191 -0.24225241 -0.10833544 6
2.0652678 -0.24444057 -0.036301006 7
2.062896 -0.24744622 0.0362661 8
2.0642619 -0.24834102 0.10896347 9
2.0552297 -0.2476183 0.18110962 10
2.0454824 -0.24680611 -0.32632235 3
2.0692945 -0.25004569 0.25592566 11
2.0456021 -0.24754506 -0.2530008 4
2.0551577 -0.24906537 0.3278867 12
2.0451667 -0.24785456 -0.18023807 5
2.0599918 -0.25038087 -0.10875413 6
2.056462 -0.25068033 -0.036161385 7
2.0520966 -0.25342011 0.036091577 8
2.0633826 -0.25554514 0.10896347 9
2.0484211 -0.2540552 0.1805867 10
2.0328462 -0.25248381 -0.32444513 3
2.070379 -0.25751236 0.25616938 11
2.0486653 -0.25517476 -0.25348827 4
2.0601561 -0.25697118 0.32882527 12
2.0363364 -0.254361 -0.17954083 5
2.0551417 -0.25707424 -0.10854478 6
2.0555744 -0.25785717 -0.036161385 7
2.0432646 -0.25957367 0.035951961 8
2.0624781 -0.26274616 0.10896347 9
2.0455 -0.26130888 0.1804124 10
2.0240693 -0.25893024 -0.32319364 3
2.0655293 -0.26423401 0.2556819 11
2.0398862 -0.26131544 -0.25251329 4
2.0592468 -0.2641609 0.32882527 12
2.0393887 -0.26197532 -0.17988946 5
2.0423002 -0.26307398 -0.10791675 6
2.0586286 -0.26554257 -0.036231197 7
2.0422993 -0.26706088 0.035951961 8
2.0437253 -0.26761013 0.10802142 9
2.0505016 -0.26922554 0.18093532 10
2.0349047 -0.26753896 -0.32507086 3
2.0428979 -0.26895261 0.2530008 11
2.0290742 -0.26749295 -0.25129461 4
2.0543952 -0.27083102 0.32819954 12
2.042412 -0.26961398 -0.18023807 5
2.0374095 -0.26967722 -0.10770741 6
2.057689 -0.27272689 -0.036231197 7
2.0453665 -0.27436364 0.036021769 8
2.0388198 -0.27421001 0.10781208 9
2.0534983 -0.27691397 0.18128395 10
2.0459292 -0.27625686 0.25348827 11
2.0222745 -0.27342227 -0.25056338 4
2.047565 -0.27720556 0.32726091 12
2.049356 -0.27781224 -0.18093532 5
2.036504 -0.27643204 -0.10770741 6
2.0408731 -0.27775061 -0.035951961 7
2.0424151 -0.28122881 0.035986863 8
2.0398285 -0.28159824 0.10791675 9
2.0427008 -0.28235811 0.1804124 10
2.0547841 -0.28475928 0.25470695 11
2.0252404 -0.28102535 -0.25105089 4
2.0348451 -0.28272012 0.32538372 12
2.0286887 -0.28186473 -0.1791922 5
2.0394831 -0.28409016 -0.10791675 6
2.0359302 -0.28431973 -0.035882145 7
2.0335009 -0.28723773 0.035847243 8
2.0408108 -0.28899693 0.10802142 9
2.0318391 -0.28808823 0.17954083 10
2.0459161 -0.29081267 0.253732 11
2.0360389 -0.2897712 -0.25251329 4
2.0397131 -0.29065734 0.32632235 12
2.0158582 -0.28725803 -0.17814633 5
2.0424333 -0.29177245 -0.10812609 6
2.0388844 -0.29199171 -0.035951961 7
2.0265489 -0.29347447 0.035742529 8
2.0476956 -0.29726669 0.10844011 9
2.0308213 -0.29517889 0.17954083 10
2.0331023 -0.2962352 0.25226957 11
2.0232294 -0.29515722 -0.25105089 4
2.0347764 -0.29720446 0.32569659 12
2.018786 -0.29486886 -0.17849496 5
2.025593 -0.29658529 -0.10728873 6
2.0378525 -0.29910696 -0.035951961 7
2.0314462 -0.30142716 0.035847243 8
2.0288658 -0.30176812 0.10749806 9
2.03372 -0.30285296 0.17988946 10
2.0300927 -0.30303714 0.25202581 11
2.01826 -0.30163094 -0.25056338 4
2.0395875 -0.30518231 0.32663518 12
2.0256259 -0.30309325 -0.1791922 5
2.0166445 -0.3024691 -0.10687003 6
2.032841 -0.30562398 -0.035882145 7
2.0284045 -0.30821595 0.035812337 8
2.019902 -0.30764544 0.10707937 9
2.0365896 -0.31055075 0.18023807 10
2.0290225 -0.31012163 0.25202581 11
2.0170312 -0.30900943 0.32319364 12
2.0186477 -0.30925706 -0.17866927 5
2.0116282 -0.30890042 -0.10666069 6
2.0199034 -0.31089288 -0.035672721 7
2.0273161 -0.31529456 0.035812337 8
2.0188158 -0.31469429 0.10707937 9
2.0217133 -0.31550738 0.1790179 10
2.0259662 -0.31689554 0.25178206 11
2.0159402 -0.31604829 0.32319364 12
2.0136189 -0.31568438 -0.17832063 5
2.0144837 -0.31654045 -0.10687003 6
2.0148554 -0.31731957 -0.035602912 7
2.0104046 -0.31985566 0.035533097 8
2.017705 -0.32173938 0.10707937 9
2.0166647 -0.3219344 0.17866927 10
2.0287683 -0.32459286 0.25226957 11
2.0226266 -0.32433438 0.32444513 12
2.0046356 -0.32144946 -0.17762341 5
2.0212545 -0.3248381 -0.10728873 6
2.0137353 -0.32435077 -0.035602912 7
2.007302 -0.32655028 0.035498194 8
2.0205123 -0.32942334 0.10728873 9
2.0115957 -0.32832998 0.17832063 10
2.0197864 -0.33039075 0.25129461 11
2.0214822 -0.33139271 0.32444513 12
2.0035014 -0.32844499 -0.17762341 5
2.0082831 -0.32994881 -0.10666069 6
2.0204833 -0.33267757 -0.035742529 7
2.0081224 -0.33388302 0.035533097 8
2.0035894 -0.33384806 0.10645135 9
2.0182984 -0.33666104 0.1790179 10
2.0088313 -0.33580264 0.25007591 11
2.0183651 -0.33812064 0.32413223 12
2.0062728 -0.33609495 -0.17797202 5
1.9874222 -0.33365029 -0.10561397 6
2.0153656 -0.33906484 -0.035672721 7
2.0049734 -0.34055579 0.035498194 8
2.0024116 -0.34083989 0.10645135 9
2.0092547 -0.3423655 0.17832063 10
2.0115602 -0.34348097 0.25056338 11
2.0035427 -0.34283176 0.32194218 12
1.9941196 -0.34193581 -0.10603265 6
2.0062866 -0.3447431 -0.035533097 7
2.0116537 -0.34891936 0.035637815 8
2.0051453 -0.34851152 0.10666069 9
2.0001955 -0.3480109 0.17762341 10
2.0123045 -0.35084149 0.25080714 11
1.9964962 -0.34880346 0.32100356 12
1.9968487 -0.34958339 -0.10624201 6
1.989314 -0.34898004 -0.03525386 7
1.9986088 -0.3538475 0.035428386 8
2.0078497 -0.35620642 0.10687003 9
1.9950453 -0.35429403 0.17727478 10
2.0091133 -0.35751584 0.25056338 11
1.9874878 -0.35438338 0.3197521 12
1.9995484 -0.35725412 -0.10645135 6
1.9959576 -0.35733148 -0.03539348 7
1.98949 -0.35939983 0.035288766 8
2.0006981 -0.36214575 0.10655601 9
1.9957567 -0.3616111 0.17744908 10
1.9980872 -0.36275378 0.24934469 11
1.9786404 -0.36065024 -0.10540463 6
1.9907637 -0.36357799 -0.035323672 7
1.9862568 -0.36597991 0.03525386 8
1.9935296 -0.36803952 0.10624201 9
1.9925233 -0.36821333 0.17727478 10
1.9850976 -0.36755773 0.24788228 11
1.9773694 -0.36755475 -0.10540463 6
1.9973459 -0.37198934 -0.035463288 7
1.9869324 -0.3732802 0.035288766 8
1.9883722 -0.37390998 0.10603265 9
1.9990577 -0.3766419 0.17797202 10
1.9935557 -0.37632588 0.24910097 11
1.9882427 -0.37712014 -0.035323672 7
1.9896119 -0.38061854 0.035358574 8
1.9831319 -0.3800965 0.10582332 9
1.980121 -0.38023609 0.17640322 10
2.0000944 -0.38443345 0.25007591 11
1.9790608 -0.38254008 -0.035184052 7
1.9764949 -0.3852658 0.03514915 8
1.9837534 -0.38739949 0.10592799 9
1.9768938 -0.38641807 0.17622891 10
1.9889996 -0.38950527 0.24885722 11
1.9777133 -0.38944596 -0.035184052 7
1.9712149 -0.39138377 0.035079334 8
1.9902245 -0.39588028 0.10634667 9
1.9656942 -0.39171422 0.17535736 10
1.9837345 -0.39566916 0.24836974 11
1.9841846 -0.39791995 -0.035323672 7
1.9697671 -0.398606 0.035079334 8
1.965271 -0.39841032 0.10509061 9
1.970173 -0.399762 0.17588028 10
1.9705992 -0.40056476 0.24690731 11
1.9827129 -0.40518969 -0.035323672 7
1.9664053 -0.40507585 0.035044432 8
1.961912 -0.40486422 0.10498594 9
1.9687655 -0.4066368 0.17588028 10
1.9730769 -0.40824544 0.2473948 11
1.9708509 -0.4131684 0.03514915 8
1.9683055 -0.41335207 0.10540463 9
1.9575851 -0.41145745 0.17500873 10
1.9755248 -0.41594827 0.24788228 11
1.9498395 -0.41587415 0.034800097 8
1.9688038 -0.42063749 0.1055093 9
1.9502919 -0.41703835 0.17448579 10
1.9779427 -0.42367312 0.24836974 11
1.9444675 -0.42182991 0.034730289 8
1.9654462 -0.4267402 0.10540463 9
1.9468772 -0.42342016 0.17431147 10
1.9648143 -0.42803958 0.24690731 11
1.943058 -0.42827567 0.034730289 8
1.952243 -0.43101478 0.10477659 9
1.9512235 -0.43150407 0.17483442 10
1.9595078 -0.43369484 0.24641983 11
1.9409826 -0.4356398 0.10425323 9
1.9497819 -0.43797222 0.17483442 10
1.9541086 -0.43966067 0.24593236 11
1.9491862 -0.44463339 0.10477659 9
1.938452 -0.44289666 0.17396286 10
1.9525621 -0.44647914 0.24593236 11
1.9456766 -0.45098361 0.10467192 9
1.9310719 -0.44830877 0.17343993 10
1.956713 -0.45498139 0.24666359 11
1.9499228 -0.45914587 0.10498594 9
1.9275559 -0.45458937 0.17326561 10
1.9455334 -0.4591876 0.24544489 11
1.9327685 -0.46223316 0.10414857 9
1.9318509 -0.46237019 0.17378855 10
1.9342667 -0.4636623 0.2442262 11
1.9399053 -0.47146341 0.17466012 10
1.9326364 -0.47041133 0.2442262 11
1.9150352 -0.47250471 0.17256837 10
1.9348369 -0.47810704 0.24471366 11
1.9133743 -0.47918653 0.17256837 10
1.9293052 -0.48389211 0.2442262 11
1.9136209 -0.48635334 0.17274268 10
1.9141381 -0.48719612 0.24252002 11
1.9061238 -0.49153766 0.17221974 10
