# .PCD v0.7 - Point Cloud Data file format
VERSION 0.7
FIELDS x y z intensity
SIZE 4 4 4 4
TYPE F F F F
COUNT 1 1 1 1
WIDTH 1327
HEIGHT 1
VIEWPOINT 0 0 0 1 0 0 0
POINTS 1327
DATA ascii
1.5822556 0.13731694 0.25154665 12
1.5760332 0.13677694 -0.13840331 5
1.6038644 0.13891025 0.31292677 13
1.5898824 0.13741896 -0.083632864 6
1.5739386 0.1354882 -0.027574802 7
1.5721569 0.13284746 0.027539898 8
1.5921803 0.13397896 0.083737537 9
1.5807229 0.13301486 -0.30834734 2
1.5724382 0.13204211 0.1380547 10
1.5688769 0.13146655 -0.24935657 3
1.5785942 0.13200341 0.19450349 11
1.5983994 0.1333794 -0.19694087 4
1.5905997 0.13244826 0.25279811 12
1.5824578 0.1317703 -0.13892625 5
1.5886874 0.13200986 0.30987382 13
1.5823904 0.13120931 -0.083214179 6
1.5783879 0.13032196 -0.027644612 7
1.5706179 0.12719697 0.027504994 8
1.5846528 0.12805445 0.083318852 9
1.5674794 0.12639208 -0.30567604 2
1.5768615 0.12687163 0.13840331 10
1.5693262 0.12598895 -0.24935657 3
1.573109 0.12601708 0.19377227 11
1.5830028 0.12680964 -0.19499096 4
1.59103 0.12717323 0.25279811 12
1.5789359 0.12592846 -0.13857763 5
1.5989239 0.12724255 0.31178191 13
1.5748749 0.12505215 -0.082795486 6
1.5847917 0.12556051 -0.027749326 7
1.584987 0.12307112 0.027749326 8
1.5771035 0.12218284 0.082900167 9
1.5718046 0.12149636 -0.30643925 2
1.5852196 0.12225424 0.13910057 10
1.5697353 0.1207845 -0.24935657 3
1.5715389 0.12064814 0.19352853 11
1.5794561 0.12125594 -0.19450349 4
1.5756861 0.12068915 0.25029516 12
1.5853046 0.12114758 -0.13910057 5
1.6071672 0.12253696 0.31330839 13
1.5752809 0.11982855 -0.082795486 6
1.6030794 0.12194312 0.37116924 14
1.5712417 0.11924549 -0.027504994 7
1.581398 0.11751836 0.027679518 8
1.581504 0.11697118 0.083109505 9
1.5643673 0.11570372 -0.30491278 2
1.5697204 0.1158242 0.13770607 10
1.5740672 0.11586875 -0.2499823 3
1.5798495 0.11601718 0.19450349 11
1.5838293 0.11603152 -0.19499096 4
1.5741277 0.1150446 0.2499823 12
1.5777491 0.11530928 -0.13840331 5
1.6075648 0.11720629 0.31330839 13
1.5836377 0.11518393 -0.083214179 6
1.5976645 0.11592309 0.36981952 14
1.5756373 0.11404917 -0.027574802 7
1.5738196 0.11143294 0.027539898 8
1.5819027 0.11144957 0.083109505 9
1.5647616 0.11024193 -0.30491278 2
1.5661403 0.11006513 0.13735744 10
1.5626389 0.10954501 -0.24810509 3
1.5802449 0.11050134 0.19450349 11
1.5842246 0.11050256 -0.19499096 4
1.5764903 0.1096866 0.25029516 12
1.574167 0.10952495 -0.1380547 5
1.6001301 0.11105 0.31178191 13
1.5900075 0.11006943 -0.083528191 6
1.5980593 0.11034659 0.36981952 14
1.5760258 0.10854805 -0.027574802 7
1.5682136 0.10553537 0.027435182 8
1.5822821 0.10592736 0.083109505 9
1.5729723 0.10530411 -0.30643925 2
1.5704908 0.10486266 0.13770607 10
1.5590696 0.10382677 -0.24747935 3
1.5687367 0.10419556 0.19304106 11
1.5846007 0.10497148 -0.19499096 4
1.5847479 0.10470344 0.25154665 12
1.5705636 0.10376629 -0.13770607 5
1.5965898 0.10520598 0.31101868 13
1.5784245 0.10373233 -0.082900167 6
1.5984348 0.10476722 0.36981952 14
1.5763952 0.10304637 -0.027574802 7
1.5665768 0.099932924 0.027400278 8
1.5726759 0.099771589 0.082586147 9
1.5694119 0.099564515 -0.30567604 2
1.5788008 0.099882759 0.13840331 10
1.5633656 0.098633058 -0.24810509 3
1.5631473 0.098345406 0.19230984 11
1.5809952 0.099190541 -0.19450349 4
1.5752461 0.098554604 0.2499823 12
1.5748932 0.098532528 -0.1380547 5
1.6008663 0.099877045 0.31178191 13
1.5668163 0.097477436 -0.082272127 6
1.5968457 0.099066675 0.36936963 14
1.5727534 0.097295731 -0.027504994 7
1.6042511 0.098963231 0.43067491 15
1.5729045 0.094825283 0.027504994 8
1.5730145 0.094281644 0.082586147 9
1.5619107 0.093616121 -0.30414957 2
1.5791398 0.094371438 0.13840331 10
1.567644 0.093409874 -0.24873082 3
1.5634811 0.09288799 0.19230984 11
1.5773686 0.0934368 -0.19401602 4
1.5696647 0.092705563 0.2490437 12
1.5792216 0.092993423 -0.13840331 5
1.6012052 0.094287939 0.31178191 13
1.5751225 0.092476197 -0.08269082 6
1.5894002 0.093036115 0.36757001 14
1.5710871 0.091689028 -0.027470089 7
1.6219441 0.094373025 0.43533364 15
1.5732259 0.089334577 0.027504994 8
1.5733341 0.088789806 0.082586147 9
1.5544028 0.087449297 -0.30262309 2
1.5735073 0.088248625 0.13788037 10
1.5719205 0.087884434 -0.24935657 3
1.5657778 0.087540992 0.19255358 11
1.5776851 0.08792977 -0.19401602 4
1.566034 0.087007008 0.24841796 12
1.5636219 0.086599261 -0.13700882 5
1.6093811 0.088851087 0.31330839 13
1.5714623 0.08648257 -0.082481474 6
1.5975138 0.087637372 0.36936963 14
1.5674042 0.085985608 -0.027400278 7
1.5836842 0.086600736 0.42498088 15
1.5635581 0.08303716 0.027330469 8
1.5736344 0.083296888 0.082586147 9
1.5586195 0.082230076 -0.3033863 2
1.5638576 0.082231991 0.13700882 10
1.5603815 0.081776142 -0.24747935 3
1.5660881 0.081801891 0.19255358 11
1.5740319 0.081940614 -0.19352853 4
1.5604101 0.081231497 0.24747935 12
1.5639147 0.081140257 -0.13700882 5
1.5939963 0.082422808 0.31025544 13
1.5797331 0.081408091 -0.082900167 6
1.5978099 0.082060054 0.36936963 14
1.5736861 0.080821104 -0.027504994 7
1.585906 0.081171952 0.42549852 15
1.5518416 0.077255502 0.027121039 8
1.5739156 0.077803701 0.082586147 9
1.5608581 0.076885156 -0.30376795 2
1.5681152 0.076967552 0.13735744 10
1.5586714 0.076504014 -0.24716648 3
1.564368 0.076510698 0.19230984 11
1.5822259 0.07710731 -0.19450349 4
1.5685765 0.076166965 0.24873082 12
1.5602083 0.075488448 -0.1366602 5
1.5864171 0.076756515 0.30872896 13
1.5640347 0.075399987 -0.082062788 6
1.5980732 0.076760627 0.36936963 14
1.5779533 0.075518943 -0.027574802 7
1.5900393 0.075819224 0.42653382 15
1.5600921 0.072207503 0.027260659 8
1.5701873 0.072125532 0.082376808 9
1.555221 0.071438052 -0.30262309 2
1.576323 0.072131686 0.1380547 10
1.5648489 0.071333699 -0.24810509 3
1.5527273 0.07050886 0.19084741 11
1.5666211 0.070865795 -0.19255358 4
1.5727794 0.070870072 0.24935657 12
1.564443 0.070220098 -0.13700882 5
1.5905979 0.071394064 0.3094922 13
1.5523168 0.069404364 -0.081434757 6
1.5866506 0.070662729 0.36667022 14
1.5861982 0.070364453 -0.027714422 7
1.596084 0.070523888 0.4280867 15
1.5643303 0.066932619 0.027330469 8
1.5624475 0.066306449 0.081958115 9
1.5476263 0.065406151 -0.30109662 2
1.570605 0.066102691 0.13753176 10
1.5650998 0.065596618 -0.24810509 3
1.5628808 0.065503612 0.1920661 11
1.556942 0.064983256 -0.19133489 4
1.5611752 0.06488701 0.24747935 12
1.5646785 0.064758331 -0.13700882 5
1.5947721 0.065725788 0.31025544 13
1.5645342 0.064206079 -0.082062788 6
1.5830047 0.064686596 0.3657704 14
1.5664541 0.064010285 -0.027365373 7
1.5866692 0.06455972 0.42549852 15
1.5685614 0.061355278 0.027400278 8
1.5666716 0.060732938 0.082167462 9
1.5439216 0.059851024 -0.30033338 2
1.5548987 0.060005531 0.13613726 10
1.5653192 0.060134076 -0.24810509 3
1.5631104 0.059775278 0.1920661 11
1.5710552 0.059805267 -0.19304106 4
1.5594286 0.05909013 0.24716648 12
1.564895 0.059297267 -0.13700882 5
1.5989155 0.060306162 0.31101868 13
1.5687405 0.058893889 -0.082272127 6
1.5832208 0.05916157 0.3657704 14
1.566678 0.05826886 -0.027365373 7
1.5791731 0.058457598 0.42342797 15
1.5547771 0.055380899 0.027155945 8
1.5708662 0.055405751 0.082376808 9
1.5460831 0.05453163 -0.300715 2
1.5511165 0.05443738 0.13578865 10
1.5536746 0.054255672 -0.24622789 3
1.5633094 0.054319717 0.1920661 11
1.5692705 0.054251891 -0.1927973 4
1.5596254 0.053645935 0.24716648 12
1.5531453 0.05342304 -0.13596295 5
1.5794952 0.054053407 0.30720252 13
1.5729288 0.053553857 -0.082481474 6
1.5912082 0.053898197 0.36757001 14
1.5748663 0.053069491 -0.027504994 7
1.5774368 0.052880511 0.42291033 15
1.5509636 0.049824543 0.027086135 8
1.5670574 0.049794775 0.082167462 9
1.5403773 0.048946988 -0.29957014 2
1.5532883 0.049085159 0.13596295 10
1.5499055 0.048708234 -0.24560213 3
1.555553 0.048613969 0.19109115 11
1.5714345 0.048835028 -0.19304106 4
1.5617775 0.048262835 0.24747935 12
1.5612881 0.048247714 -0.1366602 5
1.5757495 0.048419345 0.30643925 13
1.5611281 0.047696609 -0.081853449 6
1.5913867 0.048343852 0.36757001 14
1.5790395 0.047692932 -0.027574802 7
1.5930595 0.047837358 0.42705145 15
1.5551258 0.044525903 0.027155945 8
1.5632287 0.044211078 0.081958115 9
1.5483886 0.043791372 -0.30109662 2
1.5614167 0.043887857 0.1366602 10
1.5500662 0.043297343 -0.24560213 3
1.5517446 0.043073203 0.19060367 11
1.5497676 0.04274765 -0.19035992 4
1.5658858 0.042918753 0.24810509 12
1.5574639 0.042687919 -0.13631159 5
1.5798341 0.043025136 0.30720252 13
1.5493059 0.041923143 -0.08122541 6
1.5837535 0.042578671 0.3657704 14
1.5791963 0.042180344 -0.027574802 7
1.5893545 0.042174101 0.42601615 15
1.5552717 0.039096814 0.027155945 8
1.5312327 0.038225111 -0.35362303 1
1.551387 0.038728233 0.081330083 9
1.542644 0.038240585 -0.29995176 2
1.5675358 0.03858389 0.13718314 10
1.5541575 0.037982453 -0.24622789 3
1.55387 0.037704822 0.19084741 11
1.5578389 0.037801132 -0.19133489 4
1.5561455 0.037488297 0.24654076 12
1.5576034 0.037250679 -0.13631159 5
1.5799747 0.037510555 0.30720252 13
1.5574297 0.036703348 -0.081644095 6
1.5799897 0.037235014 0.36487061 14
1.5633343 0.036568772 -0.027295565 7
1.5972109 0.037083056 0.4280867 15
1.5593913 0.034025945 0.027225753 8
1.5527823 0.033611353 -0.35857198 1
1.5634876 0.033843081 0.081958115 9
1.5329484 0.032913644 -0.29804367 2
1.5477357 0.032960899 0.13544002 10
1.5582248 0.032912951 -0.24685362 3
1.5579557 0.032634508 0.19133489 11
1.555971 0.032592937 -0.19109115 4
1.5424366 0.032040119 0.24435066 12
1.5497503 0.031922203 -0.13561434 5
1.584016 0.0323507 0.30796573 13
1.5575428 0.031538095 -0.081644095 6
1.5840012 0.03207384 0.3657704 14
1.5594484 0.031304408 -0.027225753 7
1.5857363 0.031555258 0.42498088 15
1.5554969 0.028780958 0.027155945 8
1.54704 0.028354393 -0.35722226 1
1.5596023 0.028312365 0.081748769 9
1.5389379 0.027937232 -0.29918852 2
1.5398682 0.02768529 0.13474278 10
1.5464749 0.02753409 -0.2449764 3
1.5659945 0.02760824 0.19230984 11
1.5580602 0.027196357 -0.19133489 4
1.5543896 0.02686093 0.24622789 12
1.5458635 0.026713595 -0.13526571 5
1.5801888 0.027030895 0.30720252 13
1.5576388 0.026373234 -0.081644095 6
1.5802065 0.026479479 0.36487061 14
1.563547 0.025927367 -0.027295565 7
1.5819737 0.025956759 0.42394564 15
1.5395921 0.023111293 0.026876707 8
1.5334898 0.022751272 -0.35407296 1
1.5596917 0.022867747 0.081748769 9
1.539026 0.022564754 -0.29918852 2
1.5499165 0.022454614 0.13561434 10
1.5426114 0.022078767 -0.24435066 3
1.5521872 0.021944877 0.19060367 11
1.5641004 0.021841027 -0.1920661 4
1.5584241 0.021488989 0.24685362 12
1.5459473 0.021316947 -0.13526571 5
1.5724211 0.021407519 0.30567604 13
1.5457389 0.020775178 -0.081016071 6
1.5841864 0.021014644 0.3657704 14
1.5676271 0.020521345 -0.027365373 7
1.5820546 0.020434817 0.42394564 15
1.5456622 0.017805668 0.026981421 8
1.5374571 0.017442791 -0.35497275 1
1.5477792 0.017289741 0.081120737 9
1.546948 0.017280458 -0.300715 2
1.5499854 0.017043846 0.13561434 10
1.5466295 0.01673699 -0.2449764 3
1.5383593 0.016378984 0.18889751 11
1.5562271 0.016297597 -0.19109115 4
1.5644155 0.016110295 0.24779223 12
1.5499969 0.015961813 -0.13561434 5
1.5764124 0.015958693 0.30643925 13
1.5418077 0.015339265 -0.080806725 6
1.5764556 0.015408819 0.36397079 14
1.5636899 0.01501112 -0.027295565 7
1.5859798 0.014948283 0.42498088 15
1.5517136 0.012458681 0.027086135 8
1.5277653 0.011999753 -0.35272324 1
1.5518245 0.01191714 0.081330083 9
1.52933 0.011744396 -0.29728043 2
1.5619894 0.011723328 0.1366602 10
1.550629 0.011367431 -0.24560213 3
1.5443623 0.011051213 0.18962872 11
1.5443642 0.010781688 -0.18962872 4
1.5486596 0.010542125 0.24528927 12
1.5500432 0.010551544 -0.13561434 5
1.5764586 0.010455468 0.30643925 13
1.5458462 0.0099826436 -0.081016071 6
1.568705 0.0098572215 0.3621712 14
1.5597334 0.0095278844 -0.027225753 7
1.5860224 0.0094116684 0.42498088 15
1.5517477 0.0070416997 0.027086135 8
1.5375414 0.0067088925 -0.35497275 1
1.5518566 0.0065012565 0.081330083 9
1.5273986 0.0063987928 -0.29689881 2
1.5440894 0.0061984975 0.13509139 10
1.5467086 0.0059390729 -0.2449764 3
1.5503466 0.0056832079 0.19035992 11
1.5523329 0.0054188282 -0.19060367 4
1.5388101 0.0051030633 0.24372493 12
1.5460858 0.0051271911 -0.13526571 5
1.5882649 0.004990634 0.30872896 13
1.5498662 0.0045987498 -0.08122541 6
1.5726273 0.0043918253 0.36307099 14
1.5517584 0.0040619867 -0.027086135 7
1.5821818 0.003866252 0.42394564 15
1.5477635 0.0016204462 0.027016325 8
1.5414529 0.0013455561 -0.35587254 1
1.5518699 0.001083813 0.081330083 9
1.5313381 0.0010694738 -0.29766205 2
1.5381244 0.00080504268 0.13456847 10
1.5388185 0.00053758133 -0.24372493 3
1.5543274 0.00027173435 0.19084741 11
1.5523423 -0 -0.19060367 4
1.5447447 -0.0002696088 0.24466354 12
1.5401171 -0.00026880114 -0.13474278 5
1.5725667 -0.00054892938 0.30567604 13
1.5578618 -0.00081569463 -0.081644095 6
1.5765305 -0.0011006261 0.36397079 14
1.5557625 -0.0013576591 -0.027155945 7
1.5725265 -0.0016467463 0.42135742 15
1.5357616 -0.0037525811 0.026806895 8
1.5317045 -0.0040100017 -0.35362303 1
1.5598532 -0.0043559428 0.081748769 9
1.5293692 -0.0042708153 -0.29728043 2
1.5480798 -0.0045932587 0.13544002 10
1.5348601 -0.0048219212 -0.24309918 3
1.5424082 -0.005114838 0.18938497 11
1.5602731 -0.0054464024 -0.19157861 4
1.5467097 -0.0056690122 0.2449764 12
1.5381134 -0.0059059598 -0.13456847 5
1.5686287 -0.0060231308 0.30491278 13
1.5418715 -0.0061895018 -0.080806725 6
1.5726196 -0.0065874117 0.36307099 14
1.5557483 -0.0067882757 -0.027155945 7
1.574443 -0.0071446444 0.42187506 15
1.5357391 -0.0091133667 0.026806895 8
1.5297326 -0.0093447203 -0.35317314 1
1.5438508 -0.0097004278 0.080911398 9
1.5332698 -0.0099015618 -0.29804367 2
1.5420755 -0.010227582 0.1349171 10
1.538783 -0.010474324 -0.24372493 3
1.5344409 -0.010444769 0.18841003 11
1.5423791 -0.010768011 -0.18938497 4
1.550631 -0.011096273 0.24560213 12
1.5380833 -0.011274941 -0.13456847 5
1.5685961 -0.011772402 0.30491278 13
1.5338496 -0.011779351 -0.080388032 6
1.5647901 -0.012290085 0.36127138 14
1.5557152 -0.012218808 -0.027155945 7
1.5821356 -0.01270247 0.42394564 15
1.5396947 -0.014780463 0.026876707 8
1.5257908 -0.014913316 -0.35227334 1
1.5398105 -0.01531912 0.080702052 9
1.5253732 -0.015175488 -0.29651719 2
1.546015 -0.015650705 0.13526571 10
1.5426875 -0.015886297 -0.24435066 3
1.5324073 -0.016047915 0.18816628 11
1.5343894 -0.016336508 -0.18841003 4
1.5387285 -0.016651295 0.24372493 12
1.5460038 -0.016730024 -0.13526571 5
1.5685455 -0.017247753 0.30491278 13
1.5457821 -0.01726727 -0.081016071 6
1.5647377 -0.017752148 0.36127138 14
1.5476617 -0.017828569 -0.027016325 7
1.5820785 -0.018501202 0.42394564 15
1.5436327 -0.02020726 0.026946515 8
1.5296265 -0.020290924 -0.35317314 1
1.5397477 -0.020693969 0.080702052 9
1.5213847 -0.020447174 -0.29575396 2
1.5419666 -0.020992963 0.1349171 10
1.5426227 -0.021271184 -0.24435066 3
1.5541759 -0.021701798 0.19084741 11
1.5363079 -0.021720488 -0.18865377 4
1.5327353 -0.021937545 0.24278632 12
1.5319906 -0.021926887 -0.13404553 5
1.5724019 -0.022779772 0.30567604 13
1.5377243 -0.022545829 -0.080597378 6
1.5607692 -0.023156175 0.36037159 14
1.543591 -0.02317078 -0.026946515 7
1.5684828 -0.023818243 0.42032215 15
1.5335556 -0.025429646 0.026771991 8
1.5295464 -0.025630193 -0.35317314 1
1.5396706 -0.025799841 0.080702052 9
1.5213041 -0.025757674 -0.29575396 2
1.5359076 -0.026273072 0.13439415 10
1.5306885 -0.026451029 -0.24247345 3
1.5441667 -0.026953528 0.18962872 11
1.5501162 -0.027328011 -0.19035992 4
1.5346292 -0.02705498 0.24309918 12
1.5319048 -0.027274396 -0.13404553 5
1.560535 -0.02805659 0.3033863 13
1.5456239 -0.028058354 -0.081016071 6
1.5606788 -0.028604135 0.36037159 14
1.5435058 -0.028289385 -0.026946515 7
1.5645322 -0.02894791 0.41928688 15
1.5294642 -0.030435389 0.026702182 8
1.5255563 -0.030623991 -0.35227334 1
1.541568 -0.031214569 0.080806725 9
1.5251306 -0.031148033 -0.29651719 2
1.5377985 -0.031675257 0.13456847 10
1.5305923 -0.03152683 -0.24247345 3
1.5361302 -0.031909116 0.18865377 11
1.5460478 -0.032385081 -0.18987246 4
1.5424253 -0.032578524 0.24435066 12
1.5337923 -0.032664001 -0.13421984 5
1.5525821 -0.033064157 0.30185983 13
1.5375351 -0.033012185 -0.080597378 6
1.5605755 -0.033779379 0.36037159 14
1.5473959 -0.033764299 -0.027016325 7
1.5682843 -0.034493934 0.42032215 15
1.5353462 -0.035914317 0.026806895 8
1.5137508 -0.035673518 -0.34957394 1
1.5394529 -0.036548056 0.080702052 9
1.5250189 -0.036205377 -0.29651719 2
1.5356932 -0.036726978 0.13439415 10
1.530473 -0.036869407 -0.24247345 3
1.5260869 -0.037030246 0.18743508 11
1.5340184 -0.037490603 -0.18841003 4
1.5462517 -0.038059607 0.2449764 12
1.5376589 -0.037848104 -0.13456847 5
1.5524573 -0.038483474 0.30185983 13
1.5254308 -0.038079925 -0.079969354 6
1.5526556 -0.039030708 0.35857198 14
1.5512668 -0.039266717 -0.027086135 7
1.5700854 -0.040017277 0.42083979 15
1.5352114 -0.04127346 0.026806895 8
1.5214092 -0.041168123 -0.35137355 1
1.5313299 -0.041704033 0.080283366 9
1.5189958 -0.041368123 -0.29537234 2
1.5415306 -0.042251084 0.1349171 10
1.5342842 -0.042320456 -0.24309918 3
1.5319012 -0.0425223 0.18816628 11
1.5219722 -0.042512532 -0.18694758 4
1.5322872 -0.043068305 0.24278632 12
1.5415007 -0.043327268 -0.1349171 5
1.5601634 -0.044124339 0.3033863 13
1.5332742 -0.043631684 -0.080388032 6
1.5525098 -0.04445025 0.35857198 14
1.5391272 -0.044335935 -0.026876707 7
1.5737984 -0.045609582 0.42187506 15
1.5390556 -0.046753537 0.026876707 8
1.5232042 -0.0465381 -0.35182345 1
1.5351677 -0.047171805 0.080492713 9
1.5090305 -0.046368673 -0.29346424 2
1.5314165 -0.047324076 0.13404553 10
1.5341271 -0.047675852 -0.24309918 3
1.5456324 -0.048303425 0.18987246 11
1.5337192 -0.048199065 -0.18841003 4
1.5183069 -0.047979973 0.24059623 12
1.5293916 -0.048330262 -0.13387121 5
1.5599998 -0.049570054 0.3033863 13
1.5331125 -0.048983544 -0.080388032 6
1.5484496 -0.049744096 0.35767215 14
1.5309683 -0.049449995 -0.026737086 7
1.5581828 -0.050601263 0.41773397 15
1.5268917 -0.051719382 0.026667278 8
1.5366657 -0.052318957 -0.35497275 1
1.5349936 -0.052530248 0.080492713 9
1.5147456 -0.051837325 -0.2946091 2
1.531242 -0.052669428 0.13404553 10
1.5260546 -0.052757666 -0.24184772 3
1.533551 -0.053284802 0.18841003 11
1.5335417 -0.053552452 -0.18841003 4
1.5299751 -0.053695269 0.24247345 12
1.5212491 -0.053389028 -0.13317397 5
1.5480452 -0.054599967 0.30109662 13
1.5449084 -0.054759298 -0.081016071 6
1.5599517 -0.055565119 0.36037159 14
1.5427769 -0.055222966 -0.026946515 7
1.5579967 -0.056040026 0.41773397 15
1.520707 -0.0568249 0.026562562 8
1.517 -0.056951515 -0.35047373 1
1.5367967 -0.057963334 0.080597378 9
1.5184792 -0.057272449 -0.29537234 2
1.5290577 -0.057938691 0.13387121 10
1.5179654 -0.057783704 -0.24059623 3
1.5234374 -0.058258284 0.18719132 11
1.5412798 -0.059209999 -0.18938497 4
1.5376741 -0.059340253 0.24372493 12
1.5250351 -0.058852512 -0.1335226 5
1.5478451 -0.060003318 0.30109662 13
1.5247504 -0.059374548 -0.079969354 6
1.5558536 -0.060857695 0.35947177 14
1.5385785 -0.060450915 -0.026876707 7
1.5616523 -0.061630469 0.41876921 15
1.5264934 -0.062377755 0.026667278 8
1.5051094 -0.061767057 -0.34777433 1
1.5266073 -0.062916182 0.08007402 9
1.51827 -0.062572584 -0.29537234 2
1.5308369 -0.063358143 0.13404553 10
1.5276228 -0.063492194 -0.24216059 3
1.5172747 -0.063327372 0.18646011 11
1.5251971 -0.063924693 -0.18743508 4
1.5374576 -0.064707369 0.24372493 12
1.5288017 -0.064343065 -0.13387121 5
1.5437032 -0.065240137 0.30033338 13
1.5205427 -0.064527191 -0.079760008 6
1.54395 -0.065790482 0.35677236 14
1.5423537 -0.065992147 -0.026946515 7
1.5652879 -0.067247123 0.41980451 15
1.5302619 -0.067883067 0.026737086 8
1.5165654 -0.067540698 -0.35047373 1
1.5263783 -0.068244658 0.08007402 9
1.5141197 -0.067696579 -0.2946091 2
1.5306065 -0.068701379 0.13404553 10
1.5254185 -0.068735294 -0.24184772 3
1.5229936 -0.068892367 0.18719132 11
1.5209985 -0.069068134 -0.18694758 4
1.5253823 -0.069533981 0.24184772 12
1.5285678 -0.069679186 -0.13387121 5
1.5591556 -0.071346223 0.3033863 13
1.528289 -0.070201069 -0.080178693 6
1.5437109 -0.071179464 0.35677236 14
1.5341238 -0.071005739 -0.026806895 7
1.5650437 -0.072710581 0.41980451 15
1.5340103 -0.073415451 0.026806895 8
1.5182669 -0.072927594 -0.35092363 1
1.5241358 -0.073476128 0.079969354 9
1.5060303 -0.072603285 -0.29308262 2
1.5223972 -0.07365863 0.13334829 10
1.5251693 -0.074059568 -0.24184772 3
1.5366229 -0.074884571 0.18889751 11
1.5247136 -0.074570939 -0.18743508 4
1.5192113 -0.074567616 0.2409091 12
1.5203553 -0.074623771 -0.13317397 5
1.5588971 -0.076788254 0.3033863 13
1.5280346 -0.075535372 -0.080178693 6
1.543453 -0.07656759 0.35677236 14
1.5298722 -0.076161541 -0.026737086 7
1.5532037 -0.077594817 0.41669869 15
1.5415317 -0.07889986 -0.41359285 0
1.5217624 -0.078154303 0.026597466 8
1.5102184 -0.077825725 -0.34912404 1
1.533843 -0.079311579 0.080492713 9
1.509689 -0.078062631 -0.29384586 2
1.5141718 -0.078559406 0.13265103 10
1.5170106 -0.078972176 -0.24059623 3
1.5383345 -0.080351479 0.18914123 11
1.524444 -0.079892732 -0.18743508 4
1.522887 -0.080077648 0.24153483 12
1.5081477 -0.079302616 -0.1321281 5
1.5429355 -0.081401892 0.30033338 13
1.5357394 -0.081291035 -0.080597378 6
1.5509603 -0.082368173 0.35857198 14
1.5375845 -0.081926934 -0.026876707 7
1.5471361 -0.08270666 0.41514575 15
1.5065254 -0.082381651 -0.40427536 0
1.5174869 -0.083246708 0.026527658 8
1.5021544 -0.082668558 -0.34732443 1
1.5375453 -0.084885404 0.080702052 9
1.5094073 -0.08333195 -0.29384586 2
1.5158776 -0.083954543 0.13282534 10
1.5048916 -0.083609566 -0.23871902 3
1.5241708 -0.084947519 0.18743508 11
1.5380297 -0.085989207 -0.18914123 4
1.5304873 -0.085835479 0.24278632 12
1.5197974 -0.085235953 -0.13317397 5
1.5387216 -0.086566702 0.29957014 13
1.5194937 -0.085751005 -0.079760008 6
1.5506634 -0.087781534 0.35857198 14
1.5332961 -0.087066859 -0.026806895 7
1.5506952 -0.08832638 0.41618103 15
1.5139583 -0.087824531 -0.4063459 0
1.5172025 -0.088278413 0.026527658 8
1.5018719 -0.087649427 -0.34732443 1
1.5252923 -0.089283362 0.08007402 9
1.5130424 -0.088566311 -0.2946091 2
1.5235469 -0.089448012 0.1335226 10
1.512494 -0.089063987 -0.23997049 3
1.5179358 -0.089650273 0.18670385 11
1.5199016 -0.090032585 -0.18694758 4
1.5242786 -0.090558834 0.24184772 12
1.5195063 -0.09027531 -0.13317397 5
1.538426 -0.0916688 0.29957014 13
1.5192009 -0.090789348 -0.079760008 6
1.5348017 -0.091990501 0.35497275 14
1.5329989 -0.092150971 -0.026806895 7
1.5523224 -0.093584441 0.41669869 15
1.5136427 -0.093108691 -0.4063459 0
1.5208769 -0.093820147 0.026597466 8
1.5015569 -0.092891403 -0.34732443 1
1.5169977 -0.094112404 0.079655334 9
1.5009671 -0.093117893 -0.29231939 2
1.5311795 -0.095260501 0.13421984 10
1.5240031 -0.095081054 -0.24184772 3
1.5215759 -0.095196217 0.18719132 11
1.5156157 -0.095088884 -0.18646011 4
1.5200102 -0.095630921 0.24122196 12
1.5291241 -0.096204326 -0.13404553 5
1.5459342 -0.097532824 0.30109662 13
1.5148883 -0.095839582 -0.079550661 6
1.5422506 -0.097840928 0.35677236 14
1.5206939 -0.096739843 -0.026597466 7
1.5596977 -0.09949442 0.41876921 15
1.4959583 -0.097263671 -0.40168718 0
1.5205401 -0.099128425 0.026597466 8
1.5012234 -0.098132253 -0.34732443 1
1.5246319 -0.099929661 0.08007402 9
1.4967151 -0.098099887 -0.29155618 2
1.5189092 -0.0998208 0.13317397 10
1.5236621 -0.10040025 -0.24184772 3
1.5232152 -0.10063781 0.18743508 11
1.5152746 -0.1003788 -0.18646011 4
1.509812 -0.10028161 0.23965763 12
1.5128573 -0.10074909 -0.13265103 5
1.5455842 -0.10292854 0.30109662 13
1.5185301 -0.10139307 -0.079760008 6
1.5341221 -0.10270312 0.35497275 14
1.520347 -0.10204747 -0.026597466 7
1.5477761 -0.10415991 0.41566339 15
1.4936645 -0.10261358 -0.40116954 0
1.5142 -0.10402434 0.026492754 8
1.5086484 -0.1039075 -0.34912404 1
1.5202886 -0.10497583 0.079864673 9
1.5041796 -0.10412727 -0.29308262 2
1.5105826 -0.10483545 0.13247673 10
1.5075188 -0.1048872 -0.23934476 3
1.5248349 -0.10609198 0.1876788 11
1.5228361 -0.10621999 -0.18743508 4
1.5153644 -0.1059646 0.24059623 12
1.510509 -0.10589 -0.13247673 5
1.5373629 -0.10804217 0.29957014 13
1.5261176 -0.10751954 -0.080178693 6
1.537623 -0.10859986 0.35587254 14
1.5199815 -0.10735386 -0.026597466 7
1.5416219 -0.10915267 0.41411048 15
1.4971508 -0.10810507 -0.40220481 0
1.503836 -0.10885163 0.026318228 8
1.4907646 -0.10816704 -0.34507492 1
1.527881 -0.11086014 0.080283366 9
1.5057651 -0.10951963 -0.29346424 2
1.5141816 -0.11039747 0.13282534 10
1.5032033 -0.10986081 -0.23871902 3
1.5204762 -0.11138999 0.18719132 11
1.5224365 -0.11180075 -0.18743508 4
1.5130152 -0.11110888 0.24028336 12
1.5141042 -0.11145455 -0.13282534 5
1.5252287 -0.11254109 0.29728043 13
1.5177658 -0.11225677 -0.079760008 6
1.5450084 -0.1145428 0.35767215 14
1.5235862 -0.11295461 -0.026667278 7
1.5527909 -0.11539229 0.41721633 15
1.5044698 -0.11391388 -0.40427536 0
1.5094488 -0.11429088 0.026422944 8
1.4923409 -0.11325747 -0.34552482 1
1.5135443 -0.11513233 0.079550661 9
1.5073311 -0.11492432 -0.29384586 2
1.5177604 -0.11598592 0.13317397 10
1.50677 -0.11514605 -0.23934476 3
1.5141606 -0.11597666 0.18646011 11
1.5101818 -0.11593702 -0.18597263 4
1.5145876 -0.11654118 0.24059623 12
1.5117193 -0.11658588 -0.13265103 5
1.5326769 -0.11820216 0.29880691 13
1.5094198 -0.11667354 -0.079341315 6
1.5290767 -0.11846144 0.35407296 14
1.5311573 -0.11889146 -0.026806895 7
1.5408224 -0.11991248 0.41411048 15
1.5002321 -0.11859775 -0.40324008 0
1.5170145 -0.12019088 0.026562562 8
1.4958218 -0.11877453 -0.34642464 1
1.5151241 -0.12057333 0.079655334 9
1.4971565 -0.11914346 -0.29193777 2
1.5133951 -0.12070155 0.13282534 10
1.5102971 -0.12071972 -0.23997049 3
1.5137465 -0.12126135 0.18646011 11
1.5058104 -0.12089011 -0.18548515 4
1.5141717 -0.12182737 0.24059623 12
1.5232403 -0.12255701 -0.1336969 5
1.5400827 -0.12418266 0.30033338 13
1.5090034 -0.12194169 -0.079341315 6
1.528654 -0.12379819 0.35407296 14
1.518774 -0.12326488 -0.026597466 7
1.5557984 -0.12654315 0.4182516 15
1.4921077 -0.12319796 -0.40116954 0
1.5185785 -0.12565042 0.026597466 8
1.4973402 -0.12415623 -0.34687454 1
1.5127037 -0.12569597 0.079550661 9
1.4928184 -0.12404363 -0.29117453 2
1.5129645 -0.12598355 0.13282534 10
1.5138036 -0.12631945 -0.24059623 3
1.5152922 -0.12671 0.18670385 11
1.5093355 -0.12647717 -0.18597263 4
1.5019265 -0.12612028 0.23871902 12
1.4989785 -0.12587273 -0.13160518 5
1.5396398 -0.12955779 0.30033338 13
1.5165293 -0.12787963 -0.079760008 6
1.5282125 -0.12913343 0.35407296 14
1.5103642 -0.12789075 -0.026457848 7
1.5399476 -0.13066645 0.41411048 15
1.4897438 -0.12823994 -0.4006519 0
1.5101615 -0.13026308 0.026457848 8
1.4988391 -0.12954998 -0.34732443 1
1.5162352 -0.13132021 0.079760008 9
1.5001999 -0.12993141 -0.29270101 2
1.496636 -0.12988591 0.13143085 10
1.5015457 -0.13057603 -0.23871902 3
1.5187958 -0.13234322 0.18719132 11
1.5128402 -0.13209029 -0.18646011 4
1.5054128 -0.13170655 0.23934476 12
1.5024997 -0.13145168 -0.13195379 5
1.5235322 -0.13355973 0.29728043 13
1.5120945 -0.13282301 -0.079550661 6
1.5316348 -0.13480881 0.35497275 14
1.5178765 -0.13386483 -0.026597466 7
1.5317849 -0.13536088 0.41203994 15
1.4950594 -0.13395655 -0.40220481 0
1.4977475 -0.13446091 0.02624842 8
1.4847915 -0.133559 -0.34417513 1
1.5137784 -0.13643278 0.079655334 9
1.5016927 -0.13534352 -0.29308262 2
1.5080795 -0.1361845 0.13247673 10
1.5030482 -0.13599463 -0.2390319 3
1.5104167 -0.1369271 0.18621638 11
1.5163237 -0.13772942 -0.18694758 4
1.5069112 -0.13713965 0.23965763 12
1.5020317 -0.13669558 -0.13195379 5
1.5191464 -0.13852049 0.29651719 13
1.5116217 -0.13810039 -0.079550661 6
1.5427986 -0.14122023 0.35767215 14
1.5173999 -0.13916241 -0.026597466 7
1.5351504 -0.14106052 0.41307521 15
1.4965065 -0.1393536 -0.40272245 0
1.5072243 -0.14061698 0.026422944 8
1.482376 -0.13855973 -0.34372523 1
1.5113045 -0.1415298 0.079550661 9
1.5031658 -0.14076763 -0.29346424 2
1.5075951 -0.14144784 0.13247673 10
1.5064977 -0.14161013 -0.23965763 3
1.5059768 -0.14182635 0.18572889 11
1.5099047 -0.14246213 -0.18621638 4
1.5142897 -0.14314252 0.2409091 12
1.5055124 -0.14231282 -0.13230242 5
1.5225626 -0.14419265 0.29728043 13
1.4992003 -0.14224418 -0.078922629 6
1.5190164 -0.14439183 0.35227334 14
1.5208864 -0.14483744 -0.026667278 7
1.5461874 -0.1475192 0.41618103 15
1.4979337 -0.14476237 -0.40324008 0
1.5087146 -0.14607002 0.026457848 8
1.4896417 -0.14448588 -0.34552482 1
1.5088133 -0.1466112 0.079445995 9
1.4948491 -0.1452543 -0.29193777 2
1.5130411 -0.14728859 0.13299966 10
1.5059942 -0.14686793 -0.23965763 3
1.5034969 -0.14688931 0.18548515 11
1.4995201 -0.14676499 -0.18499769 4
1.5000192 -0.14707817 0.23871902 12
1.5089722 -0.14795601 -0.13265103 5
1.5298654 -0.1502742 0.29880691 13
1.5066453 -0.14825886 -0.079341315 6
1.5146245 -0.14931093 0.35137355 14
1.5163914 -0.14975236 -0.026597466 7
1.545663 -0.15291551 0.41618103 15
1.4878081 -0.14902753 -0.4006519 0
1.5081954 -0.15133554 0.026457848 8
1.4891284 -0.14968479 -0.34552482 1
1.5003436 -0.15107664 0.079027303 9
1.4845661 -0.14948794 -0.2900297 2
1.5026062 -0.1515694 0.1321281 10
1.509403 -0.15252113 -0.24028336 3
1.5089 -0.15273635 0.18621638 11
1.5009735 -0.15219866 -0.18524142 4
1.4916357 -0.15151481 0.23746756 12
1.4965534 -0.15201434 -0.13160518 5
1.5332379 -0.156011 0.29957014 13
1.5100926 -0.15392219 -0.079550661 6
1.5179714 -0.15499295 0.35227334 14
1.5039235 -0.15382381 -0.02638804 7
1.5297457 -0.15673473 0.41203994 15
1.4853574 -0.15402079 -0.40013427 0
1.4997021 -0.15577281 0.026318228 8
1.4924734 -0.15528527 -0.34642464 1
1.5097395 -0.15734808 0.079550661 9
1.491846 -0.15548319 -0.29155618 2
1.5000863 -0.15660667 0.13195379 10
1.5010029 -0.15696719 -0.2390319 3
1.5123063 -0.15841609 0.18670385 11
1.5103043 -0.15847287 -0.18646011 4
1.5009205 -0.1577531 0.2390319 12
1.4960136 -0.15723737 -0.13160518 5
1.5170642 -0.15971757 0.29651719 13
1.5055735 -0.15877353 -0.079341315 6
1.5329247 -0.16192842 0.35587254 14
1.5113318 -0.15991423 -0.026527658 7
1.525347 -0.16166636 0.41100466 15
1.4848107 -0.15920471 -0.40013427 0
1.4951727 -0.16057973 0.02624842 8
1.4880471 -0.16007714 -0.34552482 1
1.5111952 -0.1625673 0.079655334 9
1.4912941 -0.16068976 -0.29155618 2
1.4975495 -0.1616282 0.13177948 10
1.4965179 -0.16178109 -0.23840615 3
1.5038499 -0.16283925 0.18572889 11
1.5097705 -0.16348036 -0.18646011 4
1.5082444 -0.16358145 0.24028336 12
1.4994172 -0.16288882 -0.13195379 5
1.5086907 -0.16416268 0.29499072 13
1.4970682 -0.1631624 -0.078922629 6
1.5246303 -0.16616634 0.35407296 14
1.5107932 -0.1649251 -0.026527658 7
1.5286434 -0.16714369 0.41203994 15
1.4881148 -0.1645523 -0.40116954 0
1.4966195 -0.16575713 0.026283324 8
1.47395 -0.16350682 -0.34237552 1
1.5066776 -0.16713732 0.079445995 9
1.4946554 -0.16606775 -0.29231939 2
1.4989856 -0.16681373 0.13195379 10
1.4998996 -0.16718048 -0.2390319 3
1.5013287 -0.16760507 0.18548515 11
1.4934373 -0.16672409 -0.1845102 4
1.5057305 -0.16836253 0.23997049 12
1.4988687 -0.16786017 -0.13195379 5
1.515942 -0.17004013 0.29651719 13
1.4925493 -0.16768001 -0.078713283 6
1.5163246 -0.17035103 0.35227334 14
1.5181867 -0.17082857 -0.026667278 7
1.53192 -0.1726446 0.41307521 15
1.487561 -0.16948617 -0.40116954 0
1.502022 -0.17139934 0.02638804 8
1.475336 -0.16861498 -0.34282541 1
1.4981478 -0.17148703 0.079027303 9
1.4843144 -0.17016605 -0.29041129 2
1.5043625 -0.17246442 0.13247673 10
1.499337 -0.1721534 -0.2390319 3
1.5007647 -0.17258273 0.18548515 11
1.4928463 -0.17193612 -0.1845102 4
1.4933596 -0.17225935 0.23809329 12
1.5061905 -0.17400579 -0.13265103 5
1.5192397 -0.17578202 0.29728043 13
1.4959229 -0.17334875 -0.078922629 6
1.5079776 -0.17474566 0.35047373 14
1.5056628 -0.17474376 -0.026457848 7
1.5389838 -0.17888315 0.41514575 15
1.4830925 -0.17448577 -0.40013427 0
1.5093275 -0.17783938 0.026527658 8
1.4805139 -0.17470637 -0.34417513 1
1.4975092 -0.17697687 0.079027303 9
1.4778316 -0.1749129 -0.28926644 2
1.4958059 -0.17704029 0.13177948 10
1.5026193 -0.17811263 -0.23965763 3
1.5040646 -0.17855015 0.18597263 11
1.500091 -0.17834395 -0.18548515 4
1.4927181 -0.17773163 0.23809329 12
1.491694 -0.17787373 -0.13143085 5
1.5224841 -0.18181473 0.29804367 13
1.4952774 -0.17883043 -0.078922629 6
1.5111969 -0.18073434 0.35137355 14
1.5010413 -0.1797855 -0.02638804 7
1.5229729 -0.18268196 0.41100466 15
1.474772 -0.17898938 -0.39806372 0
1.4967551 -0.1819225 0.026318228 8
1.4934049 -0.1817798 -0.34732443 1
1.5048128 -0.18316841 0.079445995 9
1.479161 -0.18030798 -0.28964809 2
1.4852585 -0.18131436 0.13090792 10
1.4980347 -0.18313938 -0.2390319 3
1.5073408 -0.18454412 0.18646011 11
1.4994593 -0.18357918 -0.18548515 4
1.4901279 -0.18270071 0.23778042 12
1.491064 -0.18307965 -0.13143085 5
1.5101485 -0.18569048 0.29575396 13
1.5025733 -0.18502523 -0.079341315 6
1.5221616 -0.18743731 0.35407296 14
1.5043739 -0.18551348 -0.026457848 7
1.5184915 -0.18752348 0.40996939 15
1.4799212 -0.18459624 -0.3996166 0
1.4882065 -0.18589349 0.026178611 8
1.4792582 -0.18503794 -0.34417513 1
1.506179 -0.18840541 0.079550661 9
1.4824511 -0.18570012 -0.29041129 2
1.4866259 -0.18648663 0.13108224 10
1.4895793 -0.18712118 -0.23778042 3
1.4949031 -0.18805504 0.18499769 11
1.5106596 -0.19003716 -0.18694758 4
1.4953936 -0.18838184 0.23871902 12
1.488472 -0.18777382 -0.13125655 5
1.5056291 -0.19020516 0.29499072 13
1.4860998 -0.18800159 -0.078503944 6
1.5176649 -0.19199479 0.35317314 14
1.5077182 -0.19100381 -0.026527658 7
1.5178612 -0.19255796 0.40996939 15
1.4869657 -0.19048469 -0.40168718 0
1.4915488 -0.19133641 0.02624842 8
1.4670393 -0.1884526 -0.34147573 1
1.4975884 -0.19264257 0.079131976 9
1.4857213 -0.19111605 -0.29117453 2
1.4899514 -0.1919245 0.13143085 10
1.4889506 -0.19205979 -0.23778042 3
1.4942713 -0.19301125 0.18499769 11
1.4903001 -0.19276275 -0.1845102 4
1.4927678 -0.19334684 0.23840615 12
1.491793 -0.19322057 -0.13160518 5
1.5088838 -0.19570202 0.29575396 13
1.4894294 -0.19344307 -0.078713283 6
1.5092556 -0.19628595 0.35137355 14
1.5149741 -0.19729856 -0.026667278 7
1.5248425 -0.1988544 0.41203994 15
1.4888892 -0.19628033 0.026213516 8
1.4663726 -0.19357237 -0.34147573 1
1.4949268 -0.19760722 0.079027303 9
1.4733673 -0.19475737 -0.28888482 2
1.4971731 -0.19817002 0.1321281 10
1.4902294 -0.19751558 -0.23809329 3
1.4955562 -0.19848724 0.18524142 11
1.491586 -0.19822522 -0.18475394 4
1.4862096 -0.19777471 0.23746756 12
1.4990094 -0.19947802 -0.13230242 5
1.5120836 -0.20148642 0.29651719 13
1.4887451 -0.198641 -0.078713283 6
1.5008349 -0.20052074 0.34957394 14
1.5023838 -0.2009946 -0.026457848 7
1.524139 -0.20417586 0.41203994 15
1.4941399 -0.20228119 0.026318228 8
1.4734122 -0.19973688 -0.34327531 1
1.4981861 -0.20336156 0.079236642 9
1.4687878 -0.19937107 -0.28812161 2
1.4846268 -0.20178491 0.13108224 10
1.4993175 -0.20404814 -0.23965763 3
1.4968212 -0.20397452 0.18548515 11
1.4869512 -0.20289387 -0.18426646 4
1.4776813 -0.20189169 0.23621608 12
1.4864595 -0.20309103 -0.13125655 5
1.5113711 -0.20676336 0.29651719 13
1.4920002 -0.2043786 -0.078922629 6
1.5078486 -0.20681767 0.35137355 14
1.4897866 -0.20460519 -0.02624842 7
1.523417 -0.20949487 0.41203994 15
1.4894633 -0.20694511 0.02624842 8
1.4842869 -0.20648994 -0.34597474 1
1.4935108 -0.20803888 0.079027303 9
1.4778053 -0.20585117 -0.2900297 2
1.4799668 -0.20641556 0.13073361 10
1.4907706 -0.20818764 -0.23840615 3
1.5000319 -0.20974794 0.18597263 11
1.4921318 -0.20890878 -0.18499769 4
1.4828362 -0.20787124 0.23715468 12
1.4857415 -0.20827852 -0.13125655 5
1.5028635 -0.21094619 0.29499072 13
1.4952333 -0.21014135 -0.079131976 6
1.510977 -0.21262291 0.35227334 14
1.4890633 -0.20980427 -0.02624842 7
1.5073731 -0.21265237 0.40789884 15
1.4846987 -0.21209709 0.026178611 8
1.4661212 -0.20970431 -0.34192562 1
1.5006468 -0.21464263 0.079445995 9
1.4770041 -0.21152398 -0.2900297 2
1.4831077 -0.21266228 0.13108224 10
1.4821388 -0.21278735 -0.23715468 3
1.4893911 -0.21409383 0.18475394 11
1.4992156 -0.21550608 -0.18597263 4
1.4918406 -0.21471173 0.23871902 12
1.480987 -0.21341348 -0.13090792 5
1.5020424 -0.21671523 0.29499072 13
1.4865085 -0.21473883 -0.078713283 6
1.50633 -0.21760222 0.35137355 14
1.5001588 -0.21697804 -0.026457848 7
1.5104074 -0.2187295 0.40893409 15
1.4839872 -0.21701935 0.026178611 8
1.4712023 -0.21541196 -0.34327531 1
1.4900458 -0.21817102 0.078922629 9
1.4840643 -0.2175598 -0.29155618 2
1.4902794 -0.21873659 0.13177948 10
1.4853339 -0.21827555 -0.23778042 3
1.4906369 -0.21932065 0.18499769 11
1.4827812 -0.2181648 -0.18402272 4
1.4852575 -0.21879402 0.23778042 12
1.4842131 -0.21890482 -0.13125655 5
1.497431 -0.22112137 0.29422748 13
1.4818367 -0.21908288 -0.078503944 6
1.5017446 -0.22202617 0.35047373 14
1.499431 -0.22195157 -0.026457848 7
1.5173177 -0.2248698 0.41100466 15
1.4872147 -0.22253108 0.02624842 8
1.4793993 -0.22188967 0.078399271 9
1.4716854 -0.22073269 -0.28926644 2
1.4856051 -0.2230856 0.13143085 10
1.4846019 -0.2231999 -0.23778042 3
1.4859755 -0.22367162 0.1845102 11
1.4761219 -0.22245191 -0.18329151 4
1.4786249 -0.22309308 0.23684181 12
1.4913595 -0.22501445 -0.13195379 5
1.5083369 -0.22784525 0.29651719 13
1.4850515 -0.22459294 -0.078713283 6
1.4932534 -0.22609992 0.34867415 14
1.4867847 -0.22538593 -0.02624842 7
1.5203435 -0.23074467 0.41203994 15
1.4923587 -0.22862953 0.026353134 8
1.4865122 -0.22826496 0.078817956 9
1.467025 -0.22527255 -0.28850323 2
1.4808791 -0.2276645 0.13108224 10
1.4877185 -0.22898178 -0.23840615 3
1.4930334 -0.23006658 0.18548515 11
1.4851457 -0.22911648 -0.1845102 4
1.4719806 -0.22734851 0.23590319 12
1.4748125 -0.22778592 -0.1305593 5
1.503652 -0.23250891 0.29575396 13
1.4842585 -0.22977537 -0.078713283 6
1.4963064 -0.23190789 0.34957394 14
1.4899409 -0.23118763 -0.026318228 7
1.508075 -0.23427096 0.40893409 15
1.4856249 -0.23290828 0.02624842 8
1.4896526 -0.23407252 0.079027303 9
1.4681692 -0.23069678 -0.28888482 2
1.4761389 -0.23221309 0.13073361 10
1.4791048 -0.23294422 -0.23715468 3
1.496143 -0.23589517 0.18597263 11
1.4902194 -0.23522779 -0.18524142 4
1.4809339 -0.23402698 0.23746756 12
1.4700725 -0.23231061 -0.13021068 5
1.4970138 -0.23683588 0.2946091 13
1.4913381 -0.23620477 -0.079131976 6
1.4993372 -0.23773995 0.35047373 14
1.4891248 -0.23638706 -0.026318228 7
1.5034323 -0.23892727 0.40789884 15
1.4769049 -0.23682621 0.0261088 8
1.4967142 -0.24053864 0.079445995 9
1.4712317 -0.23644331 -0.28964809 2
1.4772865 -0.23768087 0.13090792 10
1.4743822 -0.23747757 -0.23652895 3
1.4796323 -0.23858817 0.18402272 11
1.4933087 -0.2410609 -0.18572889 4
1.4820579 -0.23951012 0.23778042 12
1.4810539 -0.23934786 -0.13125655 5
1.4903638 -0.24111935 0.29346424 13
1.4747319 -0.23885447 -0.078294598 6
1.4984982 -0.24297217 0.35047373 14
1.496186 -0.24286526 -0.026457848 7
1.5025891 -0.24417378 0.40789884 15
1.4819893 -0.24295063 0.026213516 8
1.4800988 -0.2431713 0.078608617 9
1.4839584 -0.24380541 -0.29231939 2
1.4784138 -0.24315946 0.13108224 10
1.4735441 -0.24262269 -0.23652895 3
1.4748731 -0.24310589 0.18353525 11
1.4767892 -0.2436865 -0.18377897 4
1.4831619 -0.245004 0.23809329 12
1.4802094 -0.24451627 -0.13125655 5
1.4991978 -0.24792176 0.29537234 13
1.4738892 -0.24400079 -0.078294598 6
1.4937959 -0.24756415 0.34957394 14
1.4913837 -0.24743186 -0.02638804 7
1.5055391 -0.25005034 0.40893409 15
1.4811321 -0.24812229 0.026213516 8
1.4753015 -0.24767497 0.078399271 9
1.4795208 -0.24864882 0.13125655 10
1.4804803 -0.2490758 -0.23778042 3
1.4818455 -0.2495714 0.1845102 11
1.4680998 -0.24751988 -0.18280403 4
1.476454 -0.2491934 0.23715468 12
1.4793468 -0.24968165 -0.13125655 5
1.5041307 -0.25413465 0.29651719 13
1.4769672 -0.24981028 -0.078503944 6
1.4852371 -0.25147569 0.34777433 14
1.4865679 -0.25196788 -0.026318228 7
1.519894 -0.25788948 0.41307521 15
1.484199 -0.25396541 0.026283324 8
1.4803337 -0.25383589 0.078713283 9
1.4727528 -0.25280058 0.13073361 10
1.4815488 -0.25457665 -0.23809329 3
1.4887909 -0.25608858 0.18548515 11
1.475052 -0.25399041 -0.18377897 4
1.4716818 -0.25367457 0.23652895 12
1.4706124 -0.25349024 -0.1305593 5
1.5071038 -0.26005116 0.29728043 13
1.4839585 -0.25632414 -0.078922629 6
1.4843503 -0.25665861 0.34777433 14
1.4738568 -0.2551091 -0.0261088 7
1.4961427 -0.25923553 0.40686354 15
1.4754241 -0.25776809 0.026143704 8
1.4833732 -0.25969049 0.078922629 9
1.4679364 -0.25725207 0.13038498 10
1.4728683 -0.25838137 -0.23684181 3
1.4878877 -0.26128387 0.18548515 11
1.4780667 -0.25982508 -0.18426646 4
1.4688419 -0.25846782 0.23621608 12
1.4657942 -0.25793153 -0.13021068 5
1.4868522 -0.26190454 0.29346424 13
1.479121 -0.26080894 -0.078713283 6
1.4949598 -0.26387078 0.35047373 14
1.4847724 -0.26233986 -0.026318228 7
1.4952286 -0.26445645 0.40686354 15
1.4764841 -0.26326776 0.026178611 8
1.4883561 -0.2659207 0.079236642 9
1.4748746 -0.26377764 0.13108224 10
1.4797355 -0.2649135 -0.23809329 3
1.4752429 -0.26437497 0.18402272 11
1.4810585 -0.26568395 -0.18475394 4
1.4718193 -0.2642917 0.23684181 12
1.468761 -0.26400712 -0.1305593 5
1.4820175 -0.26665702 0.29270101 13
1.4702927 -0.26481232 -0.078294598 6
1.4978653 -0.2697784 0.35137355 14
1.4917195 -0.26894027 -0.026457848 7
1.4999999 -0.27070346 0.40841648 15
1.4774766 -0.26903579 0.026213516 8
1.4736177 -0.26886463 0.078503944 9
1.4738979 -0.26918155 0.13108224 10
1.4703587 -0.26906559 0.18353525 11
1.4722643 -0.26967987 -0.18377897 4
1.4805557 -0.27146569 0.23840615 12
1.4677833 -0.26938865 -0.1305593 5
1.488754 -0.2735061 0.29422748 13
1.4653835 -0.26947701 -0.078085259 6
1.4892 -0.27385673 0.34957394 14
1.4848239 -0.2733199 -0.026353134 7
1.5027974 -0.27689955 0.40945172 15
1.4725485 -0.27371827 0.026143704 8
1.4707065 -0.2736415 0.078399271 9
1.47486 -0.27494696 0.13125655 10
1.477168 -0.27591079 0.1845102 11
1.4654601 -0.27372396 -0.18304777 4
1.4698905 -0.27481699 0.23684181 12
1.4746678 -0.27597654 -0.13125655 5
1.495509 -0.28014705 0.29575396 13
1.4683599 -0.27532664 -0.078294598 6
1.4805737 -0.27761677 0.34777433 14
1.4779646 -0.27739462 -0.02624842 7
1.5018216 -0.28214359 0.40945172 15
1.4794918 -0.28008777 0.026283324 8
1.4737158 -0.27926072 0.078608617 9
1.468068 -0.27872139 0.13073361 10
1.4801452 -0.28154966 0.18499769 11
1.4645443 -0.2785821 -0.18304777 4
1.4631495 -0.27858138 0.23590319 12
1.4620016 -0.27862728 -0.13021068 5
1.4752861 -0.28169274 -0.078713283 6
1.4834732 -0.28325599 0.34867415 14
1.4672159 -0.28041723 -0.026073895 7
1.4707006 -0.2834785 0.026143704 8
1.4805762 -0.28591806 0.079027303 9
1.4632232 -0.28283191 0.13038498 10
1.4792035 -0.28645647 0.18499769 11
1.4655117 -0.28407034 -0.18329151 4
1.4621682 -0.28368706 0.23590319 12
1.4610695 -0.28347388 -0.13021068 5
1.4878365 -0.28893661 0.2946091 13
1.4743439 -0.28658345 -0.078713283 6
1.4901268 -0.28992125 0.35047373 14
1.4760423 -0.28744829 -0.02624842 7
1.4638157 -0.28745452 0.026038991 8
1.4795691 -0.2910845 0.079027303 9
1.462227 -0.28793779 0.13038498 10
1.4704043 -0.29008123 0.18402272 11
1.4689205 -0.29032126 0.23715468 12
1.4600711 -0.28857225 -0.13021068 5
1.4733373 -0.29146141 0.29193777 13
1.4654977 -0.29017636 -0.078294598 6
1.4852827 -0.29436329 0.34957394 14
1.4809144 -0.29376617 -0.026353134 7
1.4706469 -0.29413116 0.026178611 8
1.4726689 -0.29507023 0.078713283 9
1.469027 -0.29460725 0.13108224 10
1.4693826 -0.29521212 0.18402272 11
1.4659617 -0.29505724 0.23684181 12
1.4590549 -0.29366711 -0.13021068 5
1.4800093 -0.2981534 0.29346424 13
1.4566444 -0.29371104 -0.077875912 6
1.4804256 -0.29877508 0.34867415 14
1.48184 -0.29932967 -0.02638804 7
1.4715705 -0.29966187 0.026213516 8
1.465759 -0.29901135 0.078399271 9
1.4660376 -0.2993347 0.13090792 10
1.4683433 -0.30033943 0.18402272 11
1.4610524 -0.29937956 0.23621608 12
1.4697319 -0.30115801 -0.13125655 5
1.4904988 -0.30568439 0.29575396 13
1.4634362 -0.30040032 -0.078294598 6
1.4774649 -0.30354872 0.34822425 14
1.4729513 -0.30288935 -0.02624842 7
1.4724737 -0.30520266 0.02624842 8
1.4705731 -0.30534413 0.078713283 9
1.4591316 -0.30323413 0.13038498 10
1.4711728 -0.30627224 0.1845102 11
1.4522634 -0.30286461 0.23496459 12
1.4569691 -0.30384597 -0.13021068 5
1.4894227 -0.31088534 0.29575396 13
1.4623787 -0.30550683 -0.078294598 6
1.4706738 -0.30750766 0.34687454 14
1.4640558 -0.30639058 -0.0261088 7
1.4694427 -0.309928 0.026213516 8
1.4792689 -0.31253985 0.079236642 9
1.4561149 -0.30791342 0.13021068 10
1.4700947 -0.31140575 0.1845102 11
1.4569944 -0.3091622 0.23590319 12
1.4695425 -0.3118248 -0.13143085 5
1.4806467 -0.3144511 0.29422748 13
1.4613035 -0.31060964 -0.078294598 6
1.481028 -0.31507236 0.34957394 14
1.4668891 -0.31233212 -0.026178611 7
1.4566208 -0.31253836 0.026004087 8
1.4684056 -0.31560314 0.078713283 9
1.4550313 -0.31299433 0.13021068 10
1.4689988 -0.31653544 0.1845102 11
1.4616991 -0.31549647 0.23684181 12
1.4680263 -0.31713033 0.29193777 13
1.4602103 -0.31570864 -0.078294598 6
1.4837285 -0.32106453 0.35047373 14
1.4696987 -0.31829712 -0.02624842 7
1.4633356 -0.31932631 0.026143704 8
1.4594902 -0.31902093 0.078294598 9
1.4636617 -0.32020041 0.13108224 10
1.4562505 -0.31911179 0.18304777 11
1.4625182 -0.32102036 0.23715468 12
1.4745804 -0.32393771 0.29346424 13
1.455198 -0.31994602 -0.078085259 6
1.4749858 -0.32456654 0.34867415 14
1.4685787 -0.32342541 -0.02624842 7
1.4622121 -0.32443237 0.026143704 8
1.4642167 -0.3254135 0.078608617 9
1.4586453 -0.32444245 0.13073361 10
1.4590029 -0.32505646 0.18353525 11
1.459461 -0.32569328 0.23684181 12
1.4772727 -0.32993886 0.29422748 13
1.450174 -0.32415226 -0.077875912 6
1.4700404 -0.32886237 0.34777433 14
1.4635381 -0.32767594 -0.026178611 7
1.4688735 -0.33129433 0.026283324 8
1.4591756 -0.32964233 0.078399271 9
1.4575039 -0.32953206 0.13073361 10
1.4714117 -0.33321643 0.18524142 11
1.448683 -0.32860094 0.23527746 12
1.4799412 -0.33596277 0.29499072 13
1.4607195 -0.33186731 -0.078503944 6
1.4726839 -0.33485588 0.34867415 14
1.4584856 -0.3318952 -0.0261088 7
1.4638098 -0.33552611 0.026213516 8
1.4658026 -0.33652145 0.078817956 9
1.4485776 -0.33283308 0.13003637 10
1.4683051 -0.33790544 0.18499769 11
1.4494519 -0.33409944 0.23559032 12
1.4711075 -0.33936146 0.29346424 13
1.4715061 -0.33999446 0.34867415 14
1.4651114 -0.3387863 -0.02624842 7
1.4528919 -0.33836585 0.026038991 8
1.4646189 -0.341636 0.078817956 9
1.447407 -0.33788753 0.13003637 10
1.455519 -0.34031701 0.18353525 11
1.4521236 -0.34005779 0.23621608 12
1.4660908 -0.34359851 0.29270101 13
1.4741048 -0.34601957 0.34957394 14
1.4639198 -0.34389845 -0.02624842 7
1.4536479 -0.3438957 0.026073895 8
1.4557039 -0.34465036 0.078399271 9
1.4500959 -0.34385726 0.13038498 10
1.4581848 -0.34631303 0.18402272 11
1.4586754 -0.34669849 0.23746756 12
1.4648824 -0.34871405 0.29270101 13
1.4653056 -0.34935528 0.34777433 14
1.470552 -0.35060614 -0.02638804 7
1.4563882 -0.34964791 0.026143704 8
1.4506081 -0.34879574 0.078189924 9
1.4527608 -0.34984985 0.13073361 10
1.4570284 -0.35114664 0.18402272 11
1.4478551 -0.34947065 0.23590319 12
1.4751683 -0.35633576 0.29499072 13
1.464139 -0.35421246 0.34777433 14
1.4654322 -0.35479608 -0.026318228 7
1.4629301 -0.35662392 0.026283324 8
1.4532623 -0.35480461 0.078399271 9
1.4477218 -0.35371968 0.13038498 10
1.4557939 -0.35623047 0.18402272 11
1.4427892 -0.35358208 0.23527746 12
1.4739156 -0.36148289 0.29499072 13
1.4628937 -0.35932112 0.34777433 14
1.4480885 -0.35836565 0.026038991 8
1.4578307 -0.36131671 0.078713283 9
1.4426107 -0.35781175 0.13003637 10
1.4622477 -0.36322421 0.18499769 11
1.4453801 -0.35956997 0.23590319 12
1.4650244 -0.36472845 0.29346424 13
1.4654121 -0.36536828 0.34867415 14
1.4410104 -0.36195678 0.025934275 8
1.4584975 -0.36689052 0.078817956 9
1.4452171 -0.36381799 0.13038498 10
1.4532714 -0.36638507 0.18402272 11
1.4575231 -0.36799812 0.23809329 12
1.4561286 -0.36791638 0.29193777 13
1.4679061 -0.37143737 0.34957394 14
1.4455514 -0.36846641 0.026038991 8
1.4494672 -0.3700034 0.078399271 9
1.4439383 -0.36886054 0.13038498 10
1.4423679 -0.36899573 0.18280403 11
1.4485753 -0.37112251 0.23684181 12
1.4662458 -0.37592244 0.29422748 13
1.4590507 -0.37462053 0.34777433 14
1.4365124 -0.37150738 0.025899371 8
1.4442998 -0.37405926 0.078189924 9
1.4522853 -0.37639791 0.13125655 10
1.4487567 -0.37602308 0.18377897 11
1.4434474 -0.3751829 0.23621608 12
1.4649246 -0.38103828 0.29422748 13
