# .PCD v0.7 - Point Cloud Data file format
VERSION 0.7
FIELDS x y z intensity
SIZE 4 4 4 4
TYPE F F F F
COUNT 1 1 1 1
WIDTH 489
HEIGHT 1
VIEWPOINT 0 0 0 1 0 0 0
POINTS 489
DATA ascii
2.7830451 -0.4952347 -0.44771552 3
2.7560322 -0.50035912 -0.44364822 3
2.7581537 -0.51069564 -0.44427395 3
2.7563543 -0.5203203 -0.44427395 3
2.76616 -0.53217775 -0.44615117 3
2.7410235 -0.53727067 -0.4423967 3
2.7352571 -0.54606187 -0.44177097 3
2.7294629 -0.55481941 -0.44114524 3
2.7313783 -0.56514406 -0.44177097 3
2.729389 -0.57467496 -0.44177097 3
2.7157769 -0.58171636 -0.43989375 3
2.7098694 -0.5903517 -0.43926802 3
2.7039354 -0.59895289 -0.43864229 3
2.7172451 -0.61185926 -0.44114524 3
2.8657413 -0.32701665 -0.35415235 4
2.8507819 -0.33539435 -0.35244617 4
2.8693004 -0.34773165 -0.35488355 4
2.85625 -0.35627103 -0.35342112 4
2.8549891 -0.36623901 -0.35342112 4
2.8339474 -0.37410268 -0.35098374 4
2.8208885 -0.38190043 -0.34952128 4
2.8293691 -0.39311075 -0.35073999 4
2.8280499 -0.40249103 -0.35073999 4
2.8245914 -0.41256681 -0.35049626 4
2.8094649 -0.41987732 -0.34879011 4
2.8020954 -0.42878082 -0.34805888 4
2.8064651 -0.43948072 -0.34879011 4
2.802954 -0.44896042 -0.34854636 4
2.8013699 -0.4587419 -0.34854636 4
2.7840071 -0.46638253 -0.34659645 4
2.7784486 -0.47542807 -0.34610897 4
2.7787278 -0.48546541 -0.34635273 4
2.7750621 -0.49481356 -0.34610897 4
2.7733178 -0.50449729 -0.34610897 4
2.761781 -0.51236451 -0.34489027 4
2.7580249 -0.52163285 -0.34464651 4
2.7522888 -0.53050548 -0.34415907 4
2.7504203 -0.54010952 -0.34415907 4
2.7524114 -0.55048561 -0.34464651 4
2.7349114 -0.55692112 -0.34269661 4
2.7290635 -0.56565863 -0.34220913 4
2.7270722 -0.57518137 -0.34220913 4
2.726989 -0.58511364 -0.34245288 4
2.7288089 -0.59547544 -0.34294036 4
2.7092721 -0.60112727 -0.34074673 4
2.7071574 -0.61058074 -0.34074673 4
2.7030742 -0.61958325 -0.34050298 4
2.7008951 -0.62901491 -0.34050298 4
2.7045898 -0.63933796 -0.34123421 4
2.6868999 -0.64506763 -0.33928427 4
2.6963184 -0.65679294 -0.34074673 4
2.9462988 -0.16162886 -0.25815532 5
2.9536726 -0.17237668 -0.25885254 5
2.9471509 -0.18128808 -0.25832963 5
2.9445119 -0.1914452 -0.25815532 5
2.9318643 -0.20141676 -0.25710943 5
2.9231942 -0.21107568 -0.25641218 5
2.9224396 -0.22127825 -0.25641218 5
2.9176772 -0.23116338 -0.25606358 5
2.9168527 -0.24134658 -0.25606358 5
2.9001122 -0.25015703 -0.25466907 5
2.8913286 -0.25906155 -0.25397182 5
2.8983421 -0.26989153 -0.25466907 5
2.8854835 -0.27885705 -0.25362319 5
2.8884575 -0.2893247 -0.25397182 5
2.8754876 -0.29867446 -0.25292596 5
2.866503 -0.30785891 -0.25222871 5
2.8614504 -0.3174237 -0.25188008 5
2.864284 -0.32786322 -0.25222871 5
2.8631809 -0.33735973 -0.25222871 5
2.846163 -0.34543166 -0.25083423 5
2.840924 -0.35536644 -0.2504856 5
2.8436184 -0.36578938 -0.25083423 5
2.8344233 -0.37466884 -0.25013697 5
2.8409953 -0.38563249 -0.25083423 5
2.819967 -0.39230609 -0.2490911 5
2.8146358 -0.40158439 -0.24874248 5
2.8132169 -0.41140684 -0.24874248 5
2.8117635 -0.4212243 -0.24874248 5
2.8103511 -0.43054616 -0.24874248 5
2.7930844 -0.43788478 -0.24734798 5
2.783592 -0.44685584 -0.24665076 5
2.7859473 -0.45721495 -0.24699937 5
2.7843344 -0.46693695 -0.24699937 5
2.77876 -0.47598049 -0.24665076 5
2.7613807 -0.48293144 -0.24525626 5
2.7518327 -0.49116722 -0.24455902 5
2.757942 -0.50219756 -0.24525626 5
2.7561722 -0.51182145 -0.24525626 5
2.7621992 -0.52292156 -0.24595349 5
2.7407939 -0.528786 -0.24421038 5
2.7311115 -0.53681284 -0.24351314 5
2.7331283 -0.5471251 -0.24386176 5
2.7312019 -0.5566622 -0.24386176 5
2.7292421 -0.56619245 -0.24386176 5
2.7155523 -0.57324672 -0.24281588 5
2.7096391 -0.5818857 -0.24246727 5
2.7114842 -0.59219074 -0.24281588 5
2.7055106 -0.60078818 -0.24246727 5
2.707284 -0.61110586 -0.24281588 5
2.6895988 -0.61698854 -0.24142142 5
2.6796672 -0.62456423 -0.24072415 5
2.685226 -0.63575023 -0.24142142 5
2.6792283 -0.64372033 -0.24107277 5
2.6808364 -0.65401316 -0.24142142 5
2.6709166 -0.66098499 -0.24072415 5
2.6569991 -0.66739202 -0.23967829 5
2.6622572 -0.67909569 -0.24037553 5
2.6598706 -0.68838459 -0.24037553 5
2.669014 -0.7007007 -0.24142142 5
2.9619727 -0.15315695 -0.1554378 6
2.9614201 -0.16349524 -0.1554378 6
2.9608314 -0.17383152 -0.1554378 6
2.9503033 -0.18251577 -0.15491444 6
2.9416761 -0.19229202 -0.15449576 6
2.944972 -0.20283368 -0.15470509 6
2.9442089 -0.21362619 -0.15470509 6
2.9275131 -0.22269015 -0.15386772 6
2.9107902 -0.2316402 -0.15303035 6
2.9179258 -0.24246092 -0.15344904 6
2.9091463 -0.25144783 -0.15303035 6
2.9142187 -0.26213792 -0.15334436 6
2.8993654 -0.27100769 -0.15261166 6
2.8824985 -0.2795842 -0.15177429 6
2.8854795 -0.29004377 -0.15198363 6
2.8884227 -0.30052763 -0.15219298 6
2.8833299 -0.31068426 -0.15198363 6
2.8663483 -0.31897986 -0.15114626 6
2.853369 -0.32711837 -0.15051822 6
2.8561766 -0.33754531 -0.15072757 6
2.8510156 -0.34703052 -0.15051822 6
2.8517687 -0.35722855 -0.15062289 6
2.828651 -0.36486781 -0.14947151 6
2.8313198 -0.37526423 -0.14968085 6
2.8221438 -0.3835752 -0.14926216 6
2.8247437 -0.39397579 -0.14947151 6
2.8194675 -0.40277594 -0.14926216 6
2.8021631 -0.41078952 -0.14842479 6
2.7928848 -0.41889453 -0.1480061 6
2.7953537 -0.42924726 -0.14821544 6
2.7898924 -0.43838218 -0.1480061 6
2.7883451 -0.44811809 -0.1480061 6
2.7827425 -0.45768657 -0.14779675 6
2.7732494 -0.46607333 -0.14737807 6
2.7716057 -0.47575095 -0.14737807 6
2.7659934 -0.48473319 -0.14716873 6
2.7721488 -0.49579185 -0.14758742 6
2.7586122 -0.50331455 -0.14695938 6
2.7509477 -0.51184475 -0.14664535 6
2.7471821 -0.52107209 -0.1465407 6
2.7473075 -0.53103733 -0.14664535 6
2.7513161 -0.54178172 -0.14695938 6
2.733742 -0.54824054 -0.14612199 6
2.7278976 -0.55698061 -0.14591266 6
2.7298479 -0.56731212 -0.14612199 6
2.7239428 -0.57601118 -0.14591266 6
2.7258208 -0.5863561 -0.14612199 6
2.7120509 -0.59330642 -0.14549398 6
2.7021646 -0.601035 -0.14507528 6
2.7039464 -0.61134452 -0.14528462 6
2.6979029 -0.61988485 -0.14507528 6
2.7035027 -0.63111466 -0.14549398 6
2.6858473 -0.63639247 -0.1446566 6
2.6836095 -0.64576393 -0.1446566 6
2.6814535 -0.65465957 -0.1446566 6
2.6791518 -0.66401559 -0.1446566 6
2.6768177 -0.67336351 -0.1446566 6
2.6589692 -0.67875129 -0.14381923 6
2.652597 -0.68749017 -0.14360988 6
2.6540442 -0.69776088 -0.14381923 6
2.655452 -0.70805019 -0.14402856 6
2.6529641 -0.71731514 -0.14402856 6
2.6427395 -0.72445917 -0.14360988 6
2.6286485 -0.73047107 -0.14298184 6
2.9471929 -0.19368581 -0.051554412 7
2.9285445 -0.20272936 -0.051240265 7
2.9397855 -0.21382101 -0.051449694 7
2.9310064 -0.22398496 -0.051310074 7
2.9302068 -0.23421469 -0.051310074 7
2.9134715 -0.24260281 -0.051030833 7
2.9046381 -0.2520797 -0.050891217 7
2.8997574 -0.26185754 -0.050821409 7
2.9028075 -0.27235156 -0.050891217 7
2.9078102 -0.28306386 -0.050995931 7
2.8908875 -0.29160672 -0.050716694 7
2.8779185 -0.30045021 -0.050507262 7
2.8808286 -0.31092337 -0.050577074 7
2.8797259 -0.32097745 -0.050577074 7
2.8746145 -0.33057067 -0.050507262 7
2.8615286 -0.33919063 -0.050297838 7
2.8523872 -0.34820789 -0.050158214 7
2.8471861 -0.35766399 -0.050088406 7
2.8498867 -0.36811265 -0.050158214 7
2.8406551 -0.37700605 -0.050018597 7
2.8313961 -0.38583943 -0.049878977 7
2.8221796 -0.39412028 -0.049739357 7
2.8207867 -0.40396914 -0.049739357 7
2.8193593 -0.41381302 -0.049739357 7
2.8139424 -0.42305732 -0.049669549 7
2.8005903 -0.43105206 -0.04946012 7
2.7990685 -0.44082531 -0.04946012 7
2.7935641 -0.44995716 -0.049390312 7
2.7919762 -0.4597058 -0.049390312 7
2.7942166 -0.47060004 -0.04946012 7
2.7767909 -0.47763893 -0.04918088 7
2.7711675 -0.48663712 -0.049111072 7
2.7694521 -0.49630728 -0.049111072 7
2.7716367 -0.50669062 -0.04918088 7
2.7698512 -0.51636237 -0.04918088 7
2.7523155 -0.52304113 -0.048901644 7
2.7426202 -0.53112459 -0.048762023 7
2.7485971 -0.542243 -0.048901644 7
2.7466874 -0.55183405 -0.048901644 7
2.7486632 -0.56221998 -0.048971456 7
2.7310219 -0.56855065 -0.048692215 7
2.7251079 -0.57725137 -0.048622403 7
2.7152572 -0.5850755 -0.048482787 7
2.7171049 -0.59540594 -0.048552595 7
2.7150099 -0.60488683 -0.048552595 7
2.7050807 -0.61259359 -0.048412975 7
2.6951308 -0.62023842 -0.048273355 7
2.6930592 -0.62917238 -0.048273355 7
2.6947381 -0.63949257 -0.048343167 7
2.6926029 -0.64842516 -0.048343167 7
2.6786678 -0.65497035 -0.048133738 7
2.668602 -0.6623897 -0.047994118 7
2.6740301 -0.67365485 -0.048133738 7
2.6716623 -0.68298489 -0.048133738 7
2.6731334 -0.69331068 -0.048203547 7
2.6512365 -0.69801229 -0.047854498 7
2.6468518 -0.70674676 -0.047819596 7
2.6482289 -0.71702683 -0.047889404 7
2.6418533 -0.72520787 -0.047819596 7
2.6432869 -0.73503602 -0.047889404 7
2.6291568 -0.74100357 -0.047679976 7
2.6265543 -0.75017649 -0.047679976 7
2.6239195 -0.75934029 -0.047679976 7
2.6250906 -0.76961994 -0.047749784 7
2.6262224 -0.77991724 -0.047819596 7
2.9138904 -0.23751748 0.051030833 8
2.9091017 -0.24684086 0.050961025 8
2.9022467 -0.25646594 0.050856311 8
2.8893859 -0.26549727 0.050646886 8
2.8804789 -0.27482176 0.050507262 8
2.8874619 -0.28566235 0.050646886 8
2.8844581 -0.29553592 0.050611977 8
2.8774431 -0.30497044 0.050507262 8
2.8564281 -0.31333429 0.050158214 8
2.8633218 -0.32370341 0.050297838 8
2.8621743 -0.33369628 0.050297838 8
2.8570213 -0.34320807 0.050228026 8
2.8438983 -0.35170624 0.050018597 8
2.838686 -0.36112645 0.049948789 8
2.8254466 -0.36997056 0.049739357 8
2.8242044 -0.37933803 0.049739357 8
2.8288059 -0.39001343 0.049844075 8
2.8076966 -0.39659509 0.049495026 8
2.796329 -0.40544844 0.049320504 8
2.7929912 -0.41442564 0.049285594 8
2.7994354 -0.42537406 0.049425215 8
2.8018856 -0.43575802 0.049495026 8
2.7865231 -0.44333625 0.049250688 8
2.7731164 -0.45113385 0.049041264 8
2.7714443 -0.46129477 0.049041264 8
2.7717886 -0.47130132 0.049076166 8
2.7720969 -0.48131588 0.049111072 8
2.7625239 -0.48959357 0.048971456 8
2.7430878 -0.49603105 0.048657309 8
2.7492058 -0.50705403 0.048796929 8
2.7474191 -0.51664746 0.048796929 8
2.7495267 -0.52698737 0.048866738 8
2.7339318 -0.53389889 0.048622403 8
2.7222452 -0.54148829 0.048447877 8
2.7242584 -0.55178136 0.048517693 8
2.7242742 -0.56169116 0.048552595 8
2.7262108 -0.57201844 0.048622403 8
2.7144196 -0.57944399 0.048447877 8
2.6967473 -0.58552122 0.048168644 8
2.6985922 -0.59579325 0.048238453 8
2.7003984 -0.6060853 0.048308261 8
2.6943669 -0.6146183 0.048238453 8
2.6824651 -0.62176204 0.04806393 8
2.6726022 -0.62882203 0.047924306 8
2.6742809 -0.63907689 0.047994118 8
2.6799204 -0.64982653 0.048133738 8
2.6737525 -0.65822119 0.04806393 8
2.6559181 -0.66367203 0.04778469 8
2.6535852 -0.67293888 0.04778469 8
2.647347 -0.68120086 0.047714882 8
2.6525714 -0.69292098 0.047854498 8
2.6501367 -0.70217592 0.047854498 8
2.6399448 -0.70934677 0.047714882 8
2.6278055 -0.71592939 0.047540355 8
2.6291456 -0.72616243 0.047610167 8
2.6286488 -0.7354157 0.04764507 8
2.6260655 -0.74458694 0.04764507 8
2.6196067 -0.75264466 0.047575258 8
2.6054435 -0.7584309 0.047365833 8
2.6066163 -0.7686522 0.047435641 8
2.6096656 -0.77946317 0.047540355 8
2.6032381 -0.78695554 0.047470544 8
2.5909145 -0.79311115 0.047296021 8
2.5806296 -0.79933184 0.047156405 8
2.5892723 -0.81192505 0.047365833 8
2.894767 -0.27720466 0.15240233 9
2.8838444 -0.28632101 0.15187897 9
2.8828275 -0.29638574 0.15187897 9
2.8797891 -0.30623564 0.15177429 9
2.8767173 -0.31606802 0.15166962 9
2.8676584 -0.3252075 0.15125093 9
2.8585708 -0.33428758 0.15083225 9
2.8534205 -0.34378597 0.15062289 9
2.8561673 -0.35423586 0.15083225 9
2.8568943 -0.3644563 0.1509369 9
2.8278806 -0.37079129 0.14947151 9
2.8186514 -0.37959385 0.14905281 9
2.8213344 -0.38948509 0.14926216 9
2.8199575 -0.399331 0.14926216 9
2.8145933 -0.40859821 0.14905281 9
2.8091989 -0.41783279 0.14884347 9
2.795876 -0.42583179 0.14821544 9
2.7943726 -0.43558857 0.14821544 9
2.792835 -0.44534013 0.14821544 9
2.7991486 -0.45637181 0.14863414 9
2.7777567 -0.46334201 0.14758742 9
2.7780912 -0.47337085 0.14769208 9
2.7724864 -0.4823806 0.14748274 9
2.7727525 -0.49240467 0.14758742 9
2.7670863 -0.50136822 0.14737807 9
2.7515712 -0.50848347 0.14664535 9
2.7438915 -0.51697582 0.14633135 9
2.7518771 -0.52843386 0.14685471 9
2.7519758 -0.53841996 0.14695938 9
2.748121 -0.54763246 0.14685471 9
2.7344484 -0.5548389 0.14622667 9
2.7285831 -0.56357259 0.14601734 9
2.7168264 -0.57103956 0.14549398 9
2.7284882 -0.58344305 0.14622667 9
2.7186284 -0.59126586 0.14580798 9
2.7048471 -0.5981645 0.14517996 9
2.6949482 -0.60585022 0.14476126 9
2.6928167 -0.61525363 0.14476126 9
2.6927075 -0.62463135 0.14486594 9
2.7021749 -0.63677549 0.14549398 9
2.6845086 -0.64201629 0.1446566 9
2.6744876 -0.64949769 0.14423791 9
2.6760828 -0.65978569 0.14444725 9
2.6776383 -0.6700927 0.1446566 9
2.6791544 -0.68041855 0.14486594 9
2.6574223 -0.68478251 0.14381923 9
2.6471658 -0.69249606 0.14340053 9
2.6447325 -0.70173216 0.14340053 9
2.6422668 -0.71095973 0.14340053 9
2.6551836 -0.72438401 0.14423791 9
2.6354411 -0.72839636 0.14329587 9
2.6271129 -0.73597497 0.14298184 9
2.6206853 -0.74404979 0.14277251 9
2.6257496 -0.75540191 0.14319119 9
2.6307666 -0.76679856 0.14360988 9
2.6127501 -0.77145225 0.14277251 9
2.6025229 -0.77782446 0.1423538 9
2.6017034 -0.78748286 0.14245848 9
2.6086261 -0.79903078 0.14298184 9
2.6058211 -0.80813169 0.14298184 9
2.5897872 -0.81258303 0.14224915 9
2.583128 -0.82040894 0.14203981 9
2.5782025 -0.82925957 0.14193512 9
2.5866873 -0.84196323 0.14256316 9
2.5762923 -0.84803838 0.14214447 9
2.5695267 -0.85576409 0.14193512 9
2.8557303 -0.31477106 0.25135714 10
2.8625326 -0.32563829 0.25205442 10
2.8653948 -0.33559254 0.25240302 10
2.8503597 -0.34392193 0.25118285 10
2.8451872 -0.3533783 0.25083423 10
2.843873 -0.36380407 0.25083423 10
2.8406107 -0.37346911 0.25065991 10
2.8392894 -0.38338241 0.25065991 10
2.8202403 -0.39033729 0.2490911 10
2.8109703 -0.3990593 0.24839386 10
2.8016737 -0.40772125 0.24769662 10
2.806145 -0.41837978 0.24821955 10
2.8027728 -0.42738268 0.24804525 10
2.7953582 -0.43624195 0.24752231 10
2.7839811 -0.44442651 0.24665076 10
2.7862659 -0.4552699 0.24699937 10
2.7807295 -0.46433672 0.24665076 10
2.7790918 -0.47404045 0.24665076 10
2.7695684 -0.48237091 0.24595349 10
2.7600214 -0.49064076 0.24525626 10
2.764173 -0.50133872 0.24577919 10
2.7584879 -0.51025963 0.24543057 10
2.7547321 -0.51951617 0.24525626 10
2.7372494 -0.52612031 0.24386176 10
2.7295301 -0.53452319 0.24333882 10
2.7296019 -0.54443741 0.24351314 10
2.73159 -0.55475533 0.24386176 10
2.7315879 -0.56469035 0.24403608 10
2.7198515 -0.57217115 0.24316452 10
2.7061481 -0.57915992 0.24211864 10
2.702163 -0.58817881 0.24194433 10
2.7039843 -0.59846866 0.24229297 10
2.7057662 -0.60877836 0.24264158 10
2.6900289 -0.6151107 0.24142142 10
2.6820433 -0.62314421 0.24089848 10
2.6779125 -0.63204479 0.24072415 10
2.6854899 -0.64324206 0.24159572 10
2.6793563 -0.65167058 0.24124709 10
2.6694431 -0.65864295 0.24054985 10
2.6535985 -0.66456872 0.23932965 10
2.6589868 -0.67579067 0.24002692 10
2.6622796 -0.68702537 0.24054985 10
2.6598654 -0.69631422 0.24054985 10
2.6477904 -0.70303816 0.23967829 10
2.6299291 -0.70813227 0.2382838 10
2.6389732 -0.72045636 0.23932965 10
2.632602 -0.72860086 0.23898104 10
2.6338792 -0.73886222 0.23932965 10
2.6218321 -0.74486995 0.2384581 10
2.609643 -0.75126147 0.23758654 10
2.6108298 -0.76148194 0.23793517 10
2.6138883 -0.77228433 0.2384581 10
2.6073589 -0.78026146 0.23810948 10
2.5969927 -0.78704667 0.23741224 10
2.5867488 -0.7933175 0.23671499 10
2.5915754 -0.8047055 0.23741224 10
2.5888927 -0.81329507 0.23741224 10
2.5879364 -0.82293069 0.23758654 10
2.5716274 -0.82813549 0.23636638 10
2.5687211 -0.837107 0.23636638 10
2.5640385 -0.84499699 0.23619205 10
2.5705237 -0.8570931 0.2370636 10
2.5676672 -0.86561239 0.2370636 10
2.5550494 -0.87180066 0.23619205 10
2.5444572 -0.87811434 0.23549481 10
2.5451388 -0.88830388 0.23584343 10
2.8281085 -0.37282968 0.35025251 11
2.8229222 -0.38167408 0.34976503 11
2.8255053 -0.39207122 0.35025251 11
2.8261547 -0.40171817 0.35049626 11
2.8128779 -0.41035447 0.34903383 11
2.7957947 -0.41733545 0.3470839 11
2.7982457 -0.42769194 0.3475714 11
2.7967358 -0.43745703 0.3475714 11
2.7912712 -0.44658956 0.3470839 11
2.7818592 -0.45504838 0.34610897 11
2.7742991 -0.46425843 0.34537774 11
2.7628779 -0.47226739 0.34415907 11
2.7690346 -0.48327389 0.34513399 11
2.7653768 -0.49258858 0.34489027 11
2.7538748 -0.5004639 0.34367159 11
2.7482073 -0.50935012 0.34318411 11
2.7425113 -0.5182029 0.34269661 11
2.7484829 -0.52927434 0.34367159 11
2.7388268 -0.53733641 0.34269661 11
2.7291481 -0.54533762 0.34172165 11
2.7194471 -0.55327779 0.34074673 11
2.7174995 -0.56276709 0.34074673 11
2.719403 -0.57306808 0.34123421 11
2.7251499 -0.58422148 0.34220913 11
2.7036989 -0.58950168 0.33977175 11
2.6899962 -0.59635782 0.33830932 11
2.6937079 -0.60705328 0.33904055 11
2.6935077 -0.61689556 0.33928427 11
2.6971381 -0.62764364 0.3400155 11
2.6737907 -0.63156462 0.33733436 11
2.6677091 -0.63996792 0.33684689 11
2.6694298 -0.64974976 0.33733436 11
2.6690726 -0.65954006 0.33757812 11
2.666754 -0.66885281 0.33757812 11
2.658632 -0.67668849 0.33684689 11
2.6524096 -0.68497199 0.33635944 11
2.6460407 -0.69368219 0.33587193 11
2.6455219 -0.70342451 0.33611569 11
2.6373003 -0.71110433 0.33538446 11
2.8160944 -0.40129098 0.4505313 12
2.8068581 -0.4099766 0.44927984 12
2.8151782 -0.42123348 0.4508442 12
2.8058798 -0.42986113 0.44959271 12
2.784847 -0.43659335 0.446464 12
2.7911079 -0.44756272 0.44771552 12
2.7895288 -0.45730278 0.44771552 12
2.789782 -0.46785051 0.44802836 12
2.7783966 -0.47591826 0.446464 12
2.7611518 -0.48289138 0.44396105 12
2.7633388 -0.4932209 0.44458681 12
2.7654872 -0.50357145 0.44521254 12
2.7637124 -0.51322168 0.44521254 12
2.763845 -0.52323318 0.44552541 12
