# .PCD v0.7 - Point Cloud Data file format
VERSION 0.7
FIELDS x y z intensity
SIZE 4 4 4 4
TYPE F F F F
COUNT 1 1 1 1
WIDTH 1345
HEIGHT 1
VIEWPOINT 0 0 0 1 0 0 0
POINTS 1345
DATA ascii
1.7613883 0.4825221 -0.2242396 4
1.7545795 0.47999945 -0.15914638 5
1.7371062 0.4700087 -0.28502363 3
1.7592293 0.4753356 -0.22375213 4
1.7523148 0.4731392 -0.15879777 5
1.7424722 0.46526521 -0.28564936 3
1.7492875 0.46643004 -0.22228971 4
1.7501053 0.46599385 -0.15844914 5
1.7365241 0.45686552 -0.2843979 3
1.7432255 0.45830244 -0.22131474 4
1.7459395 0.45836538 -0.1579262 5
1.7677549 0.46343225 -0.095774807 6
1.7418538 0.45209658 -0.28502363 3
1.7408924 0.45152274 -0.22082727 4
1.7416639 0.45107409 -0.15740328 5
1.7480122 0.45206633 -0.094623417 6
1.7318615 0.44337872 -0.28314641 3
1.7539976 0.44839269 -0.22228971 4
1.731645 0.44203454 -0.15635739 5
1.7572428 0.44824222 -0.095042109 6
1.7219826 0.43412945 -0.28126919 3
1.7478522 0.44032794 -0.22131474 4
1.7331775 0.43598685 -0.15635739 5
1.7395028 0.4369334 -0.093995392 6
1.7273213 0.42906958 -0.28189492 3
1.739821 0.43152893 -0.22009605 4
1.7308207 0.42897686 -0.15600878 5
1.7429563 0.43133804 -0.094100058 6
1.7249711 0.42209801 -0.28126919 3
1.7374597 0.42451122 -0.21960858 4
1.7323077 0.42293209 -0.15600878 5
1.7405703 0.42430565 -0.093890712 6
1.7583859 0.42799756 -0.031588856 7
1.7302747 0.41700014 -0.28189492 3
1.7389311 0.41844329 -0.21960858 4
1.7337735 0.41688299 -0.15600878 5
1.7420409 0.41822687 -0.093890712 6
1.7267382 0.4142352 -0.030995475 7
1.7239604 0.40943378 -0.28064346 3
1.740309 0.41267484 -0.21960858 4
1.7197077 0.40715578 -0.15461428 5
1.7434182 0.41244811 -0.093890712 6
1.7398506 0.41096291 -0.031204903 7
1.7070049 0.3997454 -0.34078491 2
1.7176851 0.40161496 -0.279392 3
1.7417388 0.40659788 -0.21960858 4
1.7191082 0.40099856 -0.15443997 5
1.7390116 0.40500125 -0.093576699 6
1.7373791 0.40398094 -0.031135093 7
1.7321663 0.39990205 0.031030379 8
1.7294338 0.39863542 -0.34498268 2
1.7190764 0.39561704 -0.279392 3
1.7276703 0.39695901 -0.21765867 4
1.7282652 0.39677814 -0.15513723 5
1.7287343 0.39625069 -0.092948668 6
1.7348801 0.39702207 -0.031065283 7
1.7296516 0.39296752 0.030960569 8
1.713583 0.38868791 -0.34154812 2
1.7204469 0.38961348 -0.279392 3
1.7213005 0.38917518 -0.21668372 4
1.7315828 0.39118233 -0.15531152 5
1.7379 0.39197192 -0.093367353 6
1.7322855 0.39038792 -0.030995475 7
1.7328966 0.38766652 0.030995475 8
1.7187614 0.38355955 -0.34231135 2
1.7217298 0.38390565 -0.279392 3
1.7264566 0.38432804 -0.21717119 4
1.7193234 0.3821094 -0.15409136 5
1.7391902 0.38620704 -0.093367353 6
1.7297331 0.38347262 -0.030925665 7
1.7264273 0.37989578 0.030855855 8
1.7142715 0.37659365 -0.3411665 2
1.7192003 0.37704653 -0.27876624 3
1.7239096 0.37744963 -0.21668372 4
1.7186348 0.37597951 -0.15391703 5
1.7366253 0.37928101 -0.093158014 6
1.7427838 0.37998873 -0.031135093 7
1.7238338 0.3730216 0.030786045 8
1.7374816 0.37533915 0.093158014 9
1.7117378 0.36977783 -0.34040326 2
1.7050577 0.36771283 -0.2762633 3
1.729098 0.37226489 -0.21717119 4
1.7160407 0.36914125 -0.15356842 5
1.7301278 0.37153891 -0.092739321 6
1.7401892 0.37306416 -0.031065283 7
1.7251256 0.36700156 0.030786045 8
1.7231513 0.3659538 0.092320636 9
1.7187791 0.36502525 -0.34154812 2
1.7140608 0.36339715 -0.27751476 3
1.7187344 0.36376113 -0.21570876 4
1.7329133 0.36644605 -0.15496291 5
1.7157805 0.36219752 -0.091901943 6
1.7414809 0.36698705 -0.031065283 7
1.7244389 0.36056781 0.030751141 8
1.7244184 0.35993618 0.092320636 9
1.7085119 0.35661605 -0.33925843 2
1.7114512 0.35660622 -0.27688903 3
1.7083329 0.35533348 -0.21424633 4
1.7302803 0.35958439 -0.15461428 5
1.7287682 0.35863987 -0.092529982 6
1.7270858 0.35766298 -0.030786045 7
1.7217693 0.35374251 0.030681333 8
1.7197949 0.35271043 0.092006624 9
1.7001302 0.34867746 -0.33735034 2
1.7165561 0.35142189 -0.27751476 3
1.7134522 0.35016423 -0.21473379 4
1.7120039 0.34955615 -0.15287116 5
1.7260953 0.35180661 -0.092320636 6
1.7283239 0.35163167 -0.030786045 7
1.7210335 0.34733421 0.030646425 8
1.7249314 0.3474943 0.092215963 9
1.7051861 0.34351656 -0.33811355 2
1.7266459 0.34752616 0.15409136 10
1.7061527 0.34309077 -0.27563757 3
1.7146642 0.34418058 -0.21473379 4
1.7171208 0.34436107 -0.1532198 5
1.7312298 0.34656289 -0.092529982 6
1.7295407 0.34559694 -0.030786045 7
1.7026198 0.33743739 0.030297378 8
1.7319518 0.34293646 0.092529982 9
1.7083008 0.33794281 -0.33849517 2
1.7043935 0.33686075 0.15199961 10
1.7034638 0.33636895 -0.27501184 3
1.7158554 0.3381927 -0.21473379 4
1.7144026 0.33759558 -0.15287116 5
1.7167509 0.3374356 -0.091692604 6
1.7346019 0.34062985 -0.030855855 7
1.7076552 0.33255348 0.030367188 8
1.7194145 0.33422059 0.091797277 9
1.7075428 0.33160374 -0.33811355 2
1.7231622 0.33432496 0.15356842 10
1.7045699 0.33071774 -0.27501184 3
1.7091717 0.33099157 -0.21375884 4
1.7194829 0.33236572 -0.1532198 5
1.7100165 0.3302255 -0.091273919 6
1.7318531 0.33381629 -0.030786045 7
1.7088057 0.32659096 0.030367188 8
1.7107611 0.3263458 0.091273919 9
1.6989906 0.32410043 -0.33620548 2
1.7320901 0.33010042 0.15426566 10
1.7057141 0.32476521 -0.27501184 3
1.702516 0.32354051 -0.21278389 4
1.7127459 0.3251749 -0.15252255 5
1.7111586 0.32425478 -0.091273919 6
1.7172889 0.32479638 -0.030506806 7
1.7138661 0.32136074 0.030436996 8
1.713853 0.32073909 0.091378585 9
1.6923926 0.31672287 -0.33467901 2
1.7136472 0.32039103 0.15252255 10
1.7068373 0.31880954 -0.27501184 3
1.7269964 0.322263 0.21570876 11
1.707538 0.31832364 -0.21327138 4
1.7060357 0.31773549 -0.15182531 5
1.7240617 0.32047009 -0.091901943 6
1.7066152 0.3166109 -0.030297378 7
1.7031771 0.31320661 0.030227568 8
1.7169267 0.31511477 0.091483258 9
1.689626 0.31010416 -0.33391577 2
1.7088759 0.31332973 0.15199961 10
1.7040536 0.31213731 -0.27438608 3
1.712544 0.3130756 -0.21375884 4
1.7051744 0.31141996 -0.151651 5
1.7212402 0.31373414 -0.091692604 6
1.7155799 0.31208292 -0.030436996 7
1.7003241 0.30654943 0.030157758 8
1.7160505 0.30876631 0.091378585 9
1.6984271 0.30559534 -0.33544225 2
1.7119203 0.30771473 0.15217392 10
1.6934671 0.30409274 -0.27250886 3
1.7213886 0.30879644 0.21473379 11
1.7136265 0.30709535 -0.21375884 4
1.6984062 0.30406183 -0.15095374 5
1.7065958 0.30491325 -0.090855226 6
1.7166587 0.30609289 -0.030436996 7
1.7053223 0.30130857 0.030227568 8
1.6772717 0.29605055 -0.39321443 1
1.7091975 0.30168566 0.090959899 9
1.6956166 0.29898259 -0.33467901 2
1.714946 0.30208313 0.15234824 10
1.6984091 0.2988646 -0.27313459 3
1.7165906 0.30175427 0.21400258 11
1.7029048 0.29934847 -0.21229641 4
1.703382 0.29882032 -0.15130237 5
1.7037152 0.29826498 -0.090645887 6
1.7176642 0.30039892 -0.030436996 7
1.7063119 0.29565218 0.030227568 8
1.6859251 0.29181591 -0.39501405 1
1.7023166 0.29465312 0.090541214 9
1.6888604 0.29202038 -0.33315253 2
1.7159383 0.29639485 0.15234824 10
1.6954979 0.29255861 -0.27250886 3
1.7156256 0.29572332 0.21375884 11
1.6980194 0.29268852 -0.2115652 4
1.7063272 0.29350731 -0.15147668 5
1.7086316 0.29329056 -0.090855226 6
1.7107673 0.29334894 -0.030297378 7
1.7033401 0.28932202 0.030157758 8
1.6868836 0.28622392 -0.39501405 1
1.7072732 0.2893762 0.09075056 9
1.6859981 0.28546828 -0.3323893 2
1.7031609 0.28837422 0.15112805 10
1.7042495 0.28825259 -0.27376035 3
1.7205117 0.29069343 0.21424633 11
1.7029455 0.28742066 -0.21205269 4
1.7005043 0.28670344 0.27313459 12
1.6994827 0.28622532 -0.15077944 5
1.7175237 0.28864816 -0.091273919 6
1.7038925 0.28605068 -0.030157758 7
1.6964984 0.28176606 0.030018138 8
1.6898438 0.28035858 -0.39546397 1
1.7083223 0.28311715 0.09075056 9
1.6947807 0.28056905 -0.33391577 2
1.7002753 0.28147864 0.15077944 10
1.6974989 0.2807155 -0.27250886 3
1.7215655 0.28438589 0.21424633 11
1.7059462 0.28149986 -0.21229641 4
1.6995946 0.28014794 0.27282172 12
1.6926565 0.27870008 -0.15008219 5
1.7106866 0.28105634 -0.090855226 6
1.7049294 0.27980408 -0.030157758 7
1.6876504 0.27394453 0.029843615 8
1.6754708 0.27166826 -0.39186475 1
1.717186 0.27843213 0.091169246 9
1.6879977 0.27339622 -0.3323893 2
1.7032623 0.27556351 0.15095374 10
1.6829158 0.27196953 -0.27000591 3
1.7029988 0.27491096 0.21180893 11
1.7069184 0.27554366 -0.21229641 4
1.7044625 0.27484202 0.27344745 12
1.6916521 0.27247262 -0.14990787 5
1.6998256 0.27318129 -0.090227202 6
1.7098447 0.27448452 -0.030227568 7
1.6944745 0.26928771 0.02994833 8
1.6686641 0.26488814 -0.39006513 1
1.7023195 0.27023068 0.090331867 9
1.6927729 0.26841238 -0.33315253 2
1.702199 0.26960164 0.15077944 10
1.6877105 0.26700583 -0.27063167 3
1.6999795 0.26864272 0.21132146 11
1.696058 0.26802301 -0.21083398 4
1.7073159 0.26949584 0.27376035 12
1.6964823 0.26748317 -0.1502565 5
1.7299007 0.27244279 0.34040326 13
1.7007222 0.26754248 -0.090227202 6
1.7186474 0.27005494 -0.030367188 7
1.695358 0.26366746 0.02994833 8
1.6695334 0.25935271 -0.39006513 1
1.6973315 0.26336765 0.090017848 9
1.6781336 0.26038879 -0.33009958 2
1.710959 0.26517636 0.15147668 10
1.6885868 0.26140723 -0.27063167 3
1.7047846 0.26361012 0.21180893 11
1.6852124 0.26028255 -0.20937155 4
1.6887234 0.26052308 0.27063167 12
1.7033132 0.26246956 -0.15077944 5
1.7346755 0.26730227 0.3411665 13
1.697652 0.26129389 -0.090017848 6
1.6998142 0.26101935 -0.030018138 7
1.6982449 0.25804871 0.029983234 8
1.6742818 0.25410855 -0.39096493 1
1.6982405 0.25744081 0.090017848 9
1.6751944 0.25364891 -0.32933635 2
1.6941894 0.25622261 0.14990787 10
1.6953931 0.25610116 -0.27157027 3
1.711583 0.25854677 0.21254015 11
1.6841477 0.25410268 -0.20912781 4
1.6837626 0.25374401 0.26969305 12
1.6923978 0.25474247 -0.14973356 5
1.7142876 0.25773224 0.33696869 13
1.7025485 0.25566351 -0.090227202 6
1.6928047 0.25389743 -0.029878521 7
1.6932453 0.25094271 0.029878521 8
1.6694188 0.24711384 -0.38961524 1
1.7011486 0.25150719 0.090122528 9
1.6760696 0.2477994 -0.32933635 2
1.6891606 0.24943361 0.14938495 10
1.6865056 0.24874081 -0.27000591 3
1.7164469 0.25285074 0.21302763 11
1.6948875 0.24937265 -0.21034651 4
1.6944531 0.2490066 0.2712574 12
1.6853918 0.24767499 -0.14903632 5
1.7171195 0.25203136 0.33735034 13
1.7034307 0.24971847 -0.090227202 6
1.7016385 0.24884909 -0.030018138 7
1.6842153 0.24359974 0.029703995 8
1.664485 0.24044947 -0.38826552 1
1.7059696 0.24613833 0.090331867 9
1.6769243 0.24194768 -0.32933635 2
1.693965 0.24410453 0.14973356 10
1.6756321 0.24116421 -0.26812872 3
1.7035648 0.24488012 0.21132146 11
1.6937828 0.24317312 -0.21010277 4
1.7031336 0.24421223 0.27250886 12
1.6882182 0.24207352 -0.14921063 5
1.7160454 0.24575718 0.33696869 13
1.6884748 0.24150887 -0.089389823 6
1.7381686 0.24830636 0.4053618 14
1.7064562 0.2434722 -0.03008795 7
1.6850555 0.23771881 0.029703995 8
1.653736 0.23300688 -0.38556612 1
1.6890185 0.23767665 0.089389823 9
1.6777588 0.23609219 -0.32933635 2
1.6908607 0.23763496 0.14938495 10
1.6725512 0.23476487 -0.26750296 3
1.6906481 0.23700333 0.20961528 11
1.6808599 0.23533207 -0.20839658 4
1.6922375 0.23662472 0.27063167 12
1.6910261 0.23645534 -0.14938495 5
1.7130039 0.23922285 0.33620548 13
1.6853514 0.2350613 -0.089180477 6
1.7139333 0.23874278 0.3995131 14
1.699373 0.23641227 -0.02994833 7
1.6898371 0.23238064 0.029773805 8
1.6584005 0.22776271 -0.38646591 1
1.6878591 0.23150839 0.08928515 9
1.6669023 0.22863394 -0.32704663 2
1.69168 0.23173167 0.14938495 10
1.6772749 0.22946021 -0.26812872 3
1.6973656 0.23190616 0.21034651 11
1.6738034 0.22839017 -0.20742163 4
1.6910958 0.23044907 0.27031878 12
1.6957896 0.2310887 -0.14973356 5
1.72161 0.23430043 0.33773196 13
1.6822034 0.22863925 -0.088971131 6
1.6935148 0.22987567 0.39456415 14
1.700188 0.23047845 -0.02994833 7
1.6926199 0.22674565 0.029808709 8
1.6669117 0.22300559 -0.38826552 1
1.6886568 0.22561559 0.08928515 9
1.6637982 0.22229432 -0.3262834 2
1.684579 0.22477072 0.14868769 10
1.6780658 0.22360359 -0.26812872 3
1.7040679 0.22676656 0.21107772 11
1.6844296 0.22385323 -0.20864034 4
1.6860155 0.22376455 0.26938018 12
1.6788102 0.22280829 -0.14816476 5
1.7185246 0.22777472 0.33696869 13
1.6869514 0.22328959 -0.089180477 6
1.7078307 0.22574995 0.39771348 14
1.689087 0.22297323 -0.029738901 7
1.6874524 0.22005969 0.029703995 8
1.6657475 0.21693432 -0.38781562 1
1.6973566 0.2207496 0.089703836 9
1.6645641 0.21648479 -0.3262834 2
1.6774502 0.21786217 0.14799045 10
1.6710002 0.21672875 -0.26687723 3
1.6989433 0.22005145 0.21034651 11
1.6812634 0.21746238 -0.20815286 4
1.6848271 0.2176252 0.26906732 12
1.6736499 0.21618146 -0.14764182 5
1.7076266 0.22026715 0.33467901 13
1.6956441 0.21841986 -0.08959917 6
1.7182722 0.22103064 0.39996299 14
1.6938219 0.21758497 -0.029808709 7
1.7092059 0.21925712 0.46173319 15
1.6802751 0.21316254 0.029564377 8
1.6529616 0.20940359 -0.38466629 1
1.6901908 0.21382105 0.08928515 9
1.6614141 0.2101806 -0.32552016 2
1.6821536 0.21250601 0.14833906 10
1.6639073 0.20990515 -0.26562575 3
1.6859144 0.21238248 0.20864034 11
1.6859514 0.21208906 -0.20864034 4
1.6875366 0.21198849 0.26938018 12
1.6783481 0.21083422 -0.14799045 5
1.7044891 0.21381593 0.33391577 13
1.680542 0.21051481 -0.088761792 6
1.7190334 0.21503095 0.39996299 14
1.694571 0.21167065 -0.029808709 7
1.7195456 0.2144863 0.46432137 15
1.6770395 0.20680605 0.029494567 8
1.6459458 0.20268087 -0.38286668 1
1.6869622 0.20743191 0.089075804 9
1.6660349 0.20485866 -0.3262834 2
1.684863 0.20687531 0.14851339 10
1.6685511 0.20457767 -0.26625147 3
1.6807343 0.20577289 0.20790912 11
1.6748588 0.20475689 -0.20717789 4
1.6882662 0.20609775 0.26938018 12
1.6770959 0.20473413 -0.14781614 5
1.7013273 0.20739007 0.33315253 13
1.6773013 0.20416424 -0.088552445 6
1.7042974 0.2071476 0.39636377 14
1.6952996 0.20575455 -0.029808709 7
1.7164483 0.20801735 0.4632861 15
1.6817223 0.20142682 0.029564377 8
1.6466434 0.19693378 -0.38286668 1
1.6856929 0.20130479 0.088971131 9
1.6589422 0.19811024 -0.32475692 2
1.6915097 0.20170084 0.14903632 10
1.6731782 0.19921876 -0.26687723 3
1.6873561 0.2006074 0.20864034 11
1.6597934 0.19703756 -0.205228 4
1.6811287 0.1992728 0.26812872 12
1.6857146 0.19981639 -0.14851339 5
1.7020409 0.20144962 0.33315253 13
1.6780037 0.19830847 -0.088552445 6
1.7011396 0.20074166 0.39546397 14
1.6840918 0.19843115 -0.029599281 7
1.7037337 0.20044486 0.45966265 15
1.6863878 0.19601659 0.029634187 8
1.6492566 0.19140895 -0.38331661 1
1.6863853 0.19542055 0.088971131 9
1.6518228 0.1914154 -0.32323048 2
1.6823076 0.19464968 0.14816476 10
1.6777879 0.19383 -0.26750296 3
1.6919899 0.19517231 0.20912781 11
1.6663873 0.19192354 -0.2059592 4
1.6778891 0.19295156 0.26750296 12
1.6685877 0.19188192 -0.14694458 5
1.7105355 0.19640331 0.33467901 13
1.6826543 0.19290446 -0.088761792 6
1.7018299 0.19480191 0.39546397 14
1.6768272 0.19164346 -0.029459663 7
1.7082618 0.1949341 0.46069792 15
1.6791133 0.18923257 0.029494567 8
1.6557242 0.18630484 -0.38466629 1
1.6870571 0.18953232 0.088971131 9
1.6505299 0.18542868 -0.32284883 2
1.6750569 0.18788734 0.14746751 10
1.6666757 0.18665352 -0.26562575 3
1.6926608 0.18926452 0.20912781 11
1.6690197 0.18632537 -0.20620294 4
1.6746261 0.18665616 0.26687723 12
1.663307 0.18539451 -0.14642164 5
1.6995034 0.18912876 0.3323893 13
1.6793473 0.18658815 -0.088552445 6
1.7102468 0.18972 0.39726356 14
1.685436 0.18666995 -0.029599281 7
1.7050916 0.18854485 0.45966265 15
1.6745942 0.1831028 -0.45138043 0
1.6738 0.18272036 0.029389855 8
1.6466781 0.17946802 -0.38241678 1
1.6916795 0.1840747 0.089180477 9
1.6550705 0.18009122 -0.32361206 2
1.6796641 0.18246987 0.14781614 10
1.6555339 0.17955618 -0.26374856 3
1.6794963 0.18185852 0.20742163 11
1.6736072 0.18092535 -0.20669043 4
1.6870512 0.18208085 0.26875445 12
1.6679058 0.18001451 -0.14677027 5
1.6923455 0.18235347 0.33086282 13
1.6680737 0.17944363 -0.087924413 6
1.7031485 0.18291613 0.39546397 14
1.6940306 0.18163785 -0.029738901 7
1.7211063 0.18423715 0.46380374 15
1.6483272 0.17440997 -0.44413349 0
1.6744276 0.17687616 0.029389855 8
1.6376046 0.17269741 -0.38016728 1
1.6803941 0.17691335 0.088552445 9
1.6556891 0.1743124 -0.32361206 2
1.6802908 0.176606 0.14781614 10
1.664009 0.17460111 -0.26500002 3
1.6722237 0.17516799 0.20644669 11
1.6604083 0.17363738 -0.20498425 4
1.6817826 0.17557587 0.26781586 12
1.6724871 0.17460544 -0.1471189 5
1.6968769 0.17685235 0.33162606 13
1.6647167 0.17320685 -0.087715074 6
1.6960232 0.17616415 0.39366436 14
1.6866982 0.17489883 -0.029599281 7
1.6508478 0.16885129 -0.44465113 0
1.677024 0.1712337 0.029424759 8
1.6420749 0.16737485 -0.3810671 1
1.6730535 0.17023745 0.08813376 9
1.6484749 0.16773652 -0.32208559 2
1.680897 0.17073996 0.14781614 10
1.6606777 0.16839255 -0.26437429 3
1.676775 0.16972917 0.20693417 11
1.6531041 0.16704245 -0.20400929 4
1.6686273 0.16831605 0.26562575 12
1.6750689 0.16896583 -0.1472932 5
1.7013909 0.171321 0.3323893 13
1.6653111 0.1673952 -0.087715074 6
1.6811157 0.1686867 0.39006513 14
1.6793395 0.16821243 -0.029459663 7
1.6456597 0.1625185 -0.44309825 0
1.6815916 0.16577065 0.029494567 8
1.6504065 0.16240561 -0.38286668 1
1.6756252 0.16459195 0.088238433 9
1.6412349 0.16121389 -0.32055911 2
1.6755341 0.16428778 0.1472932 10
1.6671532 0.16317229 -0.26531288 3
1.6832843 0.16445452 0.20766538 11
1.6596044 0.16184862 -0.20474051 4
1.6711707 0.16268216 0.26593861 12
1.6657333 0.16215287 -0.14642164 5
1.6980703 0.16500159 0.33162606 13
1.6738371 0.16235198 -0.08813376 6
1.689453 0.16356902 0.39186475 14
1.6719546 0.16158034 -0.029320043 7
1.6404475 0.15622321 -0.44154531 0
1.6722065 0.1589532 0.029320043 8
1.6509633 0.15664399 -0.38286668 1
1.678178 0.1589298 0.088343106 9
1.6437422 0.1556686 -0.32094073 2
1.6701468 0.15787514 0.14677027 10
1.6578796 0.1564244 -0.26374856 3
1.6838481 0.15857731 0.20766538 11
1.6641121 0.15642565 -0.205228 4
1.6717284 0.15684806 0.26593861 12
1.660338 0.15577938 -0.1458987 5
1.6908172 0.15834057 0.33009958 13
1.6704164 0.15613601 -0.087924413 6
1.6900136 0.15767108 0.39186475 14
1.6764908 0.15611352 -0.029389855 7
1.644804 0.15113629 -0.44258058 0
1.658785 0.15212983 0.02907571 8
1.6437113 0.15045734 -0.3810671 1
1.6806846 0.15354592 0.088447772 9
1.6462046 0.15039584 -0.32132238 2
1.6686769 0.15215605 0.14659595 10
1.6505202 0.15020923 -0.26249707 3
1.67448 0.15209508 0.20644669 11
1.6646216 0.15090674 -0.205228 4
1.6781414 0.1518371 0.26687723 12
1.6648142 0.15063126 -0.14624733 5
1.6796012 0.15167366 0.32780987 13
1.6629682 0.14987905 -0.087505728 6
1.6982909 0.15276381 0.39366436 14
1.6809826 0.15091117 -0.029459663 7
1.6491704 0.1457344 -0.44361585 0
1.6672736 0.1470409 0.029215328 8
1.6384028 0.14420578 -0.37971738 1
1.6672832 0.14645529 0.087715074 9
1.6525866 0.14516433 -0.32246721 2
1.6691979 0.14632992 0.14659595 10
1.6549702 0.1447908 -0.2631228 3
1.6670904 0.14555882 0.20547174 11
1.6572279 0.14440626 -0.20425305 4
1.6766932 0.14580679 0.26656437 12
1.66136 0.14447339 -0.1458987 5
1.6840322 0.14614968 0.32857311 13
1.6595017 0.14372897 -0.087296382 6
1.6871648 0.14582741 0.39096493 14
1.6814991 0.14504287 -0.029459663 7
1.6458191 0.1396497 -0.44258058 0
1.6677768 0.14121969 0.029215328 8
1.6330706 0.13799468 -0.37836766 1
1.665794 0.14046621 0.087610394 9
1.6393892 0.13823965 -0.31979591 2
1.6756546 0.14100319 0.1471189 10
1.6594024 0.13934474 -0.26374856 3
1.6715447 0.14006978 0.2059592 11
1.6537653 0.13828929 -0.20376556 4
1.6634121 0.13880444 0.26437429 12
1.6678107 0.13917148 -0.14642164 5
1.692358 0.14092162 0.33009958 13
1.6599933 0.13793492 -0.087296382 6
1.676011 0.13897218 0.38826552 14
1.6660521 0.13785283 -0.029180422 7
1.6405201 0.13343361 -0.44102767 0
1.6762322 0.13604464 0.029354947 8
1.6374271 0.13260753 -0.37926748 1
1.6682651 0.13481109 0.087715074 9
1.6398617 0.13251585 -0.31979591 2
1.660249 0.13387248 0.1457244 10
1.6559405 0.1332342 -0.2631228 3
1.6759808 0.13455142 0.20644669 11
1.6562167 0.13267459 -0.20400929 4
1.6619174 0.13283937 0.26406142 12
1.654384 0.13223721 -0.14520147 5
1.6928396 0.13501288 0.33009958 13
1.6644465 0.13245685 -0.087505728 6
1.6881417 0.13404603 0.39096493 14
1.6625363 0.13172007 -0.029110614 7
1.6313456 0.12695798 -0.43843949 0
1.6607475 0.12895377 0.02907571 8
1.641766 0.12719242 -0.38016728 1
1.6667116 0.12912503 0.087610394 9
1.6324846 0.12618676 -0.31826943 2
1.6527603 0.12746306 0.14502715 10
1.6524565 0.12714954 -0.26249707 3
1.6744609 0.12854952 0.20620294 11
1.6586492 0.12704368 -0.20425305 4
1.6584098 0.12702534 0.26343569 12
1.6508622 0.12615745 -0.14485285 5
1.681555 0.12820859 0.32780987 13
1.6609157 0.12634262 -0.087296382 6
1.684713 0.12785712 0.39006513 14
1.6709398 0.12681183 -0.029250234 7
1.6394851 0.12183498 -0.44051 0
1.6531892 0.12285337 0.02893609 8
1.6324615 0.12102659 -0.37791777 1
1.6731277 0.12374785 0.087924413 9
1.6329151 0.12048712 -0.31826943 2
1.6571692 0.12198597 0.14537577 10
1.6410489 0.12079934 -0.26061985 3
1.6649792 0.12226873 0.20498425 11
1.6590612 0.12154303 -0.20425305 4
1.6608131 0.12137997 0.26374856 12
1.6532795 0.12053932 -0.14502715 5
1.6741388 0.12206014 0.3262834 13
1.6573415 0.12054469 -0.087087035 6
1.689015 0.12255129 0.39096493 14
1.6713723 0.12097874 -0.029250234 7
1.6398801 0.11639713 -0.44051 0
1.6516131 0.11694103 0.028901186 8
1.6309303 0.11519054 -0.37746787 1
1.6635878 0.11720452 0.087401055 9
1.645056 0.11589891 -0.32055911 2
1.6655146 0.11704896 0.14607303 10
1.6434311 0.11520875 -0.26093271 3
1.6594553 0.11604026 0.20425305 11
1.6436331 0.11464641 -0.20230313 4
1.6671383 0.11599357 0.26468715 12
1.6576456 0.1153331 -0.14537577 5
1.6784718 0.11648697 0.32704663 13
1.6457973 0.11393151 -0.086459011 6
1.6816561 0.11611898 0.38916534 14
1.6797643 0.11569299 -0.029389855 7
1.6441313 0.11093262 -0.44154531 0
1.6560016 0.11144321 0.028970996 8
1.6293781 0.10936589 -0.37701797 1
1.6600012 0.11113033 0.087191716 9
1.6336974 0.1093694 -0.31826943 2
1.665913 0.11123406 0.14607303 10
1.649736 0.10986473 -0.26187131 3
1.6558887 0.1099842 0.20376556 11
1.6479847 0.10917034 -0.2027906 4
1.6517646 0.1091312 0.2621842 12
1.6659902 0.11007108 -0.14607303 5
1.6788681 0.11062764 0.32704663 13
1.6501709 0.10844743 -0.086668357 6
1.6703838 0.10948302 0.38646591 14
1.6681851 0.10904653 -0.029180422 7
1.6290852 0.10420663 -0.43740419 0
1.6603719 0.10591617 0.029040804 8
1.6355842 0.10404913 -0.37836766 1
1.6563925 0.10508262 0.086982369 9
1.6281911 0.10329351 -0.31712458 2
1.6503837 0.10441145 0.14467853 10
1.6560241 0.1044789 -0.26280993 3
1.6641872 0.10470233 0.20474051 11
1.6463747 0.10329241 -0.20254686 4
1.6560785 0.10361185 0.26280993 12
1.6464972 0.10272393 -0.14432991 5
1.6870818 0.10525598 0.32857311 13
1.6505394 0.10268616 -0.086668357 6
1.6746458 0.10389331 0.38736573 14
1.6605721 0.10272848 -0.029040804 7
1.627528 0.098118357 -0.43688658 0
1.6487551 0.099398077 0.028831376 8
1.6359375 0.098338805 -0.37836766 1
1.6527618 0.099061452 0.086773023 9
1.6305186 0.097441897 -0.31750616 2
1.6467777 0.098125145 0.14432991 10
1.6386487 0.097353779 -0.25999412 3
1.6685058 0.099127613 0.205228 11
1.6447436 0.097427815 -0.20230313 4
1.6524862 0.097597063 0.2621842 12
1.63889 0.096507035 -0.14363267 5
1.6717772 0.098150857 0.32552016 13
1.6509048 0.096636303 -0.086668357 6
1.6750153 0.0977543 0.38736573 14
1.6649132 0.097164743 -0.029110614 7
1.6278604 0.092436969 -0.43688658 0
1.6471118 0.093241759 0.028796472 8
1.63045 0.092013098 -0.37701797 1
1.6530975 0.093291193 0.086773023 9
1.6308488 0.091750078 -0.31750616 2
1.6490993 0.092488132 0.14450422 10
1.6330616 0.091302767 -0.25905553 3
1.6569657 0.092348345 0.20376556 11
1.6490377 0.091906488 -0.2027906 4
1.6587337 0.092157297 0.2631228 12
1.6431956 0.091006353 -0.14398128 5
1.6583878 0.091556653 0.32284883 13
1.6472434 0.09065304 -0.086459011 6
1.6792217 0.092412911 0.38826552 14
1.6692356 0.091571935 -0.029180422 7
1.6339453 0.087347209 -0.43843949 0
1.6374276 0.087247565 0.028621947 8
1.6210163 0.086088635 -0.37476847 1
1.6414311 0.087172821 0.086144991 9
1.6389861 0.086756133 -0.31903264 2
1.6513866 0.087124303 0.14467853 10
1.6432189 0.086405024 -0.26061985 3
1.6493332 0.086437911 0.2027906 11
1.6414039 0.086022347 -0.20181565 4
1.6570576 0.086553529 0.26280993 12
1.6474679 0.085763529 -0.14432991 5
1.6684854 0.086565681 0.32475692 13
1.6355674 0.084572382 -0.085830979 6
1.6678423 0.086241253 0.38556612 14
1.665536 0.085829757 -0.029110614 7
1.634226 0.0819287 -0.43843949 0
1.6536856 0.082614936 0.028901186 8
1.6251855 0.080906786 -0.37566826 1
1.6417254 0.081442975 0.086144991 9
1.6196564 0.080348171 -0.31521648 2
1.6536565 0.081745543 0.14485285 10
1.6434963 0.080955766 -0.26061985 3
1.6456455 0.080772951 0.20230313 11
1.6337633 0.079904713 -0.2008407 4
1.6455114 0.080191426 0.26093271 12
1.6477572 0.08001183 -0.14432991 5
1.6687634 0.081031844 0.32475692 13
1.6438186 0.079533815 -0.086249664 6
1.66424 0.08023075 0.38466629 14
1.6578358 0.079631224 -0.028970996 7
1.6248666 0.075489722 -0.43585131 0
1.6499689 0.076655947 0.028831376 8
1.6215647 0.075052708 -0.37476847 1
1.6439948 0.075804129 0.086249664 9
1.6219012 0.074500971 -0.3155981 2
1.6439935 0.075228244 0.14398128 10
1.643782 0.074931875 -0.26061985 3
1.6578157 0.075571597 0.20376556 11
1.6379983 0.074380994 -0.20132817 4
1.6418346 0.074268065 0.26030698 12
1.6440456 0.074081354 -0.14398128 5
1.6768942 0.075267479 0.3262834 13
1.6480895 0.073686376 -0.086459011 6
1.6645229 0.074130833 0.38466629 14
1.6541083 0.073667012 -0.028901186 7
1.6135396 0.069321014 -0.43274546 0
1.6402493 0.070180945 0.028656852 8
1.6257228 0.069275163 -0.37566826 1
1.6482403 0.070234679 0.086459011 9
1.6201899 0.068756893 -0.31521648 2
1.6362835 0.069153011 0.14328404 10
1.6262709 0.068445526 -0.25780404 3
1.6600649 0.069576807 0.20400929 11
1.6422267 0.068542846 -0.20181565 4
1.6480049 0.068784013 0.26124558 12
1.6323502 0.067845248 -0.14293543 5
1.6614541 0.068763644 0.32323048 13
1.6483368 0.067933373 -0.086459011 6
1.67256 0.068639293 0.38646591 14
1.6543554 0.067892201 -0.028901186 7
1.6253539 0.064144954 -0.43585131 0
1.6364768 0.064583912 0.028587043 8
1.6181546 0.063577212 -0.37386864 1
1.6464797 0.064403102 0.086354338 9
1.6263053 0.063329704 -0.31636134 2
1.6424876 0.063671991 0.14380698 10
1.6245148 0.062975265 -0.25749114 3
1.6503683 0.06368982 0.2027906 11
1.6404614 0.063020773 -0.20157191 4
1.6561306 0.063332491 0.26249707 12
1.6325771 0.062147215 -0.14293543 5
1.6577493 0.063105442 0.32246721 13
1.636578 0.062013492 -0.085830979 6
1.6688838 0.06294515 0.38556612 14
1.6545823 0.062116571 -0.028901186 7
1.6216965 0.058614712 -0.434816 0
1.6346937 0.058798831 0.028552137 8
1.6183666 0.057929523 -0.37386864 1
1.6367146 0.058299497 0.085830979 9
1.6265064 0.057935886 -0.31636134 2
1.6406987 0.05815471 0.14363267 10
1.6266991 0.057375021 -0.25780404 3
1.6485968 0.057858512 0.20254686 11
1.630752 0.05694728 -0.20035322 4
1.650419 0.057346478 0.26155844 12
1.6367663 0.056585319 -0.14328404 5
1.6579595 0.057317995 0.32246721 13
1.624808 0.055888001 -0.08520294 6
1.6574076 0.05671972 0.38286668 14
1.6587861 0.056477059 -0.028970996 7
1.6276929 0.052858982 -0.43636894 0
1.6408849 0.053287387 0.028656852 8
1.6166114 0.052216675 -0.37341875 1
1.626927 0.052264862 0.08530762 9
1.6149342 0.051598236 -0.31407163 2
1.6488663 0.052394334 0.14432991 10
1.6367704 0.051723253 -0.25936839 3
1.6468046 0.052040342 0.20230313 11
1.6269726 0.051130187 -0.19986574 4
1.6506091 0.05158465 0.26155844 12
1.6409367 0.050994929 -0.14363267 5
1.662083 0.051362529 0.32323048 13
1.6250019 0.049932763 -0.08520294 6
1.6537088 0.050525192 0.38196689 14
1.6509782 0.050441764 -0.028831376 7
1.6182125 0.046896704 -0.43378076 0
1.6390705 0.047214888 0.028621947 8
1.6167918 0.046291504 -0.37341875 1
1.6370816 0.046872437 0.085830979 9
1.6151044 0.045960318 -0.31407163 2
1.6410728 0.046412654 0.14363267 10
1.636941 0.046010669 -0.25936839 3
1.6509528 0.046115369 0.2027906 11
1.6311176 0.045276433 -0.20035322 4
1.6389314 0.045493327 0.25968125 12
1.6371214 0.045157157 -0.14328404 5
1.6661773 0.045667604 0.32399368 13
1.6411386 0.044694696 -0.086040318 6
1.6577711 0.044858135 0.38286668 14
1.6431483 0.044462454 -0.028691756 7
1.6087101 0.041002031 -0.43119255 0
1.6312218 0.041575797 0.028482327 8
1.624729 0.041126579 -0.37521836 1
1.6412284 0.041257616 0.086040318 9
1.6152551 0.040322613 -0.31407163 2
1.6372412 0.040585555 0.14328404 10
1.6252358 0.040287953 -0.25749114 3
1.6550658 0.040738385 0.20327808 11
1.6352279 0.039963752 -0.2008407 4
1.6331558 0.039628703 0.25874263 12
1.6233265 0.039106719 -0.14206386 5
1.6584688 0.039953314 0.32246721 13
1.6452712 0.039347287 -0.086249664 6
1.6579107 0.039360851 0.38286668 14
1.6472918 0.038821097 -0.028761568 7
1.6165626 0.035838723 -0.43326309 0
1.6273584 0.035793912 0.028412517 8
1.613173 0.035199463 -0.37251896 1
1.6393658 0.035485528 0.085935652 9
1.6153799 0.034966335 -0.31407163 2
1.631391 0.035027288 0.14276111 10
1.6115421 0.034319732 -0.25530109 3
1.64329 0.034709707 0.20181565 11
1.6393267 0.034338988 -0.20132817 4
1.643159 0.034132369 0.26030698 12
1.629429 0.033563446 -0.14258678 5
1.6507468 0.034002557 0.32094073 13
1.62543 0.033196505 -0.08520294 6
1.6619349 0.033651888 0.3837665 14
1.6474173 0.0330703 -0.028761568 7
1.6205462 0.029984549 -0.43429837 0
1.629473 0.030149719 0.028447423 8
1.6074408 0.029461429 -0.37116924 1
1.6334888 0.029653668 0.085621633 9
1.6154972 0.029045023 -0.31407163 2
1.6414688 0.029225402 0.14363267 10
1.6175822 0.028517723 -0.25623968 3
1.6314924 0.028762957 0.20035322 11
1.6255431 0.02837429 -0.19962201 4
1.6472183 0.028465075 0.26093271 12
1.6355126 0.027977271 -0.14310972 5
1.6508603 0.027951619 0.32094073 13
1.6175529 0.02710529 -0.084784262 6
1.6503562 0.027366871 0.3810671 14
1.6515216 0.027386194 -0.028831376 7
1.6167777 0.02426995 -0.43326309 0
1.6335715 0.024236109 0.028517231 8
1.6153321 0.023683531 -0.37296885 1
1.6236013 0.023522131 0.085098274 9
1.6116629 0.023349172 -0.31330839 2
1.6415609 0.023494992 0.14363267 10
1.627548 0.02301033 -0.25780404 3
1.6315869 0.022783406 0.20035322 11
1.6236511 0.022388399 -0.19937825 4
1.6295348 0.022185085 0.2581169 12
1.6356041 0.021982994 -0.14310972 5
1.6627263 0.022347523 0.32323048 13
1.6256258 0.02156435 -0.08520294 6
1.6484929 0.021579938 0.38061717 14
1.6436126 0.02122994 -0.028691756 7
1.6110606 0.018277841 -0.43171018 0
1.6336461 0.018534077 0.028517231 8
1.619302 0.0180887 -0.37386864 1
1.6276679 0.017898051 0.08530762 9
1.6078113 0.017399073 -0.31254515 2
1.6336669 0.017393729 0.14293543 10
1.6295965 0.017065959 -0.2581169 3
1.6435664 0.017212259 0.20181565 11
1.6276895 0.016761888 -0.19986574 4
1.6335529 0.016537149 0.25874263 12
1.6316863 0.016233457 -0.14276111 5
1.6667234 0.016291128 0.32399368 13
1.625694 0.015606347 -0.08520294 6
1.648561 0.015538127 0.38061717 14
1.6356783 0.015416704 -0.028552137 7
1.6033852 0.012873552 -0.42963964 0
1.6257024 0.012768995 0.028377613 8
1.615458 0.012405811 -0.37296885 1
1.635707 0.012561312 0.085726306 9
1.6078601 0.012067606 -0.31254515 2
1.6217614 0.011888892 0.14188954 10
1.6256933 0.011633206 -0.25749114 3
1.6376613 0.011433024 0.20108443 11
1.627738 0.011080433 -0.19986574 4
1.6355741 0.011133774 0.25905553 12
1.6177847 0.010729553 -0.14154093 5
1.6549889 0.010687456 0.321704 13
1.6257368 0.010215591 -0.08520294 6
1.6563983 0.010118377 0.38241678 14
1.6437191 0.010040924 -0.028691756 7
1.6111478 0.0073112524 -0.43171018 0
1.6157373 0.0073320796 0.028203089 8
1.6037979 0.0069979955 -0.37026942 1
1.6337436 0.0068443087 0.085621633 9
1.6078924 0.0064546247 -0.31254515 2
1.6257778 0.0062426846 0.14223817 10
1.613871 0.0061969641 -0.25561395 3
1.63372 0.0059888349 0.20059694 11
1.631736 0.0056960057 -0.20035322 4
1.6296769 0.0054043992 0.2581169 12
1.6178123 0.0050834776 -0.14154093 5
1.6471623 0.0051757009 0.32017753 13
1.6177728 0.0048002419 -0.084784262 6
1.6477436 0.004313244 -0.028761568 7
1.6150268 0.0019734972 -0.43274546 0
1.6217523 0.0016979096 0.028307803 8
1.5979664 0.0013948876 -0.36891973 1
1.6237711 0.0014174128 0.085098274 9
1.6157579 0.0011284319 -0.31407163 2
1.6297743 0.00085301156 0.14258678 10
1.6178335 0.00056518498 -0.25623968 3
1.6317459 0.00028526899 0.20035322 11
1.6178503 -0 -0.19864705 4
1.6375874 -0 0.25936839 12
1.6218051 -0.00028305838 -0.14188954 5
1.6510968 -0.00057634152 0.32094073 13
1.6097907 -0.00084288453 -0.084365569 6
1.6477488 -0.0011503458 -0.028761568 7
1.6169556 -0.0036687623 -0.43326309 0
1.6297477 -0.0036977865 0.028447423 8
1.6038084 -0.0039188513 -0.37026942 1
1.6117827 -0.0042196461 0.084470242 9
1.6039727 -0.004479148 -0.31178191 2
1.6297674 -0.0048356317 0.14258678 10
1.6178265 -0.0048002019 -0.25623968 3
1.6277677 -0.0051138001 0.19986574 11
1.6118861 -0.0053452365 -0.19791584 4
1.6336267 -0.0057024555 0.25874263 12
1.6257789 -0.0059588179 -0.14223817 5
1.6432328 -0.00602279 0.31941426 13
1.609779 -0.0061811376 -0.084365569 6
1.6357366 -0.006851797 -0.028552137 7
1.5976164 -0.0089228665 -0.4280867 0
1.6277251 -0.009375127 0.028412517 8
1.6037849 -0.009517163 -0.37026942 1
1.619747 -0.0098945936 0.084888928 9
1.596096 -0.0097501166 -0.31025544 2
1.6257578 -0.010215071 0.14223817 10
1.6217505 -0.010472953 -0.25686541 3
1.62774 -0.010795739 0.19986574 11
1.625753 -0.01106632 -0.19962201 4
1.6217448 -0.011322098 0.25686541 12
1.6118017 -0.011534009 -0.14101799 5
1.6510546 -0.011814902 0.32094073 13
1.6177365 -0.01185884 -0.084784262 6
1.627704 -0.012500116 -0.028412517 7
1.5956413 -0.014760492 -0.42756909 0
1.6176844 -0.014964402 0.028237993 8
1.6076393 -0.015152091 -0.37116924 1
1.6316855 -0.015663538 0.085516959 9
1.5999759 -0.015638413 -0.31101868 2
1.6217248 -0.016134061 0.14188954 10
1.6138002 -0.01633691 -0.25561395 3
1.6336472 -0.016537828 0.20059694 11
1.6197495 -0.016679866 -0.19889079 4
1.6256459 -0.017024344 0.25749114 12
1.6077672 -0.017117755 -0.14066936 5
1.6431477 -0.017781263 0.31941426 13
1.6176822 -0.017788062 -0.084784262 6
1.6356488 -0.018271133 -0.028552137 7
1.6033068 -0.020428682 -0.42963964 0
1.6116203 -0.020815935 0.028133281 8
1.5997787 -0.02094225 -0.36936963 1
1.6276231 -0.021590875 0.08530762 9
1.61169 -0.021379521 -0.31330839 2
1.6196663 -0.021768063 0.14171523 10
1.6058325 -0.02186246 -0.25436246 3
1.6236511 -0.022388484 0.19937825 11
1.6236473 -0.022671863 -0.19937825 4
1.6275479 -0.023010448 0.25780404 12
1.6156664 -0.022842467 -0.14136662 5
1.6391495 -0.023460617 0.31865105 13
1.6136161 -0.023376852 -0.084574915 6
1.6355709 -0.024265962 -0.028552137 7
1.6090206 -0.026119212 -0.43119255 0
1.6195353 -0.026572635 0.028272899 8
1.5919019 -0.026397152 -0.36757001 1
1.6195499 -0.027138356 0.084888928 9
1.6037537 -0.026873665 -0.31178191 2
1.6255569 -0.02752281 0.14223817 10
1.6096967 -0.027535299 -0.25498822 3
1.6096696 -0.02781586 0.1976721 11
1.60768 -0.028062155 -0.19742836 4
1.6314077 -0.028761152 0.25842977 12
1.6096007 -0.0283767 -0.14084367 5
1.6429836 -0.029252071 0.31941426 13
1.6015431 -0.028793866 -0.083946884 6
1.6434737 -0.030121598 -0.028691756 7
1.6050565 -0.031659383 -0.43015727 0
1.6154342 -0.032146137 0.028203089 8
1.5995935 -0.032110214 -0.36936963 1
1.6134547 -0.032670174 0.084574915 9
1.5997245 -0.032392155 -0.31101868 2
1.6294348 -0.033278257 0.14258678 10
1.6135406 -0.033235379 -0.25561395 3
1.6214707 -0.033681843 0.19913453 11
1.6036029 -0.033590689 -0.19694087 4
1.6214226 -0.034247078 0.25686541 12
1.6274192 -0.034373734 -0.14241248 5
1.6389458 -0.034903377 0.31865105 13
1.6094199 -0.034555614 -0.084365569 6
1.6273646 -0.035509225 -0.028412517 7
1.6010737 -0.037172206 -0.429122 0
1.6213096 -0.037925147 0.028307803 8
1.5994717 -0.037693642 -0.36936963 1
1.6153275 -0.038349386 0.084679581 9
1.5956762 -0.03788285 -0.31025544 2
1.615366 -0.038632397 0.14136662 10
1.6134148 -0.038867489 -0.25561395 3
1.6253123 -0.039437935 0.19962201 11
1.6094294 -0.039333604 -0.1976721 4
1.6193186 -0.039858084 0.25655255 12
1.6113551 -0.039662071 -0.14101799 5
1.6447021 -0.04077011 0.31979591 13
1.6092895 -0.040173326 -0.084365569 6
1.6232328 -0.041088369 -0.028342709 7
1.6111724 -0.043315642 0.028133281 8
1.5993303 -0.043276604 -0.36936963 1
1.6191845 -0.043813843 0.084888928 9
1.5916092 -0.043345671 -0.3094922 2
1.6092465 -0.044107076 0.14084367 10
1.6014215 -0.044172321 -0.25373673 3
1.6231803 -0.045056012 0.19937825 11
1.6112665 -0.045006748 -0.19791584 4
1.6132537 -0.045062255 0.25561395 12
1.6072237 -0.045174558 -0.14066936 5
1.6347374 -0.046233431 0.31788781 13
1.6171253 -0.0460178 -0.084784262 6
1.6270853 -0.046585437 -0.028412517 7
1.6030248 -0.048416764 0.02799366 8
1.5952824 -0.048461597 -0.36846983 1
1.6230143 -0.049587574 0.085098274 9
1.5992975 -0.04914235 -0.31101868 2
1.6110741 -0.049785666 0.14101799 10
1.5992918 -0.049421567 -0.25342387 3
1.6190537 -0.050315104 0.19889079 11
1.6111084 -0.050349653 -0.19791584 4
1.6229584 -0.051003523 0.25717828 12
1.6110389 -0.050910395 -0.14101799 5
1.6306504 -0.051530138 0.31712458 13
1.6089787 -0.051126394 -0.084365569 6
1.6349075 -0.052521564 -0.028552137 7
1.6108403 -0.054281451 0.028133281 8
1.5873131 -0.05376599 -0.36667022 1
1.6108547 -0.054844879 0.084470242 9
1.6050121 -0.054645952 -0.31216353 2
1.6208562 -0.055468619 0.14188954 10
1.6010838 -0.055071745 -0.25373673 3
1.6089487 -0.05562342 0.1976721 11
1.6069552 -0.055835303 -0.19742836 4
1.6227707 -0.056668397 0.25717828 12
1.6108612 -0.056252513 -0.14101799 5
1.6304605 -0.05722186 0.31712458 13
1.6008065 -0.056460872 -0.083946884 6
1.6347142 -0.058228143 -0.028552137 7
1.610641 -0.059904005 0.028133281 8
1.5812734 -0.059088111 -0.3653205 1
1.6026701 -0.06016776 0.084051557 9
1.5891167 -0.059658937 -0.30911061 2
1.6166707 -0.060975939 0.14154093 10
1.6048297 -0.060809821 -0.25436246 3
1.6107284 -0.06131487 0.19791584 11
1.6007996 -0.061216716 -0.19669713 4
1.6186152 -0.062180921 0.25655255 12
1.6146369 -0.062028095 -0.14136662 5
1.6341746 -0.0630643 0.31788781 13
1.6005996 -0.062048383 -0.083946884 6
1.6185156 -0.063308738 -0.028272899 7
1.6144181 -0.065688416 0.028203089 8
1.5966345 -0.065243959 -0.36891973 1
1.6024503 -0.06576176 0.084051557 9
1.5810523 -0.064883627 -0.30758414 2
1.6144574 -0.066536762 0.14136662 10
1.6026338 -0.066329665 -0.2540496 3
1.6144713 -0.067101851 0.1984033 11
1.6045427 -0.06696973 -0.19718461 4
1.5947045 -0.066837914 0.25279811 12
1.6024668 -0.067163251 -0.14032075 5
1.6378675 -0.068933345 0.31865105 13
1.6043642 -0.0678038 -0.084156223 6
1.6102934 -0.0686175 -0.028133281 7
1.6021925 -0.070793763 0.02799366 8
1.6081969 -0.07162153 0.084365569 9
1.5847387 -0.070576817 -0.30834734 2
1.6042633 -0.071726911 0.14049506 10
1.5944991 -0.071569204 -0.25279811 3
1.6142272 -0.072737008 0.1984033 11
1.6042993 -0.07257022 -0.19718461 4
1.6023548 -0.072762497 0.2540496 12
1.5942613 -0.072394975 -0.13962351 5
1.6297719 -0.074292541 0.31712458 13
1.6081082 -0.07358627 -0.084365569 6
1.6220294 -0.074790679 -0.028342709 7
1.5979408 -0.076195531 0.02792385 8
1.6139219 -0.077522226 0.084679581 9
1.5884049 -0.07629656 -0.30911061 2
1.6040031 -0.077326402 0.14049506 10
1.5902935 -0.076943681 -0.25217238 3
1.6060325 -0.077986144 0.19742836 11
1.6099843 -0.078459702 -0.19791584 4
1.602091 -0.07835532 0.2540496 12
1.5979651 -0.078433096 -0.13997212 5
1.621659 -0.079596072 0.3155981 13
1.5978673 -0.078707844 -0.08384221 6
1.6217583 -0.080452166 -0.028342709 7
1.6016593 -0.08197736 0.02799366 8
1.6056631 -0.082744248 0.084260903 9
1.5822325 -0.081813693 -0.30796573 2
1.6116679 -0.083617769 0.1411923 10
1.5880281 -0.082669184 -0.25185952 3
1.5998033 -0.08328218 0.19669713 11
1.595824 -0.083354309 -0.19620967 4
1.6037804 -0.084050573 0.25436246 12
1.6016608 -0.084219798 -0.14032075 5
1.6252776 -0.085746087 0.31636134 13
1.5955735 -0.084458224 -0.083737537 6
1.6214677 -0.086112671 -0.028342709 7
1.6033447 -0.087956712 0.028028565 8
1.5973721 -0.088188343 0.08384221 9
1.5838976 -0.08744444 -0.30834734 2
1.6113662 -0.089243032 0.1411923 10
1.5936468 -0.088540666 -0.25279811 3
1.6034514 -0.089366116 0.19718461 11
1.5955077 -0.089202724 -0.19620967 4
1.5857111 -0.088932641 0.25154665 12
1.5993679 -0.089698561 -0.14014643 5
1.632809 -0.091859952 0.31788781 13
1.5992572 -0.090252377 -0.083946884 6
1.6171483 -0.091828331 -0.028272899 7
1.6030279 -0.093552895 0.028028565 8
1.5970546 -0.093763679 0.08384221 9
1.5855426 -0.093087807 -0.30872896 2
1.5991111 -0.094164483 0.14014643 10
1.5992439 -0.094452389 -0.25373673 3
1.6150193 -0.09566696 0.19864705 11
1.5971682 -0.094889276 -0.19645341 4
1.601166 -0.095407233 0.2540496 12
1.5930785 -0.094925329 -0.13962351 5
1.6324785 -0.09755896 0.31788781 13
1.6029198 -0.096073247 -0.084156223 6
1.6048415 -0.096750647 -0.028063469 7
1.5947081 -0.098654054 0.027888944 8
1.606702 -0.099677533 0.084365569 9
1.5967841 -0.099621788 0.13997212 10
1.5851038 -0.099170782 -0.25154665 3
1.6067507 -0.10080665 0.1976721 11
1.6027708 -0.10083778 -0.19718461 4
1.6047837 -0.10096442 0.25467533 12
1.5827953 -0.099858381 -0.13875194 5
1.6242906 -0.10276093 0.31636134 13
1.5985882 -0.101415 -0.083946884 6
1.6085031 -0.10232588 -0.028133281 7
1.5923767 -0.10381166 0.02785404 8
1.6043513 -0.10515475 0.084260903 9
1.5944387 -0.105064 0.13979781 10
1.582795 -0.10429676 -0.25123379 3
1.6064076 -0.10613427 0.1976721 11
1.6044084 -0.10628343 -0.19742836 4
1.5906243 -0.10564916 0.25248525 12
1.5903888 -0.10591231 -0.13944918 5
1.6161052 -0.1076249 0.31483486 13
1.5902718 -0.1061833 -0.083528191 6
1.6201073 -0.10874349 -0.028342709 7
1.5920047 -0.10936946 0.02785404 8
1.5960236 -0.10992543 0.08384221 9
1.6020321 -0.11090113 0.14049506 10
1.5863626 -0.11009463 -0.25185952 3
1.5901849 -0.11063878 0.19572218 11
1.5901656 -0.11091632 -0.19572218 4
1.5942065 -0.11119817 0.25311098 12
1.5940042 -0.11146361 -0.13979781 5
1.6235535 -0.11381467 0.31636134 13
1.5859069 -0.11145372 -0.083318852 6
1.6197377 -0.11411537 -0.028342709 7
1.5996114 -0.11522282 0.02799366 8
1.5956302 -0.11549593 0.08384221 9
1.599648 -0.11634807 0.14032075 10
1.6037203 -0.11664426 -0.25467533 3
1.5957488 -0.11634446 0.19645341 11
1.5838495 -0.1157548 -0.19499096 4
1.5859282 -0.116185 0.25185952 12
1.6015533 -0.11761072 -0.14049506 5
1.6329571 -0.11991687 0.31826943 13
1.5895122 -0.11700541 -0.083528191 6
1.6033757 -0.11858864 -0.028063469 7
1.6051602 -0.12153786 0.028098376 8
1.5872301 -0.12073746 0.083423525 9
1.5992321 -0.12193118 0.14032075 10
1.5992703 -0.12249561 0.19694087 11
1.5913317 -0.12216692 -0.19596592 4
1.5815525 -0.12169384 0.25123379 12
1.581268 -0.12167194 -0.13875194 5
1.6364213 -0.12620308 0.31903264 13
1.5970379 -0.12344617 -0.083946884 6
1.6029303 -0.1244645 -0.028063469 7
1.5867852 -0.12571871 0.027784232 8
1.5967537 -0.1270694 0.083946884 9
1.5829082 -0.12624559 0.13892625 10
1.6146629 -0.12934545 0.19889079 11
1.5908957 -0.12772097 -0.19596592 4
1.5771801 -0.1268969 0.25060806 12
1.5768616 -0.12687127 -0.13840331 5
1.6222726 -0.13080995 0.31636134 13
1.5926157 -0.12869835 -0.083737537 6
1.6064724 -0.13038254 -0.028133281 7
1.5823509 -0.13092707 0.027714422 8
1.6022949 -0.13285886 0.084260903 9
1.5903999 -0.13243154 0.13962351 10
1.5924417 -0.13316129 0.19620967 11
1.5944198 -0.13332671 -0.19645341 4
1.5885615 -0.13311604 0.25248525 12
1.5803801 -0.13270821 -0.13875194 5
1.5861863 -0.13375337 -0.083423525 6
1.6060312 -0.13570909 -0.028133281 7
1.5839003 -0.13634512 0.027749326 8
1.5879165 -0.13697003 0.083528191 9
1.5959067 -0.1382205 0.14014643 10
1.5840807 -0.13775337 0.19523472 11
1.5939689 -0.13861325 -0.19645341 4
1.5802397 -0.13769725 0.25123379 12
1.5839009 -0.1382948 -0.13910057 5
1.5817547 -0.13866378 -0.083214179 6
1.6095563 -0.14138408 -0.028203089 7
1.5933982 -0.1424873 0.02792385 8
1.5814608 -0.1419763 0.083214179 9
1.5994084 -0.14386895 0.14049506 10
1.5855923 -0.14318416 0.19547844 11
1.5817167 -0.1433908 0.25154665 12
1.5893612 -0.14436352 -0.13962351 5
1.5892171 -0.14490975 -0.083632864 6
1.6010873 -0.1462739 -0.028063469 7
1.5948564 -0.14851187 0.027958756 8
1.5928614 -0.14888695 0.08384221 9
1.5830007 -0.14824396 0.13910057 10
1.5949388 -0.14992356 0.19669713 11
1.5752805 -0.14863046 0.25060806 12
1.5789037 -0.14925034 -0.13875194 5
1.592652 -0.15111086 -0.08384221 6
1.5885961 -0.15100582 -0.02785404 7
1.5843494 -0.15339279 0.027784232 8
1.590317 -0.1545309 0.083737537 9
1.5784807 -0.15365888 0.13875194 10
1.5983299 -0.15615435 0.19718461 11
1.5747253 -0.15440316 0.25060806 12
1.5664757 -0.15359429 -0.13770607 5
1.5881395 -0.15627815 -0.083632864 6
1.5920119 -0.15722033 -0.02792385 7
1.5798248 -0.15852298 0.027714422 8
1.5957296 -0.16068153 0.084051557 9
1.5818993 -0.15956777 0.13910057 10
1.58395 -0.16033319 0.19547844 11
1.5781072 -0.16029827 0.25123379 12
1.5698944 -0.15946406 -0.1380547 5
1.5836104 -0.16141577 -0.083423525 6
1.5994108 -0.16359042 -0.028063469 7
1.585229 -0.1646564 0.027819136 8
1.58324 -0.16500846 0.083423525 9
1.5872777 -0.16570932 0.13962351 10
1.571535 -0.16462037 0.19401602 11
1.5755736 -0.16559945 0.25092092 12
1.6010319 -0.16827522 -0.14084367 5
1.5790647 -0.16652369 -0.083214179 6
1.59883 -0.16917242 -0.028063469 7
1.5866327 -0.17040241 0.02785404 8
1.5786828 -0.17010605 0.083214179 9
1.5906512 -0.17167652 0.13997212 10
1.5768714 -0.17074613 0.19474722 11
1.5906963 -0.17280492 0.25342387 12
1.5824449 -0.17246744 -0.083423525 6
1.5902783 -0.17388292 -0.02792385 7
1.5880158 -0.17616025 0.027888944 8
1.57811 -0.17534021 0.083214179 9
1.5821217 -0.17634504 0.13927487 10
1.5881027 -0.17757294 0.19620967 11
1.5822623 -0.17719951 0.25217238 12
1.5818332 -0.17799017 -0.083423525 6
1.5777704 -0.17781185 -0.027714422 7
1.5735155 -0.17983586 0.027644612 8
1.5814886 -0.18102673 0.083423525 9
1.5755903 -0.18090877 0.13875194 10
1.5894772 -0.18306541 0.19645341 11
1.581666 -0.18244551 0.25217238 12
1.5891702 -0.18415433 -0.08384221 6
1.5930629 -0.18488722 -0.02799366 7
1.5689386 -0.18458554 0.027574802 8
1.588781 -0.1874823 0.08384221 9
1.5749817 -0.18613262 0.13875194 10
1.5849187 -0.18786797 0.19596592 11
1.5751346 -0.18726581 0.25123379 12
1.5766515 -0.1880043 -0.083214179 6
1.5924078 -0.19044691 -0.02799366 7
1.5762253 -0.19102335 0.027714422 8
1.5762209 -0.19158113 0.083214179 9
1.5802555 -0.19235142 0.13927487 10
1.5704601 -0.19171542 0.19425975 11
1.5764322 -0.19300298 0.25154665 12
1.5877638 -0.1955155 -0.02792385 7
1.5834862 -0.1975143 0.02785404 8
1.5676153 -0.19609037 0.082795486 9
1.5894593 -0.19910458 0.14014643 10
1.5737205 -0.19769101 0.19474722 11
1.5698693 -0.19776389 0.25060806 12
1.5791365 -0.20005137 -0.027784232 7
1.5788202 -0.20253162 0.027784232 8
1.5708832 -0.20207085 0.083004832 9
1.5749222 -0.20286982 0.13892625 10
1.578927 -0.20394601 0.19547844 11
1.5554563 -0.2014664 0.24841796 12
1.5784285 -0.20556237 -0.027784232 7
1.5781037 -0.20804147 0.027784232 8
1.5780884 -0.20859994 0.083423525 9
1.5702541 -0.20784323 0.13857763 10
1.5801733 -0.20971744 0.19572218 11
1.5606179 -0.20767646 0.24935657 12
1.5816654 -0.21160117 -0.02785404 7
1.561515 -0.21140264 0.027504994 8
1.5813088 -0.21464451 0.083632864 9
1.569519 -0.21332313 0.13857763 10
1.5656632 -0.21335573 0.19401602 11
1.5735837 -0.21499458 0.25154665 12
1.5686901 -0.21795282 0.027644612 8
1.5726373 -0.21906081 0.083214179 9
1.5746846 -0.21962616 0.13910057 10
1.557045 -0.21772002 0.19304106 11
1.5708674 -0.22021189 0.25123379 12
1.5679197 -0.22342719 0.027644612 8
1.5698858 -0.22426654 0.083109505 9
1.5758806 -0.22540358 0.13927487 10
1.5719955 -0.22540787 0.19499096 11
1.5583576 -0.2240075 0.24935657 12
1.5710876 -0.22947694 0.027714422 8
1.5671173 -0.22945574 0.083004832 9
1.5652276 -0.22945812 0.13840331 10
1.5731633 -0.23118241 0.19523472 11
1.5458404 -0.2277185 0.24747935 12
1.5544556 -0.23259231 0.027435182 8
1.5742074 -0.2361096 0.083423525 9
1.5644171 -0.23492038 0.13840331 10
1.5782355 -0.23755877 0.19596592 11
1.5489427 -0.23370253 0.24810509 12
1.5733737 -0.24160318 0.083423525 9
1.5635877 -0.2403798 0.13840331 10
1.5695488 -0.24185711 0.19499096 11
1.5578786 -0.24061553 0.24966943 12
1.5646286 -0.24585366 0.083004832 9
1.5706118 -0.24707474 0.13910057 10
1.5588907 -0.24578856 0.19377227 11
1.5589805 -0.24636042 0.2499823 12
1.5539011 -0.2497292 0.082481474 9
1.5658057 -0.25192273 0.13875194 10
1.5639026 -0.25217664 0.19450349 11
1.5503106 -0.2505402 0.24873082 12
1.5648448 -0.25709456 0.083109505 9
1.5590187 -0.25641683 0.13822901 10
