# .PCD v0.7 - Point Cloud Data file format
VERSION 0.7
FIELDS x y z intensity
SIZE 4 4 4 4
TYPE F F F F
COUNT 1 1 1 1
WIDTH 1327
HEIGHT 1
VIEWPOINT 0 0 0 1 0 0 0
POINTS 1327
DATA ascii
1.5604467 0.15382823 0.13718314 10
1.5471489 0.15224472 -0.24622789 3
1.5587362 0.15311027 0.19230984 11
1.5567873 0.15264453 -0.1920661 4
1.5605537 0.15273887 -0.13718314 5
1.5544821 0.15159684 -0.081853449 6
1.5643924 0.15201211 -0.027435182 7
1.5526856 0.14841309 0.027225753 8
1.5325453 0.14621809 -0.35542265 1
1.5448806 0.14712217 0.081330083 9
1.5459398 0.14722304 -0.30185983 2
1.5609742 0.14837991 0.13718314 10
1.5476708 0.14684355 -0.24622789 3
1.5612375 0.14785509 0.19255358 11
1.5415003 0.14571448 -0.1901162 4
1.5650445 0.14766523 -0.13753176 5
1.5589788 0.14654319 -0.082062788 6
1.5529678 0.14543132 -0.027225753 7
1.5531942 0.1429919 0.027225753 8
1.5427492 0.14175877 -0.35767215 1
1.5453846 0.14172971 0.081330083 9
1.534714 0.14075108 -0.29957014 2
1.5515622 0.14202246 0.13631159 10
1.5521084 0.1417993 -0.24685362 3
1.559767 0.14222527 0.19230984 11
1.5459535 0.1406929 -0.19060367 4
1.5457083 0.14039859 -0.13578865 5
1.5555025 0.14074081 -0.081853449 6
1.5494827 0.1396509 -0.027155945 7
1.5397407 0.13633436 0.026981421 8
1.5529405 0.13723072 -0.35992166 1
1.5498492 0.13668495 0.08153943 9
1.5391073 0.13573761 -0.30033338 2
1.5421249 0.13573177 0.13544002 10
1.5407871 0.13534379 -0.2449764 3
1.5642089 0.13712609 0.1927973 11
1.5464352 0.13529524 -0.19060367 4
1.5382495 0.13430932 -0.13509139 5
1.5520048 0.13496377 -0.081644095 6
1.5499607 0.13424167 -0.027155945 7
1.5342296 0.13045163 0.026876707 8
1.522342 0.12917253 -0.35272324 1
1.5503169 0.13127373 0.08153943 9
1.5395719 0.13036388 -0.30033338 2
1.5425892 0.13034898 0.13544002 10
1.5373135 0.12963223 -0.24435066 3
1.5488534 0.1303331 0.19084741 11
1.5508542 0.13022964 -0.19109115 4
1.5570658 0.13047683 0.24747935 12
1.5466508 0.12960409 -0.13578865 5
1.5484858 0.12921433 -0.081434757 6
1.5544055 0.12916124 -0.027225753 7
1.5306894 0.12477005 0.026806895 8
1.5208412 0.1236994 -0.35227334 1
1.5447935 0.12537694 0.08122541 9
1.5400175 0.12498932 -0.30033338 2
1.5470066 0.12528479 0.13578865 10
1.5377566 0.12426481 -0.24435066 3
1.5374267 0.12396882 0.18938497 11
1.5394272 0.12385972 -0.18962872 4
1.5397905 0.12361776 0.24466354 12
1.5431217 0.1238852 -0.13544002 5
1.5369818 0.12285309 -0.080806725 6
1.55086 0.12341763 -0.027155945 7
1.535103 0.11973752 0.026876707 8
1.5193208 0.11823976 -0.35182345 1
1.5332533 0.11932404 0.080597378 9
1.5228281 0.1182446 -0.29689881 2
1.5414753 0.11942261 0.13526571 10
1.5460589 0.11950628 -0.24560213 3
1.5437878 0.11905896 0.1901162 11
1.5319331 0.11787578 -0.18865377 4
1.5382223 0.11835971 0.24435066 12
1.5495043 0.11895652 -0.13596295 5
1.5374013 0.11748686 -0.080806725 6
1.5492668 0.1181224 -0.027121039 7
1.5334973 0.11449769 0.026841803 8
1.521648 0.1133452 -0.35227334 1
1.5356523 0.11411886 0.080702052 9
1.5212736 0.11278339 -0.29651719 2
1.5259869 0.11286503 0.13387121 10
1.5385668 0.11379546 -0.24435066 3
1.5461538 0.11408531 0.19035992 11
1.536275 0.11308682 -0.18914123 4
1.534686 0.11270057 0.24372493 12
1.5320265 0.11223646 -0.13439415 5
1.5417664 0.11267949 -0.081016071 6
1.5396976 0.11198801 -0.026946515 7
1.5279038 0.10871789 0.026737086 8
1.5239782 0.10817052 -0.35272324 1
1.5380335 0.10889912 0.080806725 9
1.5196809 0.10759969 -0.29613557 2
1.5203906 0.10738326 0.13334829 10
1.5330433 0.10800728 -0.24341206 3
1.5465426 0.10868786 0.19035992 11
1.5386406 0.10786267 -0.18938497 4
1.5232468 0.10651565 0.24184772 12
1.5224527 0.10646012 -0.1335226 5
1.5461352 0.1075746 -0.08122541 6
1.5320995 0.10606071 -0.026806895 7
1.5222886 0.10297854 0.026632372 8
1.5087919 0.10180102 -0.34912404 1
1.5403972 0.10366342 0.080911398 9
1.523965 0.10255759 -0.29689881 2
1.5247319 0.10234191 0.1336969 10
1.523556 0.10199589 -0.24184772 3
1.5370092 0.10262708 0.18914123 11
1.5409886 0.10262265 -0.18962872 4
1.5236093 0.1011982 0.24184772 12
1.5228151 0.10114544 -0.1335226 5
1.5475789 0.10251898 0.30147824 13
1.5345439 0.10138649 -0.080597378 6
1.540442 0.10123616 -0.026946515 7
1.5266298 0.097920462 0.026702182 8
1.5071933 0.096409656 -0.34867415 1
1.5327768 0.097776808 0.080492713 9
1.526273 0.097361922 -0.29728043 2
1.5290565 0.097272284 0.13404553 10
1.5278456 0.096927524 -0.24247345 3
1.5294336 0.096759543 0.18816628 11
1.5235071 0.096118376 -0.18743508 4
1.5259246 0.09600354 0.24216059 12
1.5311127 0.09632995 -0.13421984 5
1.5381305 0.096501239 0.29957014 13
1.526915 0.095530786 -0.080178693 6
1.5447776 0.096106321 -0.027016325 7
1.5269624 0.092590526 0.026702182 8
1.5036304 0.090913072 -0.34777433 1
1.5251342 0.091945373 0.08007402 9
1.5168051 0.091443233 -0.29537234 2
1.5254092 0.09169478 0.1336969 10
1.5281745 0.091594078 -0.24247345 3
1.529762 0.091420561 0.18816628 11
1.5258149 0.090917431 -0.1876788 4
1.5203347 0.090324618 0.24122196 12
1.5374062 0.091338858 -0.13474278 5
1.5423777 0.091364086 0.30033338 13
1.5272391 0.090199873 -0.080178693 6
1.5291337 0.089776173 -0.026737086 7
1.5312691 0.087488309 0.026771991 8
1.5097753 0.08599592 -0.34912404 1
1.5274398 0.086734653 0.080178693 9
1.5073146 0.085591853 -0.29346424 2
1.5197525 0.086032055 0.13317397 10
1.5344017 0.086592689 -0.24341206 3
1.5320537 0.08619196 0.18841003 11
1.5201769 0.085257635 -0.18694758 4
1.5147238 0.084686622 0.24028336 12
1.5178229 0.084859885 -0.13299966 5
1.5583688 0.086853199 0.3033863 13
1.5355214 0.085311763 -0.080597378 6
1.5254444 0.084217086 -0.026667278 7
1.5175875 0.081392586 0.026527658 8
1.5178502 0.08114101 -0.35092363 1
1.5297276 0.081508957 0.080283366 9
1.5115249 0.080539055 -0.29422748 2
1.5120852 0.080303542 0.13247673 10
1.522859 0.080609195 -0.24153483 3
1.5343275 0.080948472 0.18865377 11
1.5224476 0.080054536 -0.18719132 4
1.5110649 0.079191566 0.23965763 12
1.5181098 0.079560779 -0.13299966 5
1.5390567 0.080389954 0.29957014 13
1.5318207 0.079743192 -0.080388032 6
1.554952 0.080675252 0.35947177 14
1.529723 0.07909935 -0.026737086 7
1.5377412 0.077360667 -0.41255757 0
1.5118707 0.07579466 0.026422944 8
1.5025536 0.075064674 -0.34732443 1
1.530003 0.076168306 0.080283366 9
1.5078754 0.07506673 -0.29346424 2
1.5143462 0.075123928 0.13265103 10
1.5073473 0.074513018 -0.2390319 3
1.520722 0.074908122 0.18694758 11
1.528666 0.075031266 -0.18792254 4
1.5133051 0.074013293 0.23997049 12
1.5183783 0.074261419 -0.13299966 5
1.5354061 0.074825615 0.29880691 13
1.5201204 0.073814034 -0.079760008 6
1.5299898 0.073758736 -0.026737086 7
1.507126 0.070547529 -0.40427536 0
1.5161213 0.070703417 0.026492754 8
1.4930732 0.069366731 -0.34507492 1
1.5202839 0.070365012 0.079760008 9
1.5120505 0.069983937 -0.29422748 2
1.5185797 0.070021279 0.13299966 10
1.513518 0.069522463 -0.23997049 3
1.5130421 0.069235988 0.18597263 11
1.5150373 0.069063045 -0.18621638 4
1.5155276 0.068819635 0.24028336 12
1.5146476 0.06877967 -0.13265103 5
1.5317354 0.069287747 0.29804367 13
1.5083972 0.067968987 -0.079131976 6
1.5321161 0.068769105 0.35407296 14
1.5342335 0.068595849 -0.026806895 7
1.5112231 0.065453023 -0.40531066 0
1.5143609 0.065324143 0.026457848 8
1.4991471 0.064406469 -0.34642464 1
1.5105431 0.064631231 0.079236642 9
1.5083627 0.064537942 -0.29346424 2
1.5168242 0.064634785 0.13282534 10
1.5176988 0.064407423 -0.24059623 3
1.515258 0.064038202 0.18621638 11
1.5113025 0.063606806 -0.18572889 4
1.5058905 0.063115031 0.23871902 12
1.5208505 0.063742034 -0.13317397 5
1.5358911 0.064104639 0.29880691 13
1.5166075 0.063034646 -0.079550661 6
1.5265055 0.063178435 0.35272324 14
1.5144835 0.062416837 -0.026457848 7
1.5017909 0.059792802 -0.40272245 0
1.5205741 0.060275581 0.026562562 8
1.4993628 0.059172682 -0.34642464 1
1.514751 0.059514489 0.079445995 9
1.4968082 0.058809515 -0.29117453 2
1.5070864 0.058950644 0.13195379 10
1.5139664 0.058955137 -0.23997049 3
1.5194395 0.058901958 0.18670385 11
1.5115153 0.058331303 -0.18572889 4
1.4962319 0.057479985 0.23715468 12
1.5071273 0.057898544 -0.13195379 5
1.5321817 0.058592532 0.29804367 13
1.5208099 0.05789258 -0.079760008 6
1.5267167 0.057850607 0.35272324 14
1.5106956 0.056978781 -0.02638804 7
1.4865457 0.053990304 -0.39858136 0
1.508785 0.054533631 0.026353134 8
1.4956652 0.053798068 -0.34552482 1
1.5189414 0.05437059 0.079655334 9
1.5009284 0.053725816 -0.29193777 2
1.5013095 0.053476393 0.13143085 10
1.4983702 0.053109862 -0.23746756 3
1.5236036 0.053738758 0.18719132 11
1.5156775 0.053193629 -0.18621638 4
1.4944494 0.052187476 0.23684181 12
1.4993554 0.052358799 -0.13125655 5
1.5284528 0.053108566 0.29728043 13
1.5170107 0.052445196 -0.079550661 6
1.5385948 0.052922554 0.35542265 14
1.5148823 0.051842224 -0.026457848 7
1.5233482 0.051865779 0.40841648 15
1.4886558 0.048863944 -0.39909899 0
1.5009716 0.049005244 0.026213516 8
1.4861053 0.048260953 -0.34327531 1
1.511137 0.048809845 0.079236642 9
1.4971823 0.048359107 -0.29117453 2
1.5074613 0.048427038 0.13195379 10
1.4945976 0.047753397 -0.23684181 3
1.5039408 0.047789186 0.18475394 11
1.5099015 0.047714099 -0.18548515 4
1.5044943 0.047281113 0.23840615 12
1.5035118 0.047250237 -0.13160518 5
1.5207797 0.047527235 0.29575396 13
1.5052066 0.04677688 -0.078922629 6
1.542666 0.047672242 0.35632247 14
1.5190517 0.046677142 -0.026527658 7
1.5157963 0.046311598 0.4063459 15
1.4965415 0.043894131 -0.40116954 0
1.5011334 0.043766607 0.026213516 8
1.4784732 0.042846981 -0.34147573 1
1.5053089 0.043361764 0.078922629 9
1.501267 0.043245334 -0.29193777 2
1.5036379 0.043051716 0.13160518 10
1.4967296 0.04259178 -0.23715468 3
1.4981457 0.042370405 0.18402272 11
1.4961687 0.042053886 -0.18377897 4
1.5026758 0.041973606 0.23809329 12
1.5116341 0.042223837 -0.13230242 5
1.5248613 0.042326979 0.29651719 13
1.5013678 0.041412625 -0.078713283 6
1.5155509 0.04153914 0.35002384 14
1.5152073 0.041265089 -0.026457848 7
1.5313979 0.041438565 0.41048703 15
1.4966856 0.03866956 -0.40116954 0
1.5052751 0.038628604 0.026283324 8
1.4825099 0.0377855 -0.34237552 1
1.5014579 0.038006231 0.078713283 9
1.4896331 0.037706908 -0.28964809 2
1.5077626 0.037902515 0.13195379 10
1.4968692 0.037367273 -0.23715468 3
1.4982845 0.037140958 0.18402272 11
1.4963064 0.036830626 -0.18377897 4
1.4968886 0.036582842 0.23715468 12
1.5117723 0.036946591 -0.13230242 5
1.5210744 0.036909036 0.29575396 13
1.5034999 0.036220036 -0.078817956 6
1.5117902 0.036155038 0.34912404 14
1.5073457 0.035786252 -0.026318228 7
1.5334644 0.036138572 0.41100466 15
1.4794292 0.033056129 -0.39651078 0
1.5093993 0.033462942 0.026353134 8
1.4865292 0.032696359 -0.34327531 1
1.5055691 0.033115145 0.078922629 9
1.4760159 0.032206696 -0.28697675 2
1.4939421 0.032337707 0.13073361 10
1.5029154 0.032268811 -0.23809329 3
1.5023743 0.031994872 0.1845102 11
1.4924511 0.031783547 -0.18329151 4
1.4950268 0.031578079 0.23684181 12
1.4939644 0.031294081 -0.13073361 5
1.5231569 0.031639636 0.29613557 13
1.5016203 0.030930806 -0.078713283 6
1.5080051 0.031062322 0.34822425 14
1.5034575 0.030705437 -0.02624842 7
1.5161928 0.030700814 0.4063459 15
1.4775991 0.028113529 -0.39599317 0
1.4955065 0.028193152 0.0261088 8
1.488578 0.027802652 -0.34372523 1
1.5016769 0.028047305 0.078713283 9
1.4820035 0.027421128 -0.28812161 2
1.4900571 0.027310003 0.13038498 10
1.4911638 0.027069962 -0.23621608 3
1.4985025 0.026941577 0.18402272 11
1.5004873 0.02697726 -0.18426646 4
1.4872229 0.026479144 0.23559032 12
1.4880837 0.026234685 -0.13021068 5
1.5173646 0.026486006 0.29499072 13
1.5097026 0.026088707 -0.079131976 6
1.5139451 0.026162021 0.34957394 14
1.4995524 0.02565152 -0.026178611 7
1.5162863 0.025673071 0.4063459 15
1.4776841 0.023213068 -0.39599317 0
1.4875939 0.023109769 0.025969181 8
1.4750223 0.022656282 -0.3405759 1
1.5057597 0.022865556 0.078922629 9
1.4860123 0.022565683 -0.28888482 2
1.4941238 0.022428755 0.13073361 10
1.48532 0.02203661 -0.23527746 3
1.4926291 0.021884495 0.18329151 11
1.5005723 0.021739734 -0.18426646 4
1.4932319 0.02137202 0.23652895 12
1.4921468 0.021356491 -0.1305593 5
1.5056657 0.021287154 0.29270101 13
1.4938042 0.020859415 -0.078294598 6
1.5140271 0.020876803 0.34957394 14
1.5076307 0.020525439 -0.026318228 7
1.5163666 0.020380408 0.4063459 15
1.4854832 0.018149566 -0.39806372 0
1.4896652 0.017940644 0.026004087 8
1.467298 0.017415853 -0.33877629 1
1.4938476 0.017469522 0.078294598 9
1.4900082 0.017424623 -0.28964809 2
1.494193 0.017212756 0.13073361 10
1.487363 0.016874462 -0.23559032 3
1.4907115 0.016652256 0.18304777 11
1.4887294 0.016370267 -0.18280403 4
1.4952728 0.016181227 0.23684181 12
1.4902201 0.016126551 -0.13038498 5
1.5057307 0.016031586 0.29270101 13
1.481885 0.015519049 -0.077666566 6
1.5062964 0.015511787 0.34777433 14
1.5116923 0.015303503 -0.02638804 7
1.5164286 0.015086771 0.4063459 15
1.4855374 0.012963755 -0.39806372 0
1.4937178 0.012775148 0.026073895 8
1.4692985 0.012309857 -0.33922619 1
1.4899052 0.012221749 0.078085259 9
1.4763178 0.01211029 -0.28697675 2
1.4902593 0.011965265 0.13038498 10
1.4874128 0.011682807 -0.23559032 3
1.4927455 0.011463447 0.18329151 11
1.4808372 0.011114251 -0.18182908 4
1.4854435 0.010889566 0.23527746 12
1.4982367 0.01098335 -0.13108224 5
1.5077407 0.010789155 0.29308262 13
1.4819301 0.010345816 -0.077666566 6
1.4946491 0.010174462 0.34507492 14
1.4917401 0.0098935934 -0.026038991 7
1.5241991 0.0098428521 0.40841648 15
1.4759145 0.0077286242 -0.39547554 0
1.5017521 0.0076011103 0.026213516 8
1.4712814 0.007190105 -0.33967611 1
1.4899387 0.0070219599 0.078085259 9
1.468498 0.0069209114 -0.28545028 2
1.4882996 0.0067537781 0.13021068 10
1.4913954 0.0065075392 -0.23621608 3
1.4907913 0.0062454329 0.18304777 11
1.480867 0.0059447014 -0.18182908 4
1.4795462 0.0056811823 0.23433885 12
1.4823269 0.0056918594 -0.12968774 5
1.5097326 0.0055343257 0.29346424 13
1.487949 0.0051940791 -0.077980585 6
1.4985731 0.0049696276 0.34597474 14
1.487766 0.0046748472 -0.025969181 7
1.5068376 0.0044710757 0.40375772 15
1.4701369 0.0025661646 -0.3939226 0
1.4877715 0.0023365871 0.025969181 8
1.4674 0.0020491977 -0.33877629 1
1.4939486 0.0018255445 0.078294598 9
1.4724396 0.0017992615 -0.28621352 2
1.4803445 0.0015498614 0.12951343 10
1.4775814 0.0012898017 -0.23402599 3
1.4947742 0.0010439379 0.18353525 11
1.4888192 0.00077923667 -0.18280403 4
1.4775817 0.00051618845 0.23402599 12
1.4823377 0.00051784993 -0.12968774 5
1.5058161 0.0002632534 0.29270101 13
1.4899553 -0 -0.078085259 6
1.5024787 -0.000262232 0.34687454 14
1.4877733 -0.0005193309 -0.025969181 7
1.5010484 -0.0007859472 0.40220481 15
1.4662732 -0.0025591319 -0.39288735 0
1.4797719 -0.0028409616 0.025829561 8
1.4596032 -0.00305699 -0.33697668 1
1.4999378 -0.0034032564 0.078608617 9
1.4744003 -0.0033453137 -0.28659514 2
1.4843259 -0.0036268998 0.12986206 10
1.4677 -0.0038424379 -0.23246165 3
1.4888136 -0.0041575623 0.18280403 11
1.4888128 -0.0044174097 -0.18280403 4
1.4914021 -0.0046853935 0.23621608 12
1.4783458 -0.0046443753 -0.12933911 5
1.4861755 -0.0049283626 0.28888482 13
1.4819572 -0.0051730275 -0.077666566 6
1.5063661 -0.0055211452 0.34777433 14
1.4957612 -0.0057433387 -0.0261088 7
1.5049003 -0.0060410891 0.40324008 15
1.4681872 -0.0076874802 -0.39340496 0
1.473754 -0.0079738544 0.025724847 8
1.4556862 -0.0081301704 -0.33607689 1
1.485936 -0.0085584717 0.077875912 9
1.4743797 -0.008491911 -0.28659514 2
1.4882888 -0.0088317869 0.13021068 10
1.4795295 -0.0090380441 -0.23433885 3
1.4808497 -0.0093045747 0.18182908 11
1.478863 -0.0095502138 -0.18158534 4
1.4854507 -0.0098520275 0.23527746 12
1.4842976 -0.0098443795 -0.12986206 5
1.494002 -0.010169506 0.29041129 13
1.4739413 -0.010290218 -0.07724788 6
1.4946455 -0.010695642 0.34507492 14
1.4917328 -0.010935169 -0.026038991 7
1.5029384 -0.011279637 0.40272245 15
1.4778103 -0.012896654 -0.39599317 0
1.4797159 -0.013171565 0.025829561 8
1.4634436 -0.013282157 -0.3378765 1
1.4679226 -0.013579029 0.076933861 9
1.4566724 -0.01347496 -0.28316057 2
1.482272 -0.013970497 0.12968774 10
1.4696126 -0.014107702 -0.23277451 3
1.4808083 -0.01447365 0.18182908 11
1.4629407 -0.014554365 -0.17963544 4
1.4715804 -0.014897184 0.23308739 12
1.4842542 -0.015025483 -0.12986206 5
1.4978837 -0.015424916 0.29117453 13
1.4699022 -0.01539334 -0.077038541 6
1.4868045 -0.015829876 0.34327531 14
1.4796879 -0.016012389 -0.025829561 7
1.5106168 -0.016610768 0.40479302 15
1.4623027 -0.017866286 -0.39185205 0
1.479661 -0.018336656 0.025829561 8
1.4614398 -0.018365961 -0.3374266 1
1.4718605 -0.018753847 0.077143207 9
1.4526904 -0.018509587 -0.28239733 2
1.4742453 -0.019041579 0.12899049 10
1.4833809 -0.019418521 -0.23496459 3
1.4827336 -0.019668875 0.18207282 11
1.4688356 -0.019740922 -0.18036664 4
1.467569 -0.019980084 0.23246165 12
1.4722394 -0.020043669 -0.12881619 5
1.4899685 -0.020545138 0.28964809 13
1.4818218 -0.020691479 -0.077666566 6
1.4828432 -0.020964596 0.34237552 14
1.4756241 -0.021120131 -0.025759753 7
1.4989597 -0.021715797 0.40168718 15
1.4564364 -0.02287953 -0.39029911 0
1.4715904 -0.023374494 0.025689943 8
1.4613668 -0.023467226 -0.3374266 1
1.477777 -0.023988737 0.077457219 9
1.4604689 -0.023707774 -0.2839238 2
1.460225 -0.023958741 0.12777032 10
1.4635531 -0.024268853 -0.23183592 3
1.4826559 -0.02484446 0.18207282 11
1.4687577 -0.024867995 -0.18036664 4
1.4694654 -0.025136517 0.23277451 12
1.464192 -0.025046313 -0.12811893 5
1.4859618 -0.02567813 0.28888482 13
1.4817406 -0.025863877 -0.077666566 6
1.4866577 -0.026209259 0.34327531 14
1.4815397 -0.026377685 -0.025864467 7
1.4950116 -0.026878556 0.4006519 15
1.4660052 -0.028148741 -0.39288735 0
1.4595038 -0.028278729 0.025480513 8
1.4554309 -0.028453933 -0.33607689 1
1.4776894 -0.02888909 0.077457219 9
1.464303 -0.028883051 -0.28468704 2
1.4641163 -0.029135007 0.12811893 10
1.4555595 -0.029218877 -0.23058443 3
1.476606 -0.029899182 0.18134159 11
1.4766008 -0.030156899 -0.18134159 4
1.4693739 -0.030009303 0.23277451 12
1.4680797 -0.030239204 -0.12846756 5
1.4740862 -0.030620312 0.28659514 13
1.461673 -0.030617682 -0.076619849 6
1.4904538 -0.031480804 0.34417513 14
1.4914403 -0.031501636 -0.026038991 7
1.4910514 -0.031753782 0.3996166 15
1.4639666 -0.033222049 -0.39236969 0
1.4634005 -0.033209201 0.025550324 8
1.4475355 -0.03310195 -0.33427727 1
1.4636024 -0.033724945 0.076724522 9
1.466156 -0.034039814 -0.28506866 2
1.473965 -0.034478508 0.12899049 10
1.463354 -0.034230299 -0.23183592 3
1.4725296 -0.034702089 0.18085413 11
1.4586319 -0.034629289 -0.17914794 4
1.4771595 -0.03532711 0.23402599 12
1.4679651 -0.035363577 -0.12846756 5
1.4779018 -0.035602953 0.28735834 13
1.4575701 -0.035367697 -0.076410502 6
1.486445 -0.036327932 0.34327531 14
1.4833248 -0.036510717 -0.025899371 7
1.4909315 -0.036958329 0.3996166 15
1.4638484 -0.038076553 -0.39236969 0
1.4712716 -0.038526606 0.025689943 8
1.4474112 -0.038154591 -0.33427727 1
1.4554896 -0.03862175 0.076305829 9
1.4503345 -0.038484957 -0.28201571 2
1.477826 -0.039472561 0.12933911 10
1.4632256 -0.039338153 -0.23183592 3
1.4723996 -0.039841961 0.18085413 11
1.4604867 -0.039774694 -0.1793917 4
1.467154 -0.040212534 0.23246165 12
1.4758065 -0.040449683 -0.12916481 5
1.4895436 -0.041086368 0.28964809 13
1.4614308 -0.040566191 -0.076619849 6
1.4746212 -0.041189898 0.3405759 14
1.471195 -0.041351173 -0.025689943 7
1.4946555 -0.042271655 0.4006519 15
1.4501896 -0.042787295 -0.38874623 0
1.4711282 -0.043662064 0.025689943 8
1.4511651 -0.04332307 -0.33517709 1
1.4573421 -0.043762065 0.076410502 9
1.4423418 -0.043311622 -0.28048924 2
1.4597559 -0.044089556 0.12777032 10
1.4630793 -0.044445526 -0.23183592 3
1.4722515 -0.044981353 0.18085413 11
1.4563705 -0.044750564 -0.17890421 4
1.4531838 -0.044906516 0.23027156 12
1.4577334 -0.045047108 -0.12759601 5
1.4893911 -0.046285599 0.28964809 13
1.4612802 -0.045667291 -0.076619849 6
1.4705729 -0.046214614 0.33967611 14
1.4590493 -0.046107378 -0.025480513 7
1.477121 -0.046936523 0.39599317 15
1.4461697 -0.04772171 -0.38771093 0
1.4589752 -0.048399195 0.025480513 8
1.4549003 -0.048518218 -0.33607689 1
1.4551845 -0.048781961 0.076305829 9
1.4461062 -0.048477631 -0.28125247 2
1.4556105 -0.049050577 0.12742169 10
1.4589667 -0.049418606 -0.23121016 3
1.4760534 -0.050255287 0.18134159 11
1.4581892 -0.049901862 -0.17914794 4
1.4549923 -0.050046701 0.23058443 12
1.4595584 -0.050203759 -0.12777032 5
1.4735237 -0.050941605 0.28659514 13
1.4671 -0.050975896 -0.076933861 6
1.482088 -0.051755648 0.34237552 14
1.4548826 -0.051059861 -0.025410704 7
1.4750175 -0.052024264 0.39547554 15
1.4498556 -0.052910402 -0.38874623 0
1.4428105 -0.052905455 0.025201276 8
1.4430375 -0.053165983 -0.33337748 1
1.4629889 -0.054156736 0.076724522 9
1.4459282 -0.053525183 -0.28125247 2
1.4534394 -0.054057255 0.12724738 10
1.4489154 -0.054142233 -0.22964582 3
1.4659505 -0.055035006 0.1801229 11
1.4679245 -0.055365682 -0.18036664 4
1.4567826 -0.055200059 0.23089729 12
1.4573834 -0.05522282 -0.12759601 5
1.4694133 -0.055935491 0.28583187 13
1.4469552 -0.055333503 -0.075887144 6
1.4741091 -0.056629557 0.3405759 14
1.4666848 -0.056600716 -0.025620133 7
1.4728966 -0.057097882 0.39495787 15
1.4477316 -0.057893828 -0.3882286 0
1.4526075 -0.058342747 0.0253758 8
1.4331074 -0.057810061 -0.33112797 1
1.456804 -0.059020638 0.076410502 9
1.4575024 -0.059048932 -0.28354219 2
1.4631956 -0.05953538 0.12811893 10
1.4506912 -0.059280217 -0.22995868 3
1.453849 -0.059663422 0.17866047 11
1.4518552 -0.059835423 -0.17841674 4
1.4625022 -0.06052991 0.23183592 12
1.4531897 -0.060398549 -0.12724738 5
1.4692091 -0.061064359 0.28583187 13
1.4467533 -0.060383976 -0.075887144 6
1.4622203 -0.061285179 0.3378765 14
1.4704742 -0.061888225 -0.025689943 7
1.4823388 -0.062646747 0.39754605 15
1.4571599 -0.06362097 -0.39081678 0
1.4543928 -0.063500158 0.025410704 8
1.4406842 -0.063153557 -0.33292755 1
1.4426218 -0.063490771 0.075677805 9
1.4415854 -0.063697249 -0.28048924 2
1.4569963 -0.064632982 0.12759601 10
1.4504642 -0.064596862 -0.22995868 3
1.4595814 -0.065002896 0.1793917 11
1.4456881 -0.064636983 -0.17768551 4
1.4524151 -0.065191753 0.23027156 12
1.4609315 -0.065829508 -0.12794463 5
1.4689753 -0.066448867 0.28583187 13
1.4465222 -0.065686189 -0.075887144 6
1.4580923 -0.066466592 0.33697668 14
1.4542682 -0.066292271 -0.025410704 7
1.4821111 -0.067820698 0.39754605 15
1.4414911 -0.067979001 -0.38667569 0
1.4601425 -0.069113992 0.025515417 8
1.4384965 -0.068341032 -0.33247766 1
1.4423915 -0.068526074 0.075677805 9
1.4335102 -0.068354897 -0.27896276 2
1.4567618 -0.06971845 0.12759601 10
1.4581224 -0.070038639 -0.23121016 3
1.4593333 -0.0703521 0.1793917 11
1.4513899 -0.070223063 -0.17841674 4
1.4403402 -0.069688439 0.22839434 12
1.4447725 -0.070155643 -0.12655014 5
1.4726564 -0.071767271 0.28659514 13
1.4462841 -0.070735089 -0.075887144 6
1.4578514 -0.071555883 0.33697668 14
1.4460387 -0.070976079 -0.025271084 7
1.4644998 -0.072138421 0.39288735 15
1.4335276 -0.072619379 -0.38460511 0
1.439934 -0.072943911 0.02516637 8
1.4460469 -0.073506601 -0.33427727 1
1.4521168 -0.074069254 0.076201163 9
1.4371842 -0.073559068 -0.279726 2
1.4445709 -0.074189924 0.12655014 10
1.4381542 -0.073860377 -0.22808148 3
1.4650391 -0.075497508 0.1801229 11
1.447184 -0.074830636 -0.17792925 4
1.4499518 -0.075227492 0.22995868 12
1.4465085 -0.075301997 -0.12672445 5
1.4645679 -0.076242127 0.28506866 13
1.4540197 -0.075947478 -0.076305829 6
1.4653903 -0.076797858 0.33877629 14
1.4457822 -0.076023258 -0.025271084 7
1.4584515 -0.076944709 0.39133441 15
1.4390661 -0.077685133 -0.38615805 0
1.4396706 -0.077969767 0.02516637 8
1.4360522 -0.078025177 -0.33202776 1
1.4538575 -0.078992598 0.076305829 9
1.4408531 -0.078538246 -0.28048924 2
1.444317 -0.078979887 0.12655014 10
1.433943 -0.078663632 -0.22745575 3
1.4449458 -0.079520181 0.17768551 11
1.4588066 -0.080538362 -0.1793917 4
1.4516668 -0.080144189 0.23027156 12
1.4462508 -0.080098376 -0.12672445 5
1.4486109 -0.080482692 0.28201571 13
1.4417809 -0.080355637 -0.075677805 6
1.4612219 -0.08169499 0.3378765 14
1.4535084 -0.081263736 -0.025410704 7
1.4678326 -0.082321569 0.3939226 15
1.4368576 -0.082597069 -0.38564041 0
1.4414006 -0.082858227 0.025201276 8
1.4202214 -0.081889451 -0.32842854 1
1.4396155 -0.083259806 0.075573131 9
1.4405701 -0.083567284 -0.28048924 2
1.4480106 -0.084252477 0.12689877 10
1.4336742 -0.083418317 -0.22745575 3
1.446656 -0.084427007 0.17792925 11
1.4406961 -0.084331498 -0.17719805 4
1.4494061 -0.085095182 0.22995868 12
1.4479514 -0.085263364 -0.12689877 5
1.4600953 -0.085978463 0.28430542 13
1.4375188 -0.084900804 -0.075468451 6
1.4492712 -0.085848726 0.33517709 14
1.453216 -0.086336933 -0.025410704 7
1.4675362 -0.087444752 0.3939226 15
1.4442735 -0.08808253 -0.38771093 0
1.4370952 -0.087896511 0.025131466 8
1.425747 -0.087452203 -0.32977825 1
1.4333202 -0.088167816 0.075259112 9
1.4285123 -0.087872073 -0.27819952 2
1.4477077 -0.089306466 0.12689877 10
1.437302 -0.088916376 -0.22808148 3
1.4384116 -0.089237034 0.1769543 11
1.4344335 -0.089241564 -0.17646682 4
1.4372551 -0.08966893 0.22808148 12
1.4396907 -0.089820884 -0.12620151 5
1.4597704 -0.091329403 0.28430542 13
1.4332114 -0.089918882 -0.075259112 6
1.4489467 -0.091159992 0.33517709 14
1.4449068 -0.091159016 -0.025271084 7
1.4691337 -0.09294492 0.39444023 15
1.4323901 -0.092377469 -0.38460511 0
1.4427664 -0.093299508 0.02523618 8
1.4254332 -0.092428453 -0.32977825 1
1.4409759 -0.093688846 0.075677805 9
1.4262379 -0.092730619 -0.2778179 2
1.4434108 -0.094100133 0.12655014 10
1.4369829 -0.093932956 -0.22808148 3
1.4460148 -0.094776824 0.17792925 11
1.436094 -0.0943783 -0.17671056 4
1.4329914 -0.094425589 0.22745575 12
1.4353925 -0.094583809 -0.1258529 5
1.4594427 -0.096424401 0.28430542 13
1.4328887 -0.094921179 -0.075259112 6
1.4486197 -0.096217223 0.33517709 14
1.4326082 -0.095404878 -0.025061656 7
1.4514524 -0.096914254 0.3897815 15
1.4204946 -0.096590526 -0.38149929 0
1.4404368 -0.098199129 0.025201276 8
1.4251018 -0.097403571 -0.32977825 1
1.4386475 -0.098581672 0.075573131 9
1.4259055 -0.097708538 -0.2778179 2
1.4311472 -0.098318689 0.12550427 10
1.430734 -0.098541193 -0.22714287 3
1.4535966 -0.10037075 0.17890421 11
1.4377363 -0.099527717 -0.1769543 4
1.4365941 -0.0997006 0.22808148 12
1.427103 -0.099041909 -0.12515564 5
1.4473461 -0.10070062 0.28201571 13
1.4365335 -0.10020026 -0.075468451 6
1.4482751 -0.10127325 0.33517709 14
1.4382508 -0.10082453 -0.02516637 7
1.4472512 -0.10170933 0.38874623 15
1.4220757 -0.10168617 -0.38201693 0
1.4281178 -0.10236875 0.024991846 8
1.4228095 -0.10223786 -0.32932836 1
1.4363024 -0.1034594 0.075468451 9
1.4294721 -0.10296739 -0.27858114 2
1.4427186 -0.10417467 0.12655014 10
1.4244708 -0.10310696 -0.22620426 3
1.4373982 -0.10429487 0.1769543 11
1.4452995 -0.10512175 -0.17792925 4
1.4342673 -0.104571 0.22776861 12
1.4307228 -0.10431258 -0.12550427 5
1.4430696 -0.10546597 0.28125247 13
1.4321913 -0.10492224 -0.075259112 6
1.4556866 -0.10689893 0.33697668 14
1.443873 -0.10628477 -0.025271084 7
1.4565202 -0.10747134 0.39133441 15
1.4274913 -0.10708307 -0.38356987 0
1.4317399 -0.10765307 0.025061656 8
1.4127278 -0.1064715 -0.32707885 1
1.4359325 -0.10847238 0.075468451 9
1.4330194 -0.10825232 -0.27934438 2
1.436386 -0.10875879 0.12602721 10
1.4280416 -0.10837763 -0.22683001 3
1.4271286 -0.10855886 0.17573561 11
1.4310684 -0.10910977 -0.17622308 4
1.4437417 -0.11032948 0.22933295 12
1.4343232 -0.10960973 -0.1258529 5
1.4505229 -0.11110234 0.28277895 13
1.4238507 -0.10930935 -0.074840426 6
1.4436466 -0.11108256 0.33427727 14
1.4414995 -0.11117043 -0.02523618 7
1.4522841 -0.11225713 0.39029911 15
1.4309607 -0.11236775 -0.38460511 0
1.4353423 -0.1129639 0.025131466 8
1.4181755 -0.11186188 -0.32842854 1
1.427581 -0.11285447 0.075049765 9
1.4169755 -0.11201609 -0.27629143 2
1.4359977 -0.11377203 0.12602721 10
1.4276545 -0.11336176 -0.22683001 3
1.4306986 -0.11385476 0.17622308 11
1.4247423 -0.113631 -0.17549187 4
1.4374405 -0.11489622 0.22839434 12
1.437904 -0.11493327 -0.12620151 5
1.4540402 -0.11647847 0.28354219 13
1.4194787 -0.11395919 -0.07463108 6
1.4354802 -0.115496 0.33247766 14
1.4311365 -0.11539792 -0.025061656 7
1.4595857 -0.11794827 0.39236969 15
1.4190074 -0.11641432 -0.38149929 0
1.4369323 -0.11813734 0.02516637 8
1.4236029 -0.11729161 -0.32977825 1
1.4271989 -0.11758789 0.075049765 9
1.4165759 -0.11696156 -0.27629143 2
1.4256638 -0.11796245 0.12515564 10
1.4213443 -0.11785482 -0.2258914 3
1.4322708 -0.11901252 0.17646682 11
1.4263152 -0.11876831 -0.17573561 4
1.4252402 -0.11867879 0.22651713 12
1.4255811 -0.11895773 -0.12515564 5
1.4497118 -0.12122611 0.28277895 13
1.4190723 -0.11891341 -0.07463108 6
1.4389522 -0.12083218 0.33337748 14
1.4267606 -0.11980842 -0.024991846 7
1.4437861 -0.12149188 0.3882286 15
1.4089684 -0.12054349 -0.37891111 0
1.4225858 -0.12170851 0.024922037 8
1.4232061 -0.1220118 -0.32977825 1
1.4267797 -0.12256901 0.075049765 9
1.416159 -0.12190563 -0.27629143 2
1.4232583 -0.12276699 0.12498133 10
1.4189776 -0.12239776 -0.22557852 3
1.4397792 -0.12444522 0.17744178 11
1.4278913 -0.12366879 -0.17597936 4
1.4267852 -0.12382389 0.22683001 12
1.4192024 -0.12341537 -0.12463271 5
1.4414784 -0.12535252 0.28125247 13
1.4306084 -0.12465884 -0.075259112 6
1.4424263 -0.12594226 0.33427727 14
1.4263337 -0.12478802 -0.024991846 7
1.4433533 -0.12653089 0.3882286 15
1.4201065 -0.12624148 -0.38201693 0
1.4201604 -0.12649611 0.024887133 8
1.4150075 -0.12628604 -0.32797864 1
1.4343005 -0.12826023 0.075468451 9
1.4235688 -0.12730056 -0.2778179 2
1.4287966 -0.12801944 0.12550427 10
1.4146068 -0.12699692 -0.22495279 3
1.4215419 -0.12786962 0.17524813 11
1.4274509 -0.1286523 -0.17597936 4
1.4322464 -0.12933652 0.22776861 12
1.4227315 -0.12872764 -0.12498133 5
1.433211 -0.12967581 0.279726 13
1.4162407 -0.12838955 -0.074526407 6
1.4419779 -0.13097651 0.33427727 14
1.4298724 -0.13012856 -0.025061656 7
1.4409789 -0.13139294 0.38771093 15
1.4138634 -0.13091125 -0.38046399 0
1.4157279 -0.13108389 0.024817321 8
1.4067963 -0.13050455 -0.32617903 1
1.421912 -0.13215709 0.074840426 9
1.4230926 -0.13251735 -0.2778179 2
1.4263341 -0.13307032 0.12532996 10
1.4082314 -0.13162933 -0.22401418 3
1.4131811 -0.13209198 0.17427318 11
1.4190874 -0.13289391 -0.17500439 4
1.4278526 -0.13396613 0.22714287 12
1.4262409 -0.13406603 -0.12532996 5
1.4444536 -0.13603237 0.28201571 13
1.4078069 -0.13282904 -0.074107721 6
1.4356678 -0.13571057 0.33292755 14
1.4373727 -0.13587172 -0.025201276 7
1.4405115 -0.13642208 0.38771093 15
1.4172437 -0.1362154 -0.38149929 0
1.4231999 -0.13703856 0.024956942 8
1.4063085 -0.13565984 -0.32617903 1
1.4094901 -0.13621505 0.074212395 9
1.4108965 -0.13635096 -0.27552822 2
1.4199115 -0.13747232 0.12480702 10
1.4136618 -0.1371163 -0.22495279 3
1.4146632 -0.13746265 0.17451692 11
1.416615 -0.13790189 -0.17476064 4
1.4017935 -0.13670605 0.22307558 12
1.4257642 -0.13904373 -0.12532996 5
1.4439701 -0.14107363 0.28201571 13
1.4113103 -0.1381315 -0.074317068 6
1.4313065 -0.14034083 0.33202776 14
1.4229341 -0.13977064 -0.024956942 7
1.4496146 -0.14264685 0.39029911 15
1.4033033 -0.13982093 -0.3778758 0
1.4266924 -0.14240283 0.02502675 8
1.4097047 -0.14095573 -0.32707885 1
1.4209299 -0.14232861 0.074840426 9
1.410412 -0.14127506 -0.27552822 2
1.4154582 -0.14203008 0.1244584 10
1.4210365 -0.14284031 -0.22620426 3
1.4220752 -0.14319544 0.17549187 11
1.4161249 -0.14284596 -0.17476064 4
1.3993424 -0.1413998 0.2227627 12
1.4074295 -0.14221698 -0.12376115 5
1.4317491 -0.14492685 0.279726 13
1.4147936 -0.14346002 -0.074526407 6
1.4308079 -0.14533617 0.33202776 14
1.4085115 -0.14331976 -0.024712607 7
1.4337327 -0.14613891 0.38615805 15
1.4047283 -0.14491676 -0.37839344 0
1.4162412 -0.14635429 0.024852226 8
1.4092041 -0.14587566 -0.32707885 1
1.422411 -0.14749371 0.074945092 9
1.4060047 -0.14579248 -0.27476496 2
1.4070269 -0.1461467 0.12376115 10
1.4087405 -0.14657323 -0.22432704 3
1.4255155 -0.14857009 0.17597936 11
1.4175922 -0.14799441 -0.17500439 4
1.4086636 -0.14731082 0.22432704 12
1.4089061 -0.14733617 -0.12393546 5
1.4273294 -0.14951465 0.27896276 13
1.4222296 -0.14923139 -0.074945092 6
1.4302919 -0.15032974 0.33202776 14
1.4119802 -0.14865425 -0.024782417 7
1.4293715 -0.15073748 0.38512275 15
1.400372 -0.1494094 -0.37735817 0
1.4097567 -0.15065952 0.024747513 8
1.4009356 -0.14996412 -0.32527924 1
1.4199016 -0.15224501 0.074840426 9
1.4093913 -0.15111807 -0.27552822 2
1.4164132 -0.15212104 0.12463271 10
1.4003642 -0.15064463 -0.22307558 3
1.4091989 -0.15184385 0.17402944 11
1.421014 -0.15336783 -0.17549187 4
1.4081408 -0.15222707 0.22432704 12
1.4103639 -0.15246741 -0.12410977 5
1.4228951 -0.15407334 0.27819952 13
1.4018439 -0.15204145 -0.073898375 6
1.433633 -0.15574238 0.33292755 14
1.4154285 -0.15401471 -0.024852226 7
1.4288366 -0.15572599 0.38512275 15
1.4036824 -0.15471999 -0.37839344 0
1.4131973 -0.15601842 0.024817321 8
1.3965297 -0.15442502 -0.32437941 1
1.409463 -0.15585516 0.074317068 9
1.4088552 -0.15603685 -0.27552822 2
1.4158735 -0.15706432 0.12463271 10
1.4037564 -0.15596816 -0.22370131 3
1.4007686 -0.15588371 0.17305449 11
1.4086329 -0.15700778 -0.17402944 4
1.3978122 -0.1558017 0.2227627 12
1.4118034 -0.15761065 -0.12428409 5
1.4262508 -0.15947555 0.27896276 13
1.4013047 -0.15693384 -0.073898375 6
1.4214611 -0.15944241 0.33022815 14
1.4188846 -0.1591534 -0.024922037 7
1.4359914 -0.16132602 0.38719329 15
1.4127312 -0.16071062 -0.38098165 0
1.414659 -0.16092992 0.024852226 8
1.3960099 -0.15905523 -0.32437941 1
1.4029573 -0.16009483 0.074003048 9
1.4004997 -0.16006202 -0.27400175 2
1.4172961 -0.16223225 0.12480702 10
1.405194 -0.16084698 -0.22401418 3
1.4022161 -0.16075407 0.17329822 11
1.4041601 -0.16122523 -0.17354195 4
1.3952973 -0.16045435 0.22244984 12
1.413224 -0.16276574 -0.1244584 5
1.4257141 -0.16420428 0.27896276 13
1.3928401 -0.16066441 -0.07347969 6
1.4131811 -0.16326068 0.32842854 14
1.4103745 -0.16318591 -0.024782417 7
1.4354196 -0.16633758 0.38719329 15
1.3987594 -0.16382147 -0.37735817 0
1.4140886 -0.16586703 0.024852226 8
1.3954462 -0.16392724 -0.32437941 1
1.4043735 -0.16522448 0.074107721 9
1.3941119 -0.16401719 -0.27285689 2
1.4088354 -0.1659987 0.12410977 10
1.4065857 -0.16598254 -0.22432704 3
1.4115033 -0.16681263 0.17451692 11
1.4075315 -0.16659234 -0.17402944 4
1.3868823 -0.16439377 0.22119835 12
1.3988266 -0.16580959 -0.12323821 5
1.4290314 -0.16964284 0.279726 13
1.4041705 -0.16694011 -0.074107721 6
1.4126025 -0.16819263 0.32842854 14
1.405825 -0.16763449 -0.024712607 7
1.4175662 -0.16928546 0.38253456 15
1.3885893 -0.16754596 -0.37476999 0
1.4075454 -0.17008245 0.024747513 8
1.402604 -0.16973373 -0.32617903 1
1.405771 -0.17036594 0.074212395 9
1.3935307 -0.16888253 -0.27285689 2
1.4023139 -0.17019531 0.12358684 10
1.3922712 -0.16922304 -0.22213697 3
1.4187945 -0.17269811 0.17549187 11
1.4069414 -0.17150451 -0.17402944 4
1.3902216 -0.16971263 0.22182411 12
1.3923062 -0.16996711 -0.12271529 5
1.4167382 -0.17320062 0.27743632 13
1.4075443 -0.172326 -0.074317068 6
1.4158756 -0.17359681 0.32932836 14
1.4052314 -0.17254071 -0.024712607 7
1.4169667 -0.17423266 0.38253456 15
1.3937473 -0.17310637 -0.37632293 0
1.3890834 -0.17277327 0.024433369 8
1.3942677 -0.17366523 -0.32437941 1
1.4091315 -0.17576636 0.074421734 9
1.396829 -0.17423183 -0.2736201 2
1.4036882 -0.17533621 0.12376115 10
1.3877517 -0.17359154 -0.22151121 3
1.4043953 -0.17592242 0.1737857 11
1.4043646 -0.17616753 -0.1737857 4
1.3955007 -0.17530301 0.2227627 12
1.397635 -0.17557113 -0.12323821 5
1.4122289 -0.17765483 0.27667305 13
1.3950447 -0.17574041 -0.073689036 6
1.4229945 -0.17951371 0.33112797 14
1.4085884 -0.17794608 -0.024782417 7
1.4220996 -0.17990512 0.38408747 15
1.3912182 -0.17772558 -0.37580526 0
1.3983896 -0.17888978 0.024607893 8
1.3820554 -0.17704538 -0.32168001 1
1.3926612 -0.17865106 0.073584363 9
1.3962122 -0.17910661 -0.2736201 2
1.4030676 -0.18023494 0.12376115 10
1.3890966 -0.17868669 -0.22182411 3
1.399835 -0.18031637 0.17329822 11
1.3978348 -0.18030675 -0.17305449 4
1.3987985 -0.18067926 0.22338845 12
1.3950377 -0.18019348 -0.12306391 5
1.4193884 -0.18359068 0.27819952 13
1.3864999 -0.17958276 -0.073270351 6
1.4107639 -0.18297587 0.32842854 14
1.4079586 -0.18286188 -0.024782417 7
1.4252944 -0.18536638 0.38512275 15
1.3982511 -0.18358672 -0.3778758 0
1.3957739 -0.18350931 0.024572989 8
1.3872253 -0.18263167 -0.32302973 1
1.3959894 -0.18403335 0.073793709 9
1.3839002 -0.18243963 -0.27133042 2
1.4063803 -0.18565294 0.12410977 10
1.3884645 -0.18353446 -0.22182411 3
1.3932931 -0.18442018 0.172567 11
1.3952289 -0.18492417 -0.17281075 4
1.3864099 -0.18400154 0.22151121 12
1.4023004 -0.1861105 -0.12376115 5
1.4148468 -0.18802691 0.27743632 13
1.389824 -0.18494837 -0.07347969 6
1.4023899 -0.18686965 0.32662892 14
1.3993832 -0.18671758 -0.024642797 7
1.4265535 -0.19059628 0.38564041 15
1.3861146 -0.18691735 -0.37476999 0
1.4109784 -0.190521 0.024852226 8
1.3885105 -0.18773398 -0.32347962 1
1.3913801 -0.18836926 0.073584363 9
1.3793639 -0.18674247 -0.27056718 2
1.3958522 -0.18922278 0.12323821 10
1.3917301 -0.18891138 -0.22244984 3
1.400509 -0.19035193 0.17354195 11
1.3985088 -0.19032867 -0.17329822 4
1.3759727 -0.18750627 0.21994688 12
1.3878231 -0.18912114 -0.12254097 5
1.4141817 -0.19296451 0.27743632 13
1.3970854 -0.19088009 -0.073898375 6
1.4133137 -0.19334859 0.32932836 14
1.3907982 -0.19051565 -0.024503179 7
1.3758856 -0.19043039 -0.3721818 0
1.3904971 -0.19270006 0.024503179 8
1.3878466 -0.19257963 -0.32347962 1
1.398627 -0.19432436 0.074003048 9
1.3825928 -0.19209658 -0.27133042 2
1.3833429 -0.19244687 0.12219235 10
1.3832364 -0.19267817 -0.22119835 3
1.3998359 -0.19523947 0.17354195 11
1.397836 -0.19520923 -0.17329822 4
1.3772662 -0.19258173 0.22025976 12
1.3871545 -0.19396439 -0.12254097 5
1.4057225 -0.19681087 0.27590984 13
1.3964107 -0.19575569 -0.073898375 6
1.4049109 -0.19719729 0.32752874 14
1.3980455 -0.19648251 -0.024642797 7
1.3828633 -0.19631813 -0.37425235 0
1.3838768 -0.19670843 0.024398465 8
1.3794488 -0.1963246 -0.32168001 1
1.4038721 -0.20005055 0.074317068 9
1.3858011 -0.19747545 -0.27209365 2
1.3905524 -0.19840014 0.12288959 10
1.3747332 -0.19638795 -0.21994688 3
1.3952157 -0.19956248 0.17305449 11
1.4010762 -0.20065024 -0.1737857 4
1.3863624 -0.19879 0.22182411 12
1.3943579 -0.19993648 -0.12323821 5
1.4011401 -0.20115854 0.27514657 13
1.3917651 -0.2000605 -0.073689036 6
1.4119294 -0.20321059 0.32932836 14
1.3933928 -0.20079097 -0.024572989 7
1.3821695 -0.20114402 -0.37425235 0
1.3831817 -0.20153785 0.024398465 8
1.3710418 -0.20001334 -0.3198804 1
1.3853786 -0.20235182 0.073375016 9
1.387046 -0.20259535 -0.27247527 2
1.397737 -0.20440607 0.12358684 10
1.3818575 -0.20233019 -0.22119835 3
1.3807619 -0.20241594 0.1713483 11
1.3866187 -0.20352174 -0.17207953 4
1.3817514 -0.2030537 0.22119835 12
1.3936516 -0.20480248 -0.12323821 5
1.4043142 -0.20661978 0.27590984 13
1.3851304 -0.20404424 -0.073375016 6
1.3996441 -0.20643184 0.32662892 14
1.4045529 -0.20740633 -0.024782417 7
1.3833697 -0.20625231 -0.37476999 0
1.3903807 -0.20754571 0.024538083 8
1.37419 -0.20537405 -0.32078022 1
1.3886144 -0.20777757 0.073584363 9
1.366914 -0.20453057 -0.26865909 2
1.3911039 -0.2083983 0.12306391 10
1.3811427 -0.20715255 -0.22119835 3
1.3878993 -0.20841362 0.17232326 11
1.3800107 -0.20747533 -0.1713483 4
1.375174 -0.20699359 0.22025976 12
1.3889878 -0.20907286 -0.12288959 5
1.4113498 -0.21269074 0.27743632 13
1.3824348 -0.20858003 -0.073270351 6
1.3989149 -0.21131627 0.32662892 14
1.391957 -0.21051371 -0.024572989 7
1.3788218 -0.21049681 -0.37373474 0
1.3955781 -0.21330418 0.024642797 8
1.3811698 -0.21134867 -0.3225798 1
1.3839322 -0.21201858 0.073375016 9
1.3700728 -0.20989533 -0.26942232 2
1.3864292 -0.21264878 0.12271529 10
1.3843162 -0.21257201 -0.22182411 3
1.3891253 -0.21355866 0.172567 11
1.3832022 -0.21289518 -0.1718358 4
1.3705384 -0.21119091 0.21963401 12
1.3744653 -0.21179603 -0.12166941 5
1.406718 -0.21701728 0.27667305 13
1.385646 -0.21401407 -0.07347969 6
1.3943172 -0.21560253 0.32572913 14
1.3793567 -0.21353573 -0.024363559 7
1.3869224 -0.21693823 0.024503179 8
1.3804237 -0.21616857 -0.3225798 1
1.3831837 -0.21684811 0.073375016 9
1.3712715 -0.21498056 -0.26980394 2
1.375837 -0.21594238 0.12184373 10
1.3718572 -0.21556306 -0.21994688 3
1.3922935 -0.21902329 0.17305449 11
1.3883333 -0.21864863 -0.172567 4
1.3658903 -0.21535839 0.21900828 12
1.3737177 -0.21659254 -0.12166941 5
1.3981949 -0.22070193 0.27514657 13
1.3868632 -0.21916132 -0.073584363 6
1.3974056 -0.22107731 0.32662892 14
1.3825532 -0.21897492 -0.024433369 7
1.3762838 -0.22019857 0.024328655 8
1.3681154 -0.21913657 -0.3198804 1
1.3863624 -0.22230746 0.073584363 9
1.3685741 -0.21945505 -0.26942232 2
1.3790091 -0.22137523 0.12219235 10
1.3671957 -0.21972357 -0.21932115 3
1.381721 -0.22230531 0.1718358 11
1.3934412 -0.22444049 -0.17329822 4
1.3690306 -0.22075385 0.21963401 12
1.3729533 -0.22138637 -0.12166941 5
1.3896633 -0.22432971 0.2736201 13
1.3782032 -0.22272652 -0.073165677 6
1.4004729 -0.2265763 0.32752874 14
1.3857282 -0.22443901 -0.024503179 7
1.3794537 -0.225647 0.024398465 8
1.3634961 -0.22328104 -0.3189806 1
1.3776942 -0.22585298 0.073165677 9
1.3677998 -0.22423093 -0.26942232 2
1.3860923 -0.22747816 0.12288959 10
1.3664204 -0.22449464 -0.21932115 3
1.361349 -0.22390543 0.16939841 11
1.373062 -0.22607805 -0.17086083 4
1.374099 -0.22649513 0.22057262 12
1.376104 -0.22682561 -0.12201804 5
1.3888718 -0.22917916 0.2736201 13
1.3734761 -0.22688498 -0.072956331 6
1.3958281 -0.23082757 0.32662892 14
1.3849363 -0.22927473 -0.024503179 7
1.3747129 -0.2298014 0.024328655 8
1.3588642 -0.22739588 -0.31808078 1
1.3611389 -0.22802079 0.072328299 9
1.3592637 -0.22770663 -0.26789585 2
1.383325 -0.23198561 0.12271529 10
1.373421 -0.23057117 -0.22057262 3
1.3703471 -0.23030105 0.1706171 11
1.370307 -0.23054023 -0.1706171 4
1.3674561 -0.23030601 0.21963401 12
1.3713742 -0.23096591 -0.12166941 5
1.395807 -0.23533142 0.27514657 13
1.3766147 -0.23234269 -0.073165677 6
1.383485 -0.23375061 0.32392952 14
1.3683542 -0.23143975 -0.024223939 7
1.3896718 -0.23729132 0.024607893 8
1.3811128 -0.23607793 -0.32347962 1
1.3780526 -0.2358024 0.073270351 9
1.3584604 -0.23244993 -0.26789585 2
1.370724 -0.2347946 0.12166941 10
1.3765017 -0.23603159 -0.22119835 3
1.3812739 -0.23709805 0.17207953 11
1.3753631 -0.2363306 -0.1713483 4
1.3588568 -0.23373848 0.21838254 12
1.3666327 -0.23507603 -0.12132079 5
1.3988467 -0.24086857 0.27590984 13
1.3876046 -0.23918213 -0.073793709 6
1.390342 -0.23990387 0.32572913 14
1.3675379 -0.2362148 -0.024223939 7
1.3711052 -0.23904958 0.024293751 8
1.3791885 -0.24095498 0.073375016 9
1.3537729 -0.23651467 -0.26713261 2
1.3620456 -0.23820499 0.12097216 10
1.3639946 -0.23879118 -0.21932115 3
1.3804377 -0.24191816 0.17207953 11
1.3745297 -0.24113007 -0.1713483 4
1.3541414 -0.23779704 0.21775681 12
1.361879 -0.23915583 -0.12097216 5
1.3863957 -0.24371053 0.2736201 13
1.3906952 -0.24471658 -0.074003048 6
1.3894962 -0.2447556 0.32572913 14
1.3706437 -0.24168147 -0.024293751 7
1.3604186 -0.24208249 0.024119226 8
1.3803053 -0.24611838 0.07347969 9
1.3645357 -0.24330655 -0.26942232 2
1.3651286 -0.24365814 0.12132079 10
1.3592637 -0.2428561 -0.21869542 3
1.3639522 -0.24393943 0.17012961 11
1.3814958 -0.24732588 -0.17232326 4
1.3591362 -0.24356775 0.21869542 12
1.3610358 -0.24390818 -0.12097216 5
1.377807 -0.24716191 0.27209365 13
1.3701744 -0.24603954 -0.072956331 6
1.3924693 -0.25029385 0.32662892 14
1.3816001 -0.2485891 -0.024503179 7
1.3615327 -0.24718697 0.02415413 8
1.3656827 -0.24843284 0.072746992 9
1.3675412 -0.24877092 -0.27018553 2
1.3721106 -0.24984956 0.12201804 10
1.3584076 -0.24759933 -0.21869542 3
1.3630923 -0.24869905 0.17012961 11
1.3610963 -0.24858029 -0.16988587 4
1.3699368 -0.25044197 0.22057262 12
1.364096 -0.2493742 -0.12132079 5
1.376936 -0.25196984 0.27209365 13
1.3614489 -0.24938142 -0.072537638 6
1.3839201 -0.25374717 0.32482934 14
1.3807241 -0.25341028 -0.024503179 7
1.3724593 -0.25412253 0.024363559 8
1.3569522 -0.2517412 0.072328299 9
1.3512219 -0.25067812 -0.26713261 2
1.3673121 -0.25391001 0.12166941 10
1.3653034 -0.25378352 -0.21994688 3
1.366119 -0.25418183 0.1706171 11
1.3543656 -0.25223953 -0.16915466 4
1.3476931 -0.25124019 0.21713105 12
1.3730105 -0.25595993 -0.12219235 5
1.3837676 -0.25821522 0.2736201 13
1.3644968 -0.25486568 -0.072746992 6
1.3753637 -0.25714386 0.32302973 14
1.3601755 -0.25454989 -0.02415413 7
1.3754939 -0.2596536 0.024433369 8
1.3658775 -0.25833216 0.072851658 9
1.358055 -0.25685266 -0.26865909 2
1.3625023 -0.25794008 0.12132079 10
1.3605276 -0.2578122 -0.21932115 3
1.3671738 -0.25931883 0.17086083 11
1.3612779 -0.25844666 -0.17012961 4
1.3468078 -0.255943 0.21713105 12
1.3544924 -0.25740334 -0.12062354 5
1.3905725 -0.26451138 0.27514657 13
1.371447 -0.26112136 -0.073165677 6
1.3744577 -0.26194322 0.32302973 14
1.3592786 -0.25929627 -0.02415413 7
1.3549423 -0.26067549 0.024084322 8
1.3669285 -0.26347637 0.072956331 9
1.3576809 -0.26193967 0.12097216 10
1.3479822 -0.26031247 -0.21744394 3
1.3721075 -0.26521981 0.17159206 11
1.3662143 -0.26432803 -0.17086083 4
1.3459063 -0.26064268 0.21713105 12
1.3496736 -0.26137227 -0.12027492 5
1.3742218 -0.26637501 0.27209365 13
1.3705271 -0.26590702 -0.073165677 6
1.381187 -0.26822537 0.32482934 14
1.366217 -0.26556569 -0.024293751 7
1.3520616 -0.26501891 0.024049416 8
1.3660005 -0.26824623 0.072956331 9
1.3606684 -0.26744577 0.12132079 10
1.3470653 -0.26501623 -0.21744394 3
1.3594872 -0.26770651 0.17012961 11
1.3691784 -0.26986316 -0.1713483 4
1.3508024 -0.2664862 0.21806967 12
1.3565252 -0.26786116 -0.12097216 5
1.3732836 -0.27117032 0.27209365 13
1.3578343 -0.26836589 -0.072537638 6
1.3840656 -0.27380133 0.32572913 14
1.369205 -0.27110988 -0.024363559 7
1.3491673 -0.26934537 0.024014512 8
1.357222 -0.27144605 0.072537638 9
1.3655396 -0.27360535 0.12184373 10
1.3499585 -0.27072856 -0.21806967 3
1.3468664 -0.27010843 0.16866718 11
1.3487655 -0.27073416 -0.16891092 4
1.3459905 -0.27042153 0.21744394 12
1.3516752 -0.2718091 -0.12062354 5
1.3722805 -0.27620184 0.27209365 13
1.3529258 -0.27255195 -0.072328299 6
1.3715911 -0.27656126 0.32302973 14
1.3682503 -0.27588764 -0.024363559 7
1.3560092 -0.2758832 0.02415413 8
1.352352 -0.2753849 0.072328299 9
1.362624 -0.27797204 0.12166941 10
1.3528762 -0.27622947 -0.21869542 3
1.3614265 -0.27822283 0.1706171 11
1.3497089 -0.2760736 -0.16915466 4
1.3372972 -0.27353486 0.21619245 12
1.3585259 -0.27812409 -0.12132079 5
1.3751546 -0.28177848 0.27285689 13
1.3558792 -0.27807543 -0.072537638 6
1.3629816 -0.27977994 0.32123011 14
1.3555257 -0.27824947 -0.02415413 7
1.3609617 -0.28159389 0.024258846 8
1.3513825 -0.28010383 0.072328299 9
1.3538424 -0.28110662 0.12097216 10
1.3635575 -0.28312382 -0.22057262 3
1.3624399 -0.28313982 0.17086083 11
1.3526731 -0.28135639 -0.16964214 4
1.3421359 -0.27940905 0.21713105 12
1.3419428 -0.27961323 -0.1199263 5
1.3780565 -0.28713804 0.2736201 13
1.3666809 -0.28501666 -0.073165677 6
1.3696768 -0.28589094 0.32302973 14
1.3506314 -0.28216159 -0.024084322 7
1.3482296 -0.28387079 0.024049416 8
1.354305 -0.2856437 0.072537638 9
1.3470545 -0.28436002 0.12044924 10
1.3595011 -0.28748322 0.1706171 11
1.3516827 -0.2860764 -0.16964214 4
1.33149 -0.28204551 0.21556671 12
1.3410082 -0.28406173 -0.1199263 5
1.3655225 -0.28950354 0.27133042 13
1.3578626 -0.28812724 -0.072746992 6
1.3801079 -0.29309925 0.32572913 14
1.3535502 -0.28770599 -0.02415413 7
1.3413645 -0.28731877 0.023944702 8
1.3532997 -0.29036936 0.072537638 9
1.3499495 -0.28989702 0.12079786 10
1.3526672 -0.29097462 0.16988587 11
1.3584383 -0.29246411 -0.1706171 4
1.3382215 -0.28835595 0.21681818 12
1.3400085 -0.28874099 -0.1199263 5
1.3645036 -0.29426837 0.27133042 13
1.3490393 -0.29117975 -0.072328299 6
1.3525378 -0.292429 -0.02415413 7
1.3442612 -0.29285055 0.024014512 8
1.3425212 -0.2929624 0.07201428 9
1.3508759 -0.29503259 0.12097216 10
1.3341901 -0.29187638 0.16769223 11
1.3457742 -0.29465669 -0.16915466 4
1.3391365 -0.2934483 0.21713105 12
1.3467772 -0.29512262 -0.12062354 5
1.3596327 -0.29818842 0.27056718 13
1.3480147 -0.29588702 -0.072328299 6
1.3647045 -0.29980004 0.3225798 14
1.363227 -0.29972488 -0.024363559 7
1.3471355 -0.29840609 0.024084322 8
