# .PCD v0.7 - Point Cloud Data file format
VERSION 0.7
FIELDS x y z intensity
SIZE 4 4 4 4
TYPE F F F F
COUNT 1 1 1 1
WIDTH 1118
HEIGHT 1
VIEWPOINT 0 0 0 1 0 0 0
POINTS 1118
DATA ascii
2.0404978 -0.13016506 -0.25105089 4
2.022229 -0.13573436 -0.24885722 4
2.0237231 -0.14293233 -0.24910097 4
2.0172255 -0.1428272 -0.17692617 5
2.0172729 -0.14955524 -0.24836974 4
2.0107539 -0.14942482 -0.17640322 5
2.0286133 -0.15751798 -0.24983218 4
2.0042608 -0.15597898 -0.17588028 5
2.0082655 -0.16299239 -0.2473948 4
1.9937749 -0.1621666 -0.17500873 5
1.9958457 -0.16864827 -0.24593236 4
1.9931966 -0.16912518 -0.17500873 5
2.0019891 -0.17057511 -0.10529996 6
1.9992303 -0.17561321 -0.24641983 4
1.9787322 -0.17450871 -0.17378855 5
1.9874861 -0.17597993 -0.10456725 6
1.9986051 -0.18259075 -0.24641983 4
1.9741428 -0.18105078 -0.17343993 5
1.9948471 -0.1833007 -0.10498594 6
1.9979556 -0.18956608 -0.24641983 4
1.9734988 -0.18794073 -0.17343993 5
1.9822327 -0.18947069 -0.10435791 6
1.9814432 -0.1953297 -0.24446991 4
1.9727967 -0.1951727 -0.17343993 5
1.9795717 -0.19619185 -0.10425323 6
1.9767997 -0.20184177 -0.24398245 4
1.9740855 -0.20226091 -0.17361423 5
1.9748658 -0.2030375 -0.10404389 6
1.9911635 -0.20506428 -0.034939718 7
1.9839427 -0.20992126 -0.24495739 4
1.9713861 -0.20894054 -0.17343993 5
1.9820893 -0.2107746 -0.10446258 6
1.9645492 -0.20960297 -0.034485955 7
1.9792513 -0.21641369 -0.24446991 4
1.9587613 -0.21451926 -0.17239405 5
1.9773707 -0.21725586 -0.10425323 6
1.955855 -0.21558288 -0.034346335 7
1.9864134 -0.22386518 -0.24544489 4
1.956021 -0.22113149 -0.17221974 5
1.9646933 -0.22280653 -0.10362521 6
1.9789724 -0.22477569 -0.034765195 7
1.9659413 -0.22816262 -0.2430075 4
1.9651719 -0.22876857 -0.17309129 5
1.9639436 -0.22932044 -0.10362521 6
1.9782161 -0.23133697 -0.034765195 7
1.9639498 -0.23279633 0.034520861 8
1.9810957 -0.23623136 -0.31599763 3
1.9572487 -0.23408072 -0.24203253 4
1.9564894 -0.23433629 -0.17239405 5
1.9631723 -0.23583184 -0.10362521 6
1.9615139 -0.23632725 -0.034485955 7
1.9472456 -0.23771188 0.034241624 8
1.9564196 -0.24091138 -0.24203253 4
1.9457724 -0.23994502 -0.1715225 5
1.9583728 -0.24219288 -0.10341586 6
1.94877 -0.241696 -0.034276526 7
1.9424357 -0.24400908 0.034171812 8
1.9598004 -0.24758032 -0.31286895 3
1.9595057 -0.24823807 -0.24252002 4
1.9429466 -0.24648486 -0.17134818 5
1.961478 -0.24953151 -0.10362521 6
1.9518816 -0.24900311 -0.034346335 7
1.9316559 -0.24950711 0.033997286 8
1.939335 -0.25187561 -0.30974028 3
1.9665011 -0.25610194 -0.24349497 4
1.9460258 -0.25378084 -0.17169681 5
1.9487126 -0.25482303 -0.10299717 6
1.9589316 -0.2568548 -0.034485955 7
1.9307731 -0.25624835 0.033997286 8
1.9461497 -0.25898042 0.1028925 9
1.9482341 -0.25994992 -0.31130463 3
1.9459195 -0.26033247 -0.24105757 4
1.9411784 -0.26004305 -0.17134818 5
1.9319755 -0.25949672 -0.1021598 6
1.9500958 -0.26262361 -0.034346335 7
1.9318484 -0.26325643 0.034032192 8
1.9254451 -0.26306847 0.10184578 9
1.9512291 -0.26728514 -0.31193036 3
1.9371325 -0.26604304 -0.24008264 4
1.9422326 -0.26708889 -0.1715225 5
1.938972 -0.26733014 -0.10257848 6
1.9412436 -0.26833391 -0.034206714 7
1.9368589 -0.27082899 0.034136906 8
1.9304488 -0.27061978 0.1021598 9
1.9502841 -0.27409458 -0.31193036 3
1.9440546 -0.27391109 -0.24105757 4
1.9392679 -0.27392706 -0.17134818 5
1.9459373 -0.27521557 -0.10299717 6
1.9402952 -0.27510846 -0.034206714 7
1.9200662 -0.27531761 0.03385767 8
1.9314693 -0.27764079 0.10226447 9
1.9375356 -0.27954835 -0.31005314 3
1.9391572 -0.28012782 -0.2405701 4
1.9343563 -0.28012362 -0.17099957 5
1.9409626 -0.28177208 -0.10278783 6
1.9393231 -0.28187966 -0.034206714 7
1.9111307 -0.28118879 0.03371805 8
1.9284629 -0.28442669 0.1021598 9
1.9237115 -0.284069 0.17012802 10
1.9326397 -0.28573206 -0.30942741 3
1.9381175 -0.28723326 -0.2405701 4
1.9294251 -0.28628922 -0.17065094 5
1.932065 -0.28737023 -0.10236914 6
1.9382769 -0.28898573 -0.034206714 7
1.9101375 -0.28785816 0.03371805 8
1.9215337 -0.29026163 0.10184578 9
1.9286181 -0.29167607 0.17065094 10
1.9277244 -0.29188505 -0.30880168 3
1.921402 -0.29161388 -0.23862019 4
1.9284141 -0.29302239 -0.17065094 5
1.9271011 -0.29351121 -0.1021598 6
1.9372563 -0.29574981 -0.034206714 7
1.9130738 -0.29513383 0.033787858 8
1.9185351 -0.29666206 0.10174111 9
1.9197124 -0.29718721 0.16995369 10
1.9266938 -0.29861227 -0.30880168 3
1.9203725 -0.29831904 -0.23862019 4
1.9352542 -0.30097678 -0.17134818 5
1.9221179 -0.29962096 -0.10195045 6
1.9243578 -0.30065823 -0.033997286 7
1.921908 -0.30336887 0.033962384 8
1.9135423 -0.302733 0.10153177 9
1.9088241 -0.30232805 0.16908213 10
1.9334437 -0.30657333 -0.31005314 3
1.9232404 -0.30564371 -0.23910768 4
1.9223861 -0.30585191 -0.17030232 5
1.9250051 -0.30695763 -0.1021598 6
1.9193475 -0.30674252 -0.033927478 7
1.9070184 -0.30784497 0.03371805 8
1.9164714 -0.30971414 0.10174111 9
1.8979232 -0.3073965 0.16821058 10
1.9245621 -0.31205577 -0.30880168 3
1.9260806 -0.31299201 -0.23959514 4
1.9134407 -0.31128079 -0.16960508 5
1.9239219 -0.31367528 -0.1021598 6
1.9183197 -0.31310558 -0.033927478 7
1.9000679 -0.3131915 0.033613335 8
1.913408 -0.31607649 0.10163644 9
1.9047012 -0.31532127 0.16890782 10
1.919619 -0.31779087 -0.30817595 3
1.9328655 -0.32067701 -0.2405701 4
1.9123424 -0.31795803 -0.16960508 5
1.9189309 -0.31939763 -0.10195045 6
1.9211599 -0.32045788 -0.033997286 7
1.9029068 -0.32048625 0.033683144 8
1.9063847 -0.32175639 0.10132242 9
1.8997163 -0.32097194 0.16855921 10
1.9146026 -0.32383075 -0.30755019 3
1.894604 -0.32078838 0.23593907 11
1.9160768 -0.32476813 -0.23862019 4
1.9151493 -0.32529867 -0.16995369 5
1.9059904 -0.32408524 -0.10132242 6
1.9200295 -0.32716206 -0.033997286 7
1.8958644 -0.32610977 0.033578429 8
1.8954089 -0.32671261 0.10079906 9
1.9044168 -0.3289499 0.16908213 10
1.9172959 -0.3315191 -0.30817595 3
1.8934727 -0.32739982 0.23593907 11
1.9071074 -0.33010021 -0.23764524 4
1.9100761 -0.33130085 -0.16960508 5
1.9047897 -0.33106884 -0.10132242 6
1.9149358 -0.33317667 -0.033927478 7
1.8985953 -0.33374864 0.033648241 8
1.9001579 -0.33436522 0.10111307 9
1.8855979 -0.3324818 0.16751333 10
1.916127 -0.33820969 -0.30817595 3
1.8942146 -0.33468294 0.23618281 11
1.9058847 -0.3370879 -0.23764524 4
1.9049841 -0.33727154 -0.16925645 5
1.9075555 -0.33841357 -0.10153177 6
1.9019476 -0.3377611 -0.03371805 7
1.885668 -0.33792633 0.033438813 8
1.8950475 -0.34028998 0.10090373 9
1.8765821 -0.33765042 0.16681609 10
1.9033298 -0.34246308 -0.3062987 3
1.8970019 -0.34166631 0.23667029 11
1.9086636 -0.34411061 -0.23813272 4
1.8959527 -0.34250239 -0.16855921 5
1.9103535 -0.3454482 -0.10174111 6
1.8968217 -0.34368506 -0.033648241 7
1.884477 -0.34450647 0.033438813 8
1.9017065 -0.3483423 0.10132242 9
1.9002266 -0.34807122 -0.37551212 2
1.8793718 -0.34459019 0.16716471 10
1.8943511 -0.34767848 -0.30504724 3
1.8801782 -0.34541649 0.23472038 11
1.9035461 -0.35005298 -0.23764524 4
1.8883407 -0.34759748 0.30410865 12
1.8967659 -0.34914836 -0.16873352 5
1.893423 -0.3492164 -0.10090373 6
1.9034762 -0.35175765 -0.033787858 7
1.8871945 -0.35181537 0.033508621 8
1.8847725 -0.35204467 0.10048504 9
1.90093 -0.35506263 -0.37589374 2
1.8840328 -0.35224682 0.16768765 10
1.9008927 -0.35574237 -0.3062987 3
1.8711565 -0.3505154 0.23374543 11
1.8984103 -0.35596377 -0.23715776 4
1.8774084 -0.35236499 0.3025443 12
1.9014101 -0.35686979 -0.16925645 5
1.8921925 -0.35582355 -0.10090373 6
1.9022367 -0.3583999 -0.033787858 7
1.8800614 -0.35728079 0.033403907 8
1.8835322 -0.3586216 0.10048504 9
1.9035362 -0.36243033 -0.37665698 2
1.8827918 -0.35882118 0.16768765 10
1.8996392 -0.36237559 -0.3062987 3
1.877721 -0.3585341 0.23472038 11
1.8971562 -0.36258829 -0.23715776 4
1.8645258 -0.35668921 0.30066708 12
1.896239 -0.36275604 -0.16890782 5
1.8909389 -0.36242637 -0.10090373 6
1.8891912 -0.36277515 -0.033578429 7
1.8846924 -0.36498183 0.033508621 8
1.888151 -0.36633542 0.10079906 9
1.8906957 -0.36682913 -0.37436727 2
1.8717484 -0.36349201 0.16681609 10
1.9022411 -0.36975822 -0.30692446 3
1.8764579 -0.36508641 0.23472038 11
1.8919823 -0.36844951 -0.23667029 4
1.8555138 -0.36168373 0.29941559 12
1.8812723 -0.36670464 -0.16768765 5
1.8975031 -0.370556 -0.10132242 6
1.8839883 -0.3685995 -0.033508621 7
1.8735976 -0.36962321 0.033334095 8
1.882942 -0.37214956 0.10058971 9
1.8913295 -0.37380728 -0.37474889 2
1.8606956 -0.36809015 0.16594453 10
1.8970633 -0.37562865 -0.3062987 3
1.8790666 -0.37240604 0.23520786 11
1.9023674 -0.37736902 -0.23813272 4
1.8600527 -0.36931255 0.30035421 12
1.8799808 -0.37326926 -0.16768765 5
1.8851603 -0.37463966 0.37360403 13
1.9001158 -0.37795654 -0.10153177 6
1.8826902 -0.37517354 -0.033508621 7
1.8683749 -0.37537324 0.033264287 8
1.8855475 -0.3795082 0.10079906 9
1.8919379 -0.38079438 -0.3751305 2
1.8652589 -0.37576339 0.16646746 10
1.8860583 -0.38029605 -0.30473438 3
1.8621882 -0.37582126 0.23325793 11
1.8971469 -0.38322112 -0.23764524 4
1.8606884 -0.37619457 0.30066708 12
1.8708549 -0.37825 -0.1669904 5
1.8607501 -0.3765451 0.36902463 13
1.8792099 -0.38062209 -0.10048504 6
1.8852887 -0.38253841 -0.033578429 7
1.8709716 -0.38269424 0.033334095 8
1.8724716 -0.3836821 0.10017103 9
1.8886738 -0.38700205 -0.37474889 2
1.8678393 -0.38307267 0.16681609 10
1.8866545 -0.38727453 -0.30504724 3
1.8569762 -0.38152021 0.23277046 11
1.8802425 -0.3866424 -0.23569533 4
1.8574291 -0.38228908 0.30035421 12
1.8831156 -0.38791835 -0.16821058 5
1.8709617 -0.38541466 0.37131432 13
1.8700453 -0.38556615 -0.10006636 6
1.8839419 -0.38911697 -0.033578429 7
1.8696243 -0.38922283 0.033334095 8
1.8672105 -0.38940042 0.099961683 9
1.8795553 -0.39231724 -0.37322241 2
1.8683732 -0.39032349 0.1669904 10
1.887156 -0.39459118 -0.30536011 3
1.8536901 -0.38759372 0.23252673 11
1.8788815 -0.39320329 -0.23569533 4
1.8464162 -0.38674554 0.29878986 12
1.8856503 -0.39530694 -0.16855921 5
1.8733792 -0.39307576 0.37207755 13
1.8725289 -0.3932386 -0.1002757 6
1.8747444 -0.3940455 -0.033438813 7
1.8720975 -0.3969022 0.033403907 8
1.8618635 -0.3954117 0.099752344 9
1.8704927 -0.39724433 -0.37169594 2
1.8533573 -0.39394328 0.16577022 10
1.883835 -0.40076509 -0.30504724 3
1.8600233 -0.39603877 0.23350169 11
1.8813106 -0.40091455 -0.23618281 4
1.8449863 -0.3935104 0.29878986 12
1.8647732 -0.39773065 -0.16681609 5
1.8777556 -0.40084231 0.37322241 13
1.8828639 -0.40227631 -0.10090373 6
1.8713573 -0.40015948 0.44180387 14
1.8693765 -0.40007716 -0.033369001 7
1.8589722 -0.40090528 0.033194479 8
1.8682806 -0.4035953 0.10017103 9
1.8710136 -0.40418568 -0.37207755 2
1.8461289 -0.39914718 0.16524729 10
1.8708404 -0.4048318 -0.30317003 3
1.8586295 -0.40252903 0.23350169 11
1.8837799 -0.40832016 -0.23667029 4
1.8416711 -0.39952943 0.29847699 12
1.8614264 -0.40381509 -0.16664177 5
1.8609966 -0.40406197 0.37016946 13
1.8775449 -0.40799806 -0.1006944 6
1.8585238 -0.40420443 0.43910447 14
1.8718766 -0.40745068 -0.033438813 7
1.8575613 -0.40739185 0.033194479 8
1.8668605 -0.41011429 0.10017103 9
1.8734266 -0.41155675 -0.37284079 2
1.8466702 -0.40601674 0.16542161 10
1.8597698 -0.40923718 -0.30160567 3
1.84752 -0.40687975 0.232283 11
1.8784659 -0.41403869 -0.23618281 4
1.8460522 -0.4072322 0.29941559 12
1.8658425 -0.41159785 -0.16716471 5
1.8519065 -0.40886256 0.36864299 13
1.8644079 -0.41196391 -0.10006636 6
1.8532959 -0.40984783 0.43820465 14
1.8743479 -0.41484651 -0.033508621 7
1.8522245 -0.41300306 0.033124667 8
1.8537222 -0.41401631 0.099542998 9
1.8738946 -0.41852167 -0.37322241 2
1.8452417 -0.41246036 0.16542161 10
1.8660408 -0.4174515 -0.30285716 3
1.8383399 -0.41159144 0.23130804 11
1.8653868 -0.41798899 -0.23472038 4
1.8446194 -0.41367361 0.29941559 12
1.8682824 -0.41898027 -0.16751333 5
1.8542993 -0.41618437 0.36940622 13
1.8551637 -0.41671848 -0.099647671 6
1.8537552 -0.416742 0.43865454 14
1.8728883 -0.42138669 -0.033508621 7
1.8587195 -0.4205853 0.033264287 8
1.8524123 -0.41983786 0.099542998 9
1.8571794 -0.42125911 -0.37016946 2
1.853652 -0.42045897 0.16629316 10
1.868573 -0.42418638 -0.30348289 3
1.8370377 -0.41736472 0.23130804 11
1.8563216 -0.42208666 -0.23374543 4
1.8336802 -0.41727504 0.29785126 12
1.8649402 -0.42473102 -0.16733903 5
1.8643938 -0.4249489 0.37169594 13
1.857666 -0.42375651 -0.099857017 6
1.846737 -0.42126346 0.43730485 14
1.8559591 -0.42370787 -0.033229381 7
1.8571655 -0.42739502 0.033264287 8
1.8489149 -0.42617589 0.099438325 9
1.855623 -0.42806315 -0.37016946 2
1.8365672 -0.42366728 0.16489866 10
1.8631562 -0.43014348 -0.30285716 3
1.8451664 -0.42632943 0.23252673 11
1.8624985 -0.43067646 -0.23472038 4
1.8282894 -0.42310229 0.29722553 12
1.8478427 -0.42796713 -0.16594453 5
1.8551736 -0.43000615 0.37016946 13
1.8561006 -0.43056235 -0.099857017 6
1.8451807 -0.42802927 0.43730485 14
1.8543936 -0.43050748 -0.033229381 7
1.847798 -0.4323765 0.033124667 8
1.85325 -0.4339934 0.099752344 9
1.8579404 -0.43543386 -0.3709327 2
1.8311226 -0.42948589 0.16455004 10
1.8538747 -0.43516374 -0.30160567 3
1.8474562 -0.43399733 0.2330142 11
1.8571187 -0.4362672 -0.23423289 4
1.8325702 -0.4308379 0.29816413 12
1.8443981 -0.43395838 -0.16577022 5
1.8421955 -0.43377945 0.36787975 13
1.8584743 -0.43795493 -0.10006636 6
1.8436754 -0.43446755 0.43730485 14
1.8528795 -0.43697789 -0.033229381 7
1.8385718 -0.43665341 0.03298505 8
1.8518007 -0.44013664 0.099752344 9
1.8564862 -0.44159266 -0.3709327 2
1.8374412 -0.43740135 0.16524729 10
1.8447349 -0.43947783 -0.30035421 3
1.8344212 -0.43735912 0.23155177 11
1.8672477 -0.44518557 -0.23569533 4
1.8292099 -0.43645409 0.29785126 12
1.8448869 -0.44053495 -0.16594453 5
1.8407469 -0.439886 0.36787975 13
1.8453568 -0.44132814 -0.099438325 6
1.8460151 -0.44148555 0.43820465 14
1.8553098 -0.44405082 -0.033299193 7
1.8371137 -0.44274792 0.03298505 8
1.8444284 -0.44519207 0.099438325 9
1.8549335 -0.44807029 -0.3709327 2
1.8340439 -0.44302428 0.16507298 10
1.8471076 -0.44652113 -0.30097994 3
1.829102 -0.44250631 0.2310643 11
1.8502475 -0.4479638 -0.23374543 4
1.8238357 -0.44190624 0.29722553 12
1.8472105 -0.4479112 -0.16629316 5
1.8315687 -0.44445682 0.36635327 13
1.8360417 -0.44588161 -0.099019639 6
1.836888 -0.44608709 0.43640503 14
1.8537486 -0.45052436 -0.033299193 7
1.8432479 -0.45138082 0.033124667 8
1.829206 -0.4486191 0.09870562 9
1.8456521 -0.45299408 -0.36940622 2
1.8304728 -0.44926849 0.16489866 10
1.8550504 -0.45564407 -0.3025443 3
1.8293955 -0.44968119 0.23130804 11
1.8408827 -0.45284554 -0.23277046 4
1.8260399 -0.44953236 0.29785126 12
1.8416873 -0.45372531 -0.16594453 5
1.8375521 -0.45304674 0.36787975 13
1.8382734 -0.45356494 -0.099228986 6
1.8238887 -0.45001572 0.43370563 14
1.8443192 -0.4553982 -0.033159573 7
1.8454621 -0.45909914 0.033194479 8
1.8372395 -0.45773467 0.099228986 9
1.8364395 -0.45753536 -0.36787975 2
1.8268807 -0.45549253 0.16472435 10
1.8514513 -0.4619619 -0.3022314 3
1.8277351 -0.45638326 0.23130804 11
1.8392105 -0.45958969 -0.23277046 4
1.8109655 -0.45286754 0.29566118 12
1.8362265 -0.45918456 -0.1655959 5
1.8473865 -0.46231791 0.37016946 13
1.8405538 -0.46094933 -0.099438325 6
1.8260075 -0.45764506 0.43460542 14
1.8387586 -0.46118194 -0.033089764 7
1.8263986 -0.4611325 0.032880332 8
1.8515766 -0.46783325 -0.44090405 1
1.8259488 -0.46169701 0.09870562 9
1.8386378 -0.46490547 -0.36864299 2
1.8175535 -0.45991176 0.16402711 10
1.8383378 -0.46551239 -0.30035421 3
1.8299793 -0.4637357 0.2317955 11
1.8452919 -0.46795881 -0.23374543 4
1.8055443 -0.45821437 0.29503542 12
1.8307503 -0.4646112 -0.16524729 5
1.826733 -0.46393108 0.36635327 13
1.8428049 -0.46835518 -0.099647671 6
1.8319533 -0.46593764 0.43640503 14
1.8410133 -0.46858406 -0.033159573 7
1.8170292 -0.46551982 0.032740716 8
1.82728 -0.46848598 -0.43550524 1
1.8282771 -0.46874163 0.098914966 9
1.8408073 -0.47229651 -0.36940622 2
1.815937 -0.46625337 0.16402711 10
1.8290486 -0.46996018 -0.29910272 3
1.8225819 -0.46863768 0.2310643 11
1.8514202 -0.47605282 -0.23472038 4
1.8135803 -0.46666056 0.29659978 12
1.8291173 -0.47099891 -0.16524729 5
1.8213001 -0.46932492 0.36559007 13
1.8295549 -0.47179264 -0.099019639 6
1.8266242 -0.47103688 0.43550524 14
1.8355768 -0.47368717 -0.033089764 7
1.8116047 -0.47053739 0.032670904 8
1.8219442 -0.47356236 -0.43460542 1
1.8151146 -0.47178718 0.098286942 9
1.839231 -0.47839826 -0.36940622 2
1.8182372 -0.47327641 0.16437572 10
1.8293918 -0.47652087 -0.29941559 3
1.8133341 -0.47267613 0.23008935 11
1.834464 -0.47818398 -0.23277046 4
1.8196684 -0.47466645 0.29785126 12
1.8275454 -0.4770619 -0.16524729 5
1.8235328 -0.47635442 0.36635327 13
1.8241158 -0.47684678 -0.0988103 6
1.8175106 -0.4751201 0.43370563 14
1.837865 -0.48078376 -0.033159573 7
1.8197035 -0.47908795 0.03284543 8
1.8203639 -0.47960156 -0.43460542 1
1.8057317 -0.47608349 0.097868249 9
1.8224474 -0.4804906 -0.36635327 2
1.8185843 -0.47981164 0.16455004 10
1.8335314 -0.48409754 -0.30035421 3
1.8117567 -0.47868675 0.23008935 11
1.8231881 -0.48204747 -0.23155177 4
1.8027231 -0.47697324 0.29534832 12
1.829721 -0.48445824 -0.1655959 5
1.8257389 -0.48340389 0.36711654 13
1.8225244 -0.48289314 -0.0988103 6
1.8120738 -0.48046264 0.43280584 14
1.8284444 -0.48514479 -0.033019952 7
1.81802 -0.48543698 0.03284543 8
1.8280922 -0.48846817 -0.43685496 1
1.8117768 -0.48444748 0.098286942 9
1.8206741 -0.48716703 -0.36635327 2
1.8091152 -0.48441252 0.1638528 10
1.8279287 -0.48979199 -0.29972848 3
1.8139095 -0.48603562 0.23057681 11
1.8214942 -0.48840868 -0.23155177 4
1.7972313 -0.48223913 0.29472256 12
1.822246 -0.48929211 -0.16507298 5
1.8277469 -0.49111116 0.36787975 13
1.8284574 -0.4916442 -0.099228986 6
1.8103006 -0.48710099 0.43280584 14
1.8190156 -0.48944595 -0.032880332 7
1.808508 -0.49000525 0.03270581 8
1.8262895 -0.49516526 -0.43685496 1
1.8139299 -0.49181414 0.098496281 9
1.8189625 -0.49351937 -0.36635327 2
1.7958765 -0.48759225 0.16280691 10
1.8262078 -0.49616969 -0.29972848 3
1.8140315 -0.49320143 0.23082055 11
1.8235228 -0.49612373 -0.23203924 4
1.7993493 -0.48954687 0.29534832 12
1.8166822 -0.49460319 -0.16472435 5
1.8146561 -0.49439183 0.36559007 13
1.82673 -0.49802375 -0.099228986 6
1.8085893 -0.49341717 0.43280584 14
1.8134377 -0.49473992 -0.032810524 7
1.8088015 -0.49652913 0.032740716 8
1.8096044 -0.49708918 -0.43325573 1
1.8199054 -0.50026041 0.098914966 9
1.8210145 -0.50090712 -0.36711654 2
1.7980053 -0.49491557 0.16315554 10
1.8169343 -0.50012589 -0.29847699 3
1.7989893 -0.49552423 0.22911438 11
1.8333499 -0.50533295 -0.23350169 4
1.8033422 -0.49740055 0.29628691 12
1.8149446 -0.50094157 -0.16472435 5
1.8092217 -0.49936202 0.3648268 13
1.8135173 -0.50088829 -0.098600946 6
1.8144563 -0.50148851 0.43460542 14
1.819409 -0.50319916 -0.032950144 7
1.805131 -0.5023039 0.03270581 8
1.8078582 -0.50340283 -0.43325573 1
1.7989085 -0.50124907 0.097868249 9
1.8193434 -0.50694311 -0.36711654 2
1.8059502 -0.50355089 0.16402711 10
1.8151776 -0.5064652 -0.29847699 3
1.7896008 -0.49966556 0.22813943 11
1.8105441 -0.50585365 -0.23082055 4
1.7996926 -0.50316048 0.29597405 12
1.8151922 -0.50749385 -0.16489866 5
1.8036863 -0.50461638 0.36406359 13
1.8117579 -0.50721556 -0.098600946 6
1.8014357 -0.5046649 0.43190601 14
1.8214924 -0.51062661 -0.033019952 7
1.8014419 -0.50805914 0.032670904 8
1.802339 -0.50865173 -0.43235591 1
1.7894595 -0.50535417 0.097449563 9
1.8062266 -0.51008934 -0.3648268 2
1.8060988 -0.51039356 0.16420141 10
1.8248035 -0.51602334 -0.30035421 3
1.7954861 -0.50807136 0.22911438 11
1.8087674 -0.51217055 -0.23082055 4
1.790323 -0.50728542 0.29472256 12
1.8153267 -0.51437014 -0.16507298 5
1.8132466 -0.51412266 0.36635327 13
1.8022906 -0.51135606 -0.098182261 6
1.7959139 -0.50988549 0.43100622 14
1.8004633 -0.51151675 -0.032670904 7
1.8035029 -0.51544327 0.032740716 8
1.8061734 -0.51654756 -0.43370563 1
1.7876846 -0.51159745 0.097449563 9
1.804435 -0.5163911 -0.3648268 2
1.7928138 -0.51340389 0.16315554 10
1.8153952 -0.52021337 -0.29910272 3
1.7937016 -0.51433569 0.22911438 11
1.8069686 -0.51848125 -0.23082055 4
1.7714534 -0.50862539 0.29190674 12
1.8000249 -0.51716888 -0.1638528 5
1.8076671 -0.5193646 0.36559007 13
1.8120118 -0.52095526 -0.0988103 6
1.7941232 -0.51615131 0.43100622 14
1.8063533 -0.52001125 -0.032810524 7
1.7940096 -0.51951063 0.032601096 8
1.806231 -0.52339149 -0.43415552 1
1.7973973 -0.52117175 0.098077588 9
1.8025302 -0.52300119 -0.3648268 2
1.7794398 -0.51663828 0.16210969 10
1.8096827 -0.52576137 -0.29847699 3
1.7957079 -0.52170128 0.22960186 11
1.8127724 -0.52700216 -0.2317955 4
1.7810478 -0.51811641 0.29378396 12
1.7943826 -0.52233529 -0.16350417 5
1.8019816 -0.52488852 0.3648268 13
1.8062552 -0.52647537 -0.098600946 6
1.7959608 -0.52381498 0.43190601 14
1.804527 -0.52631342 -0.032810524 7
1.7882559 -0.52495599 0.032531288 8
1.7986915 -0.52836049 -0.43280584 1
1.7955672 -0.52744269 0.098077588 9
1.8082279 -0.53150463 -0.36635327 2
1.7852712 -0.52509528 0.16280691 10
1.8002564 -0.52984422 -0.29722553 3
1.7823584 -0.52491462 0.22813943 11
1.8109218 -0.53332675 -0.2317955 4
1.7905972 -0.5276807 0.29566118 12
1.8001924 -0.53084981 -0.16420141 5
1.7850746 -0.52673048 0.36177388 13
1.7967445 -0.53051478 -0.098182261 6
1.8016899 -0.53197503 0.43370563 14
1.8065145 -0.53374237 -0.032880332 7
1.7845885 -0.53031355 0.032496382 8
1.7913257 -0.53265595 -0.43145612 1
1.7880648 -0.53168637 0.097763576 9
1.8026921 -0.53637826 -0.36559007 2
1.7854297 -0.53158116 0.16298124 10
1.7984893 -0.53581125 -0.29722553 3
1.7806079 -0.53082228 0.22813943 11
1.8034363 -0.5376277 -0.2310643 4
1.7850516 -0.5324862 0.29503542 12
1.7984222 -0.53681654 -0.16420141 5
1.7908425 -0.53489447 0.36330032 13
1.7834936 -0.53303856 -0.097554229 6
1.7887131 -0.53459853 0.43100622 14
1.8085663 -0.54087603 -0.032950144 7
1.7885649 -0.53795654 0.032601096 8
1.7876834 -0.5380317 -0.43100622 1
1.7823732 -0.53677279 0.097554229 9
1.7952638 -0.54065484 -0.36444521 2
1.7855648 -0.53807384 0.16315554 10
1.8004853 -0.54291278 -0.29785126 3
1.7769374 -0.53615057 0.22789569 11
1.7939471 -0.54162449 -0.23008935 4
1.7718362 -0.53528625 0.29315823 12
1.8003516 -0.54424405 -0.16455004 5
1.7928174 -0.54196644 0.36406359 13
1.7855395 -0.54010642 -0.097763576 6
1.7913566 -0.5425486 -0.032670904 7
1.7905021 -0.54536188 0.032670904 8
1.7895226 -0.54540479 -0.43190601 1
1.7843095 -0.54415625 0.097763576 9
1.7895147 -0.54608506 -0.36368197 2
1.7721474 -0.54112345 0.16210969 10
1.8060397 -0.55181712 -0.29910272 3
1.7883441 -0.54641038 0.22960186 11
1.7977406 -0.54962438 -0.23082055 4
1.766179 -0.54031217 0.2925325 12
1.7908205 -0.54819238 -0.1638528 5
1.7983277 -0.5508337 0.36559007 13
1.7911863 -0.54898822 -0.098182261 6
1.7818046 -0.546453 -0.032531288 7
1.7808481 -0.54956198 0.032531288 8
1.7930976 -0.55368489 -0.43325573 1
1.7765784 -0.54892367 0.097449563 9
1.7875975 -0.55232835 -0.36368197 2
1.7664407 -0.54612911 0.16176106 10
1.7927798 -0.5546152 -0.29722553 3
1.7863294 -0.55296129 0.22960186 11
1.7957139 -0.55620974 -0.23082055 4
1.7679604 -0.54795152 0.29315823 12
1.7830902 -0.55298185 -0.16332985 5
1.7813928 -0.55245543 0.36253712 13
1.7930741 -0.55642122 -0.098391607 6
1.7874283 -0.55535334 -0.032670904 7
1.7674665 -0.5521971 0.032321859 8
1.7781341 -0.55587041 -0.4301064 1
1.7899009 -0.55989188 0.098286942 9
1.7893084 -0.56004936 -0.36444521 2
1.7720325 -0.55498165 0.1624583 10
1.783195 -0.55881941 -0.29597405 3
1.7711287 -0.55503803 0.22789569 11
1.7937615 -0.56247461 -0.23082055 4
1.7679216 -0.55471087 0.2934711 12
1.7830499 -0.55979949 -0.16350417 5
1.77561 -0.55780411 0.36177388 13
1.7795906 -0.55939585 -0.097763576 6
1.7892939 -0.56278908 -0.032740716 7
1.7675325 -0.55865782 0.032356761 8
1.774423 -0.56117624 -0.42965651 1
1.7747049 -0.56160623 0.097554229 9
1.7894119 -0.56626022 -0.3648268 2
1.7702802 -0.56054586 0.1624583 10
1.7889633 -0.56680536 -0.29722553 3
1.7617092 -0.55850863 0.22692074 11
1.7805334 -0.56481844 -0.22935812 4
1.7717209 -0.56236327 0.29440969 12
1.7812825 -0.56539822 -0.16350417 5
1.7701064 -0.56219095 0.36101064 13
1.7702106 -0.56256425 -0.09734489 6
1.7950401 -0.57114482 -0.032880332 7
1.7750947 -0.56787068 0.032531288 8
1.7743092 -0.56796092 -0.4301064 1
1.7594192 -0.56353313 0.096821532 9
1.7743365 -0.56831104 -0.3621555 2
1.7759022 -0.56915426 0.16315554 10
1.7850927 -0.57244325 -0.29691264 3
1.7635292 -0.56586778 0.22740822 11
1.7747709 -0.56981659 -0.22887065 4
1.7547014 -0.56371081 0.29190674 12
1.7849889 -0.57344091 -0.16402711 5
1.7756095 -0.57076955 0.36253712 13
1.7720388 -0.5699631 -0.097554229 6
1.7778081 -0.57250357 -0.032601096 7
1.7792113 -0.57569849 -0.50107372 0
1.7731016 -0.57406354 0.032531288 8
1.7760237 -0.57535201 -0.43100622 1
1.7612413 -0.57090288 0.097030871 9
1.7648716 -0.57207966 -0.36062902 2
1.7625334 -0.57166171 0.16210969 10
1.7887204 -0.5805003 -0.29785126 3
1.7653193 -0.57324642 0.22789569 11
1.7765468 -0.5772351 -0.22935812 4
1.7489659 -0.56861091 0.29128101 12
1.7753973 -0.57720411 -0.16332985 5
1.7810742 -0.57939351 0.36406359 13
1.7738369 -0.57738149 -0.097763576 6
1.7681936 -0.57622737 -0.032461476 7
1.7735189 -0.58070332 -0.50003839 0
1.7577848 -0.5758912 0.032286953 8
1.7740045 -0.58154804 -0.43100622 1
1.766829 -0.57953727 0.097449563 9
1.7703258 -0.58068424 -0.3621555 2
1.752955 -0.57532543 0.16141243 10
1.771669 -0.58180994 -0.29534832 3
1.7746229 -0.58312315 0.22935812 11
1.7782925 -0.58467281 -0.2298456 4
1.7507232 -0.57594711 0.29190674 12
1.7658011 -0.5809074 -0.16263261 5
1.7678519 -0.58192396 0.36177388 13
1.7680166 -0.58232027 -0.097554229 6
1.7699697 -0.5836485 -0.032531288 7
1.7696472 -0.58628291 -0.49952078 0
1.755764 -0.58202356 0.032286953 8
1.7682643 -0.58650988 -0.4301064 1
1.7628996 -0.58507198 0.09734489 9
1.773878 -0.58871549 -0.36330032 2
1.7547178 -0.58269662 0.16176106 10
1.7733765 -0.58923638 -0.29597405 3
1.7612745 -0.58555663 0.22789569 11
1.7837753 -0.59338307 -0.23082055 4
1.7524507 -0.5833025 0.2925325 12
1.7675436 -0.58832616 -0.16298124 5
1.7583592 -0.58561009 0.3602474 13
1.7621835 -0.58722544 -0.09734489 6
1.7717153 -0.59108889 -0.032601096 7
1.7767484 -0.59552634 -0.50210893 0
1.7556175 -0.58878452 0.032321859 8
1.7569689 -0.58957893 -0.42785689 1
1.7475928 -0.58677202 0.096612185 9
1.7718121 -0.59490395 -0.36330032 2
1.7488958 -0.58754921 0.16141243 10
1.7713089 -0.59542304 -0.29597405 3
1.7516936 -0.58916968 0.22692074 11
1.766642 -0.59454072 -0.22887065 4
1.7560201 -0.59130722 0.2934711 12
1.7673672 -0.59512818 -0.16315554 5
1.7600253 -0.59299791 0.36101064 13
1.7525524 -0.59082073 -0.096926205 6
1.7734308 -0.59854877 -0.032670904 7
1.7874657 -0.606067 -0.50573242 0
1.7516578 -0.59426677 0.032286953 8
1.7604361 -0.59758747 -0.42920661 1
1.7494199 -0.59384805 0.096821532 9
1.762289 -0.59855962 -0.36177388 2
1.75438 -0.59621477 0.16210969 10
1.7673495 -0.60096651 -0.29566118 3
1.7515057 -0.59592003 0.22716448 11
1.766435 -0.60134351 -0.22911438 4
1.7503097 -0.59585404 0.29284537 12
1.7709371 -0.60322106 -0.16367848 5
1.7653778 -0.60167128 0.36253712 13
1.758041 -0.59951335 -0.09734489 6
1.7600808 -0.60055184 -0.032461476 7
1.7629184 -0.60461336 0.032531288 8
1.7584448 -0.60342205 -0.42920661 1
1.7435583 -0.59865385 0.096612185 9
1.7546186 -0.60279375 -0.36062902 2
1.7485197 -0.60103971 0.16176106 10
1.7709513 -0.6087504 -0.29659978 3
1.7532742 -0.6030162 0.22765194 11
1.7625542 -0.606552 -0.22887065 4
1.7351447 -0.59745824 0.29065526 12
1.7537509 -0.60420728 -0.16228399 5
1.7670852 -0.60880125 0.36330032 13
1.7560433 -0.60533994 -0.09734489 6
1.7579737 -0.60669202 -0.032461476 7
1.7494614 -0.60683137 0.032321859 8
1.7636918 -0.61211228 -0.43100622 1
1.7527784 -0.60866749 0.097240217 9
1.7618831 -0.6118291 -0.36253712 2
1.7352248 -0.60291129 0.16071519 10
1.7613521 -0.61233377 -0.29534832 3
1.7530335 -0.60978484 0.22789569 11
1.7716749 -0.61661571 -0.23033307 4
1.7386453 -0.60546029 0.29159388 12
1.7498561 -0.60936433 -0.16210969 5
1.7538257 -0.61108994 0.36101064 13
1.7614633 -0.61409587 -0.097763576 6
1.7520692 -0.61150688 -0.032391667 7
1.7397847 -0.61028677 0.032182239 8
1.7505116 -0.61439276 -0.42830679 1
1.7468742 -0.61345857 0.097030871 9
1.7597367 -0.61797553 -0.36253712 2
1.7387489 -0.610946 0.16123812 10
1.7554767 -0.61716795 -0.29472256 3
1.7377859 -0.61128926 0.22618952 11
1.7695117 -0.62279624 -0.23033307 4
1.7402476 -0.61283791 0.29221961 12
1.7514768 -0.61679232 -0.1624583 5
1.7442751 -0.61459839 0.35948417 13
1.7442398 -0.61492825 -0.096926205 6
1.7612381 -0.62161219 -0.032601096 7
1.7357593 -0.61568755 0.032147333 8
1.7428468 -0.6185441 -0.4269571 1
1.7354192 -0.61590797 0.096507512 9
1.761269 -0.62542832 -0.36330032 2
1.7366058 -0.61701167 0.16123812 10
1.7570343 -0.62461531 -0.29534832 3
1.7393823 -0.61868209 0.226677 11
1.7524742 -0.62333876 -0.22838317 4
1.7400669 -0.61926776 0.2925325 12
1.753067 -0.62423909 -0.16280691 5
1.7421192 -0.62068331 0.35948417 13
1.7383201 -0.61967164 -0.096716851 6
1.7591671 -0.62744927 -0.032601096 7
1.7431201 -0.62481385 0.032321859 8
1.7444547 -0.62563592 -0.42785689 1
1.7352471 -0.62233371 0.096612185 9
1.7407064 -0.6246345 -0.35948417 2
1.7420508 -0.62546015 0.16193536 10
1.7512352 -0.62910271 -0.29472256 3
1.7335848 -0.62310374 0.22618952 11
1.7447933 -0.62713242 -0.22765194 4
1.7342861 -0.62369758 0.29190674 12
1.7547368 -0.63139814 -0.16315554 5
1.7474401 -0.62911713 0.36101064 13
1.7362556 -0.62543279 -0.096716851 6
1.7457893 -0.62921131 -0.032391667 7
1.7447988 -0.63195282 0.032391667 8
1.7368196 -0.6297487 0.096821532 9
1.7367798 -0.62973428 -0.35910255 2
1.7324754 -0.6285156 0.16123812 10
1.7602806 -0.63895059 -0.29659978 3
1.7352407 -0.63020438 0.226677 11
1.7537879 -0.63728684 -0.22911438 4
1.7302419 -0.62907267 0.29159388 12
1.7376536 -0.63176733 -0.16176106 5
1.7453443 -0.63490838 0.36101064 13
1.7416793 -0.63391936 -0.097135544 6
1.7398247 -0.63393223 -0.032321859 7
1.7313156 -0.63391411 0.032182239 8
1.7346108 -0.63580739 0.096821532 9
1.7401011 -0.63781983 -0.3602474 2
1.7246592 -0.63250124 0.16071519 10
1.7469125 -0.64100832 -0.29472256 3
1.7423477 -0.63967848 0.22789569 11
1.7459626 -0.6413514 -0.22838317 4
1.7261814 -0.63442707 0.29128101 12
1.7316974 -0.6364544 -0.16141243 5
1.7320617 -0.63693142 0.35872093 13
1.7432048 -0.64137453 -0.09734489 6
1.7376012 -0.64000148 -0.032321859 7
1.7215908 -0.63717735 0.032042619 8
1.7418578 -0.64502406 0.09734489 9
1.7360231 -0.64320803 -0.35986578 2
1.7205728 -0.63782507 0.16054088 10
1.7372559 -0.64435458 -0.2934711 3
1.7252156 -0.64023119 0.22594579 11
1.75674 -0.6522789 -0.23008935 4
1.7203642 -0.63877255 0.29065526 12
1.7332007 -0.64388293 -0.16176106 5
1.7335083 -0.64434159 0.35948417 13
1.7297232 -0.6432783 -0.096716851 6
1.7467142 -0.64994425 -0.032531288 7
1.7269605 -0.64568412 0.032182239 8
1.7302428 -0.64759976 0.096821532 9
1.735606 -0.64995247 -0.3602474 2
1.7295301 -0.64802134 0.16158675 10
1.7369596 -0.650805 -0.29378396 3
1.7156478 -0.64316142 0.22497083 11
1.7341222 -0.65043235 -0.22740822 4
1.7218231 -0.64616197 0.29128101 12
1.7384036 -0.65273046 -0.1624583 5
1.7313621 -0.65008658 0.35948417 13
1.7238413 -0.64760596 -0.096507512 6
1.7463065 -0.65674132 -0.03256619 7
1.7340493 -0.65524256 0.032356761 8
1.7204995 -0.65080893 0.096402846 9
1.7316048 -0.65500969 -0.35986578 2
1.7273716 -0.65375316 0.16158675 10
1.7365246 -0.65756369 -0.29409683 3
1.7189614 -0.65125626 0.22570205 11
1.7281288 -0.65507436 -0.22692074 4
1.719557 -0.65216839 0.29128101 12
1.7380923 -0.65919816 -0.16263261 5
1.7364244 -0.65891224 0.36101064 13
1.7290391 -0.65645498 -0.096926205 6
1.7309188 -0.6578601 -0.032321859 7
1.7373558 -0.6634317 0.032461476 8
1.7219484 -0.65823692 0.096612185 9
1.7329755 -0.66245216 -0.36062902 2
1.7139137 -0.65550846 0.16054088 10
1.7471329 -0.66856313 -0.29628691 3
1.7166775 -0.65725249 0.22570205 11
1.7332466 -0.66394305 -0.22789569 4
1.7117364 -0.65604591 0.29034239 12
1.7301996 -0.66312212 -0.16210969 5
1.7322807 -0.66426665 0.36062902 13
1.7267371 -0.66248649 -0.096926205 6
1.7248783 -0.6624642 -0.032252047 7
1.7219701 -0.66445291 0.032217141 8
1.7252295 -0.66640258 0.096926205 9
1.7060397 -0.65933245 0.16001794 10
1.7300493 -0.66895843 -0.29378396 3
1.719927 -0.66538954 0.22643325 11
1.736472 -0.67213881 -0.22862691 4
1.7094359 -0.66201705 0.29034239 12
1.7223003 -0.66699904 -0.16158675 5
1.7318631 -0.67139769 -0.09734489 6
1.726284 -0.66992807 -0.032321859 7
1.7121878 -0.66755408 0.032077521 8
1.726614 -0.67387307 0.097135544 9
1.7130075 -0.66890717 0.16088949 10
1.7203437 -0.67211801 -0.2925325 3
1.7083496 -0.66777569 0.22521456 11
1.7341152 -0.67819613 -0.22862691 4
1.7052752 -0.66726017 0.29002953 12
1.7273833 -0.67591089 -0.16228399 5
1.7183506 -0.67306828 -0.096716851 6
1.7351052 -0.68032968 -0.032531288 7
1.7117076 -0.67425954 0.032112427 8
1.716819 -0.67696536 0.096716851 9
1.7125154 -0.67561376 0.16106381 10
1.7253369 -0.68102002 -0.29378396 3
1.6967765 -0.67008907 0.22399586 11
1.718814 -0.6791389 -0.22692074 4
1.7139578 -0.67756599 0.29190674 12
1.7231605 -0.68120402 -0.16210969 5
1.7048479 -0.67465287 -0.096088827 6
1.7290015 -0.68490916 -0.032461476 7
1.7149177 -0.68244857 0.032217141 8
1.7088792 -0.68073666 0.096402846 9
1.7138482 -0.68306273 0.16141243 10
1.7284536 -0.68923348 -0.29472256 3
1.7073337 -0.68115699 0.22570205 11
1.7127455 -0.68366277 -0.22643325 4
1.7079132 -0.68207943 0.29128101 12
1.7207721 -0.68721491 -0.16210969 5
1.7136099 -0.68504816 -0.096716851 6
1.7098912 -0.68425387 -0.032147333 7
1.7218019 -0.69215989 0.032391667 8
1.7083454 -0.68744326 0.096507512 9
1.7040606 -0.68606466 0.16071519 10
1.7123103 -0.6900807 0.226677 11
1.7121899 -0.6903795 -0.226677 4
1.6963623 -0.68434185 0.28971666 12
1.7072765 -0.6887449 -0.16106381 5
1.7075044 -0.68952984 -0.096507512 6
1.7093462 -0.69096774 -0.032182239 7
1.7082586 -0.69365191 0.032182239 8
1.7096359 -0.69490641 0.096716851 9
1.6905818 -0.68750536 0.15966932 10
1.7117296 -0.69680202 0.22692074 11
1.7226386 -0.70159328 -0.22838317 4
1.6939632 -0.69025916 0.28971666 12
1.7085522 -0.69620389 -0.16141243 5
1.7087857 -0.69699454 -0.096716851 6
1.7069238 -0.69693023 -0.032182239 7
1.6948475 -0.69476205 0.031972811 8
1.7147131 -0.7036047 0.097135544 9
1.6956649 -0.69613445 0.16036656 10
1.6965567 -0.69719267 0.22521456 11
1.7147948 -0.70503736 -0.22765194 4
1.6971453 -0.69812703 0.29065526 12
1.7099193 -0.70338166 -0.16176106 5
1.6990775 -0.69961548 -0.096298166 6
1.7083009 -0.7041108 -0.032252047 7
1.6979548 -0.70296872 0.032077521 8
1.6974858 -0.7034688 0.096298166 9
1.7005866 -0.70510149 0.16106381 10
1.6849455 -0.69930571 0.22399586 11
1.7049901 -0.70797378 -0.226677 4
1.6965225 -0.7048049 0.29096815 12
1.7037737 -0.70781738 -0.16141243 5
1.6929369 -0.70400834 -0.096088827 6
1.7132173 -0.71314353 -0.032391667 7
1.6991806 -0.7104342 0.032147333 8
1.6988289 -0.71063542 0.096507512 9
1.6981149 -0.7110334 0.16106381 10
1.6916481 -0.70901978 0.22521456 11
1.7006776 -0.7131533 -0.22643325 4
1.6905324 -0.70889902 0.29034239 12
1.7086416 -0.71684361 -0.16210969 5
1.697835 -0.71300679 -0.096507512 6
1.7071559 -0.71727163 -0.032321859 7
1.7023423 -0.71839738 0.032252047 8
1.7018574 -0.71889275 0.096821532 9
1.6809421 -0.71074927 0.15966932 10
1.6874593 -0.71385223 0.22497083 11
1.6825907 -0.71248507 0.2894038 12
1.6951216 -0.71814018 -0.16106381 5
1.699139 -0.72019196 -0.096716851 6
1.6935965 -0.71854019 -0.032112427 7
1.6924657 -0.72119963 0.032112427 8
1.6975006 -0.72404534 0.096716851 9
1.6822407 -0.71788347 0.16001794 10
1.6922596 -0.7228573 0.22594579 11
1.683726 -0.71990728 0.29002953 12
1.6982268 -0.72610736 -0.16158675 5
1.6984509 -0.72690457 -0.096821532 6
1.6984305 -0.7275973 -0.032252047 7
1.6881011 -0.72631264 0.032077521 8
1.7004659 -0.73233628 0.097030871 9
1.6833841 -0.72532803 0.16036656 10
1.6769663 -0.72325695 0.2242396 11
1.6848297 -0.727346 0.29065526 12
1.688365 -0.72887218 -0.16088949 5
1.6904029 -0.73045206 -0.096507512 6
1.6958803 -0.73352158 -0.032252047 7
1.6855555 -0.73220086 0.032077521 8
1.6887412 -0.73428559 0.096507512 9
1.684496 -0.73278934 0.16071519 10
1.6744314 -0.72910619 0.2242396 11
1.6877133 -0.73559052 0.29159388 12
1.6931162 -0.73794538 -0.16158675 5
1.6731977 -0.72995907 -0.095670134 6
1.70064 -0.74263787 -0.032391667 7
1.6939774 -0.74289894 0.032286953 8
1.6733661 -0.73455626 0.095774807 9
1.6819279 -0.73866487 0.16071519 10
1.6682417 -0.73334903 0.22375213 11
1.6742867 -0.73670387 0.28971666 12
1.7014719 -0.74866557 -0.16263261 5
1.6816065 -0.74062532 -0.096298166 6
1.6833988 -0.74211645 -0.032112427 7
1.6913739 -0.74880749 0.032286953 8
1.6707917 -0.74039304 0.095774807 9
1.6702322 -0.74049377 0.15984364 10
1.6693006 -0.74077809 0.2242396 11
1.6644838 -0.73933613 0.2884652 12
1.6970274 -0.75379145 -0.1624583 5
1.6826611 -0.74811357 -0.096507512 6
1.6734905 -0.74473608 -0.031972811 7
1.6850984 -0.75307512 0.032217141 8
1.6718435 -0.74785179 0.095984153 9
1.6658187 -0.74550563 0.15966932 10
1.6757629 -0.75065815 0.22545831 11
1.6745102 -0.750799 0.29065526 12
1.6763951 -0.75234705 -0.096298166 6
1.6800013 -0.75467008 -0.032147333 7
1.6642312 -0.75072992 0.031868093 8
1.6766362 -0.75667799 0.096402846 9
1.670469 -0.75459665 0.16036656 10
1.667706 -0.7540496 0.22472709 11
1.6630124 -0.75227702 0.28909093 12
1.6664815 -0.75489765 -0.09587948 6
1.6829535 -0.76271331 -0.032252047 7
1.6617326 -0.7562446 0.031868093 8
1.668532 -0.76004213 0.096088827 9
1.6678247 -0.76042312 0.16036656 10
1.659778 -0.75710422 0.22399586 11
1.667564 -0.7613591 0.29034239 12
1.663969 -0.76041979 -0.09587948 6
1.6784625 -0.76775151 -0.032217141 7
1.6645342 -0.76454455 0.031972811 8
1.6641876 -0.76473713 0.095984153 9
1.6652939 -0.76594961 0.16036656 10
1.6535189 -0.76123315 0.2235084 11
1.663236 -0.76605844 0.29002953 12
1.6758137 -0.77291536 -0.096716851 6
1.665013 -0.76828629 -0.032007713 7
1.672876 -0.77510405 0.032182239 8
1.6578841 -0.76886088 0.095774807 9
1.6553814 -0.76840252 0.15966932 10
1.6635883 -0.77256495 0.22521456 11
1.64443 -0.76436579 0.28721371 12
1.6641338 -0.77493775 -0.032042619 7
1.65748 -0.77500981 0.031937905 8
1.6588082 -0.77633655 0.095984153 9
1.6582373 -0.77642226 0.16019225 10
1.6518939 -0.7741552 0.22399586 11
1.638175 -0.76842344 0.28658798 12
1.6650381 -0.78244287 -0.032112427 7
1.6493393 -0.77823079 0.03183319 8
1.670536 -0.7889455 0.096821532 9
1.6589832 -0.78419775 0.16054088 10
1.6509761 -0.78076535 0.2242396 11
1.6659105 -0.78996372 -0.032182239 7
1.6573079 -0.78943038 0.032042619 8
1.646136 -0.78446138 0.095565468 9
1.6508408 -0.78741068 0.16001794 10
1.6337721 -0.77996939 0.22228971 11
1.6703583 -0.79922646 -0.032321859 7
1.6582859 -0.79665363 0.032112427 8
1.6433877 -0.79020268 0.095565468 9
1.6516726 -0.79489636 0.16036656 10
1.6419082 -0.79054993 0.22375213 11
1.6639566 -0.80331343 -0.032252047 7
1.6608933 -0.80505401 0.032217141 8
1.6478071 -0.79942149 0.095984153 9
1.6454428 -0.79862922 0.16001794 10
1.6427095 -0.79801124 0.2242396 11
1.6508874 -0.80733269 0.032077521 8
1.6450067 -0.80516851 0.095984153 9
1.6390663 -0.80261564 0.15966932 10
1.6452615 -0.80636138 0.22497083 11
1.6426793 -0.81043631 0.031972811 8
1.6459094 -0.81238705 0.096193492 9
1.6362548 -0.80833215 0.15966932 10
1.6335396 -0.80770034 0.22375213 11
1.6453538 -0.81855112 0.032077521 8
1.639488 -0.81634694 0.095984153 9
1.640556 -0.81759346 0.16036656 10
1.623746 -0.8095699 0.22277717 11
1.6317631 -0.81890786 0.031868093 8
1.6296321 -0.81819457 0.095565468 9
1.6360554 -0.82213473 0.16019225 10
1.6262306 -0.8179087 0.2235084 11
1.6356751 -0.82839 0.096088827 9
1.6278445 -0.82513821 0.15966932 10
1.6359025 -0.82958162 0.22521456 11
1.630704 -0.8337552 0.095984153 9
1.619343 -0.82865965 0.15914638 10
1.6360929 -0.83795178 0.22570205 11
1.6314806 -0.8409884 0.096193492 9
1.6218982 -0.83676559 0.15966932 10
1.6139029 -0.83335418 0.22302091 11
1.6249911 -0.84483564 0.095984153 9
1.6226497 -0.84397811 0.16001794 10
1.6146522 -0.84053475 0.2235084 11
1.6131879 -0.84586537 0.095460795 9
1.6267512 -0.85333925 0.16071519 10
1.6117084 -0.84616584 0.2235084 11
1.6167179 -0.85528564 0.16001794 10
1.6140078 -0.85457313 0.2242396 11
1.6047838 -0.85651487 0.15914638 10
1.6162683 -0.86300689 0.22497083 11
1.6123108 -0.86777693 0.16019225 10
1.6008608 -0.86233521 0.22326466 11
1.6040187 -0.87054855 0.15966932 10
1.5943521 -0.86602294 0.22277717 11
1.5887356 -0.86944681 0.15844914 10
1.6000246 -0.87635088 0.22399586 11
1.6005857 -0.88357067 0.22448336 11
1.5922881 -0.8862561 0.22375213 11
1.5893403 -0.89153147 0.22375213 11
