# .PCD v0.7 - Point Cloud Data file format
VERSION 0.7
FIELDS x y z intensity
SIZE 4 4 4 4
TYPE F F F F
COUNT 1 1 1 1
WIDTH 1331
HEIGHT 1
VIEWPOINT 0 0 0 1 0 0 0
POINTS 1331
DATA ascii
1.7695346 -0.011427315 -0.092739321 6
1.77184 -0.016081149 -0.28064346 3
1.7666538 -0.016650811 -0.21692745 4
1.7591989 -0.016887616 -0.15391703 5
1.7734784 -0.017643813 -0.092948668 6
1.7816342 -0.018346922 -0.031100187 7
1.7638721 -0.022166638 -0.279392 3
1.7705547 -0.022868756 -0.21741492 4
1.7531526 -0.022950025 -0.1533941 5
1.7654177 -0.023726938 -0.092529982 6
1.7675627 -0.024372878 -0.030855855 7
1.7519333 -0.028133262 -0.27751476 3
1.7664944 -0.028983876 -0.21692745 4
1.7510698 -0.029036498 -0.1532198 5
1.7613301 -0.029821627 -0.092320636 6
1.7534711 -0.030300818 -0.030611521 7
1.7557746 -0.034325708 -0.27814052 3
1.7544743 -0.034912948 -0.21546502 4
1.7589257 -0.035308644 -0.15391703 5
1.7492342 -0.035724945 -0.091692604 6
1.7613518 -0.03658751 -0.030751141 7
1.7556441 -0.040454291 -0.27814052 3
1.7503797 -0.040638652 -0.21497753 4
1.7587917 -0.041448224 -0.15391703 5
1.7451054 -0.041735187 -0.091483258 6
1.7552234 -0.042283688 -0.030646425 7
1.757154 -0.045092031 0.030681333 8
1.7555002 -0.046275996 -0.27814052 3
1.7462667 -0.046337586 -0.21449007 4
1.7427112 -0.046851996 -0.15252255 5
1.7489505 -0.047630683 -0.091692604 6
1.7430799 -0.047775254 -0.030436996 7
1.725013 -0.049991868 0.030122854 8
1.74349 -0.051745571 -0.2762633 3
1.7421259 -0.052313741 -0.21400258 4
1.7305881 -0.052571923 -0.15147668 5
1.7487736 -0.053735372 -0.091692604 6
1.7349075 -0.053612385 -0.030297378 7
1.7208209 -0.056183513 0.030053046 8
1.7393401 -0.058003757 -0.27563757 3
1.7538263 -0.05909973 -0.21546502 4
1.7383487 -0.059185676 -0.15217392 5
1.7405806 -0.059869952 -0.091273919 6
1.7466903 -0.060385324 -0.030506806 7
1.718605 -0.062417679 0.030018138 8
1.7391158 -0.064378366 -0.27563757 3
1.7377281 -0.064934418 -0.2135151 4
1.7341497 -0.065103792 -0.15182531 5
1.728386 -0.065491594 -0.090645887 6
1.7424608 -0.066634037 -0.030436996 7
1.7183766 -0.06841635 0.030018138 8
1.7262374 -0.069332853 0.090541214 9
1.7388805 -0.070448622 -0.27563757 3
1.7295572 -0.070675634 -0.21254015 4
1.7339119 -0.07115671 -0.15182531 5
1.7321379 -0.071689568 -0.090855226 6
1.73023 -0.072215609 -0.030227568 7
1.7221231 -0.074587248 0.03008795 8
1.7219942 -0.075183883 0.090331867 9
1.7319037 -0.075616546 -0.33696869 2
1.7346771 -0.076344319 -0.27501184 3
1.7292999 -0.076712482 -0.21254015 4
1.729672 -0.077031463 -0.15147668 5
1.7318772 -0.077735424 -0.090855226 6
1.7259719 -0.07807406 -0.030157758 7
1.7118646 -0.080130607 0.029913425 8
1.7157359 -0.080912061 0.090017848 9
1.7237849 -0.081291638 -0.33544225 2
1.7304536 -0.082211524 -0.27438608 3
1.7329872 -0.082938187 -0.21302763 4
1.7214323 -0.082686327 -0.15077944 5
1.7315953 -0.083780333 -0.090855226 6
1.7256888 -0.084098354 -0.030157758 7
1.705583 -0.085804224 0.029808709 8
1.7214425 -0.086903289 0.090331867 9
1.7195691 -0.087109618 -0.33467901 2
1.7222649 -0.087848909 -0.27313459 3
1.7287377 -0.088481583 -0.21254015 4
1.7211332 -0.088694744 -0.15077944 5
1.7193248 -0.089203313 -0.090227202 6
1.7254004 -0.089820482 -0.030157758 7
1.7052891 -0.091459677 0.029808709 8
1.7111729 -0.092074759 0.089808509 9
1.734954 -0.09365806 -0.33773196 2
1.7089581 -0.092553861 0.14973356 10
1.7180192 -0.093345329 -0.27250886 3
1.7145598 -0.09345749 -0.21083398 4
1.7168506 -0.09418346 -0.15043081 5
1.715031 -0.094684109 -0.090017848 6
1.7290864 -0.095762789 -0.030227568 7
1.7069727 -0.097227827 0.029843615 8
1.7028651 -0.097590216 0.089389823 9
1.7150335 -0.098287582 -0.33391577 2
1.7066529 -0.098106124 0.14955924 10
1.7216443 -0.099269383 -0.27313459 3
1.7102596 -0.099211931 -0.21034651 4
1.7205071 -0.10010768 -0.15077944 5
1.7147076 -0.10037083 -0.090017848 6
1.7087795 -0.10062236 -0.029878521 7
1.7086192 -0.10330638 0.029878521 8
1.7065014 -0.10377619 0.08959917 9
1.7107607 -0.10403521 -0.33315253 2
1.692379 -0.10321385 0.14833906 10
1.717344 -0.10503726 -0.27250886 3
1.711884 -0.10530312 -0.21059024 4
1.7082155 -0.10537672 -0.14973356 5
1.7143469 -0.10635567 -0.090017848 6
1.7044261 -0.10633746 -0.029808709 7
1.6922833 -0.10824872 0.029599281 8
1.710115 -0.10998873 0.089808509 9
1.7103871 -0.11000624 -0.33315253 2
1.6820672 -0.1084796 0.14746751 10
1.7051394 -0.11026641 -0.27063167 3
1.7095252 -0.11114929 -0.21034651 4
1.6998651 -0.11111709 -0.14903632 5
1.7099793 -0.11207797 -0.089808509 6
1.7080353 -0.11254935 -0.029878521 7
1.6859095 -0.11375138 0.029494567 8
1.7097206 -0.11595749 0.089808509 9
1.7099725 -0.11627439 -0.33315253 2
1.6796706 -0.11450845 0.1472932 10
1.6968406 -0.11597651 -0.26938018 3
1.7091472 -0.11681765 0.21034651 11
1.7111071 -0.11725166 -0.21059024 4
1.7034423 -0.11732385 -0.14938495 5
1.7015871 -0.11779287 -0.089389823 6
1.7076319 -0.11851081 -0.029878521 7
1.6914653 -0.12035556 0.029599281 8
1.6893834 -0.12050379 0.088761792 9
1.7056398 -0.12196255 -0.3323893 2
1.6852224 -0.12079824 0.14781614 10
1.7043067 -0.12246522 -0.27063167 3
1.6730683 -0.12051406 0.2059592 11
1.6987864 -0.12266462 -0.20912781 4
1.6990479 -0.12298159 -0.14903632 5
1.6931975 -0.12315225 -0.088971131 6
1.7072079 -0.12447083 -0.029878521 7
1.6870685 -0.1256669 0.029529471 8
1.6829773 -0.12595291 0.088447772 9
1.701288 -0.12762189 -0.33162606 2
1.6808169 -0.12638125 0.14746751 10
1.7078308 -0.12841244 -0.2712574 3
1.6785979 -0.12650904 0.20669043 11
1.6963909 -0.12814778 -0.20888408 4
1.7025816 -0.12921315 -0.14938495 5
1.6887968 -0.12846345 -0.088761792 6
1.6908119 -0.12921037 -0.029599281 7
1.6906068 -0.13186613 0.029599281 8
1.6905152 -0.13215584 0.088866465 9
1.6930265 -0.13264947 -0.33009958 2
1.6724435 -0.13133046 0.14677027 10
1.7073722 -0.13437311 -0.2712574 3
1.674188 -0.13205546 0.20620294 11
1.6959332 -0.1340685 -0.20888408 4
1.6941992 -0.13422897 -0.14868769 5
1.6963019 -0.13499142 -0.089180477 6
1.6943609 -0.13513456 -0.029669091 7
1.684181 -0.13698532 0.029494567 8
1.688053 -0.13789342 0.088761792 9
1.6886398 -0.13823804 -0.32933635 2
1.6620462 -0.13635303 0.1458987 10
1.6951046 -0.13906513 -0.26938018 3
1.6796763 -0.13809453 0.20693417 11
1.6994361 -0.14001769 -0.20937155 4
1.6832194 -0.13897735 0.26750296 12
1.6818068 -0.13915627 -0.14764182 5
1.695845 -0.14061584 -0.089180477 6
1.6859076 -0.14038439 -0.029529471 7
1.6796826 -0.14281841 0.029424759 8
1.6915162 -0.14441934 0.088971131 9
1.6920592 -0.14446568 -0.33009958 2
1.6655306 -0.1424935 0.14624733 10
1.6827744 -0.14426465 -0.26750296 3
1.6692699 -0.14340039 0.20571546 11
1.6969336 -0.14607525 -0.20912781 4
1.6689223 -0.14395742 0.26531288 12
1.6892252 -0.14600573 -0.14833906 5
1.6833793 -0.14579645 -0.088552445 6
1.6973349 -0.14760207 -0.029738901 7
1.6692142 -0.14779887 0.029250234 8
1.677076 -0.14908499 0.088238433 9
1.6876073 -0.15031804 -0.32933635 2
1.6590434 -0.14806567 0.1457244 10
1.6861696 -0.15078326 -0.26812872 3
1.6608503 -0.14851911 0.20474051 11
1.6786188 -0.15040337 -0.20693417 4
1.6605399 -0.14907566 0.26406142 12
1.6887053 -0.15190133 -0.14833906 5
1.6788553 -0.15160611 -0.088343106 6
1.6928262 -0.15316559 -0.029669091 7
1.6766263 -0.15465052 0.029389855 8
1.6685634 -0.15449421 0.087819748 9
1.6831626 -0.15584597 -0.32857311 2
1.6664521 -0.15459208 0.14642164 10
1.6856329 -0.15666817 -0.26812872 3
1.6622713 -0.15478949 0.20498425 11
1.6741034 -0.15618601 -0.20644669 4
1.652115 -0.15442547 0.26280993 12
1.6881647 -0.15779509 -0.14833906 5
1.6743389 -0.15709233 -0.08813376 6
1.6803081 -0.15824412 -0.029459663 7
1.6760764 -0.16050211 0.029389855 8
1.6954145 -0.16265258 -0.39321443 1
1.6680138 -0.16031764 0.087819748 9
1.6630657 -0.15984206 -0.32475692 2
1.6559862 -0.15945333 0.14555009 10
1.6850758 -0.16255116 -0.26812872 3
1.6656728 -0.16097288 0.20547174 11
1.6695963 -0.16164619 -0.2059592 4
1.6417352 -0.15923798 0.26124558 12
1.6757053 -0.16253287 -0.1472932 5
1.6817317 -0.16370995 -0.088552445 6
1.6678042 -0.16294189 -0.029250234 7
1.6655561 -0.16536388 0.029215328 8
1.6832016 -0.16741246 -0.39051503 1
1.6674441 -0.16613914 0.087819748 9
1.6742191 -0.16681418 -0.32704663 2
1.6514544 -0.16483708 0.14520147 10
1.6805669 -0.16803913 -0.26750296 3
1.6631255 -0.16658832 0.205228 11
1.6690217 -0.16747318 -0.2059592 4
1.6470658 -0.16556041 0.2621842 12
1.6671981 -0.16758408 -0.14659595 5
1.6759969 -0.16876401 0.32742825 13
1.68115 -0.1695793 -0.088552445 6
1.6712042 -0.16916537 -0.029320043 7
1.6530336 -0.16994968 0.0290059 8
1.667099 -0.17168979 -0.3869158 1
1.6708274 -0.17236848 0.088029087 9
1.6736267 -0.17265727 -0.32704663 2
1.6429416 -0.16978151 0.14450422 10
1.6642512 -0.17227721 -0.26500002 3
1.6487122 -0.1709595 0.20352182 11
1.6763248 -0.17411846 -0.20693417 4
1.6484425 -0.17151317 0.26249707 12
1.6705664 -0.17381506 -0.14694458 5
1.6461074 -0.17156063 0.321704 13
1.6646562 -0.17378752 -0.087715074 6
1.6785589 -0.17583127 -0.029459663 7
1.6564074 -0.17614172 0.02907571 8
1.6606762 -0.17688881 -0.38556612 1
1.6603165 -0.17685048 0.087505728 9
1.674966 -0.17870656 -0.32742825 2
1.6502634 -0.17636229 0.14520147 10
1.667568 -0.17850597 -0.26562575 3
1.642184 -0.17607863 0.2027906 11
1.6638646 -0.17869702 -0.20547174 4
1.6498289 -0.1771896 0.26280993 12
1.6699495 -0.17964536 -0.14694458 5
1.6611142 -0.17898819 0.32475692 13
1.6600679 -0.17916855 -0.087505728 6
1.6779666 -0.1813966 -0.029459663 7
1.6617774 -0.18228772 0.029180422 8
1.6562063 -0.18196917 -0.38466629 1
1.6497626 -0.18155262 0.086982369 9
1.6606719 -0.1830465 -0.32475692 2
1.6476573 -0.18190305 0.14502715 10
1.6748208 -0.18490192 -0.26687723 3
1.6475103 -0.18217789 0.20352182 11
1.6553707 -0.18333951 -0.20449677 4
1.6413469 -0.18207632 0.26155844 12
1.6653517 -0.18503343 -0.14659595 5
1.6566089 -0.18406205 0.32399368 13
1.6594647 -0.18467255 -0.087505728 6
1.6614243 -0.18547779 -0.029180422 7
1.6611309 -0.18808733 0.029180422 8
1.6594337 -0.18818849 -0.38556612 1
1.6550725 -0.18798646 0.087296382 9
1.6522529 -0.18766622 -0.32323048 2
1.6450654 -0.18714067 0.14485285 10
1.6663144 -0.18985254 -0.26562575 3
1.6527814 -0.18860285 0.20425305 11
1.6586651 -0.18956754 -0.20498425 4
1.6308886 -0.18668135 0.25999412 12
1.656778 -0.18993777 -0.1458987 5
1.6598574 -0.19029079 0.32475692 13
1.6627784 -0.1909197 -0.087715074 6
1.6572001 -0.19057226 0.38511622 14
1.6607667 -0.19127609 -0.029180422 7
1.6525193 -0.19295691 0.029040804 8
1.6568311 -0.1937535 -0.38511622 1
1.6603572 -0.19445959 0.087610394 9
1.6476542 -0.19326335 -0.32246721 2
1.6344748 -0.19200663 0.14398128 10
1.6577599 -0.19503537 -0.26437429 3
1.6481699 -0.1939071 0.20376556 11
1.6579932 -0.19535621 -0.20498425 4
1.6341506 -0.19283609 0.26061985 12
1.6561049 -0.19571984 -0.1458987 5
1.6435516 -0.19452715 0.321704 13
1.6501672 -0.19560219 -0.087087035 6
1.6487499 -0.19572601 0.38331661 14
1.660089 -0.19707209 -0.029180422 7
1.6359185 -0.19709884 0.028761568 8
1.6541752 -0.19959132 -0.38466629 1
1.6497539 -0.19905786 0.087087035 9
1.6547658 -0.19995563 -0.32399368 2
1.6318164 -0.19747148 0.14380698 10
1.6531469 -0.20034552 -0.26374856 3
1.6356243 -0.1985116 0.20230313 11
1.6651838 -0.20209917 -0.2059592 4
1.6334676 -0.19853915 0.26061985 12
1.6475006 -0.20053659 -0.14520147 5
1.6389649 -0.1997879 0.32094073 13
1.6455094 -0.20087713 -0.086877696 6
1.6519605 -0.20166467 0.3842164 14
1.6633608 -0.20335102 -0.029250234 7
1.6273178 -0.20153953 0.028621947 8
1.6380329 -0.20315684 -0.3810671 1
1.6332282 -0.20256095 0.086249664 9
1.6540936 -0.20544194 -0.32399368 2
1.6390613 -0.20386536 0.14450422 10
1.6485529 -0.20533812 -0.2631228 3
1.6310173 -0.20344304 0.20181565 11
1.6448061 -0.20516297 -0.20352182 4
1.6367204 -0.20444451 0.26124558 12
1.6507804 -0.20649336 -0.14555009 5
1.6421895 -0.20570984 0.321704 13
1.6369072 -0.20533834 -0.086459011 6
1.6377475 -0.20544377 0.3810671 14
1.6666455 -0.20936428 -0.029320043 7
1.6345754 -0.20794424 0.028761568 8
1.6392833 -0.20883393 -0.38151699 1
1.6265675 -0.20750251 0.085935652 9
1.637787 -0.2092243 -0.32094073 2
1.6363999 -0.20904709 0.14432991 10
1.6478629 -0.21080381 -0.2631228 3
1.6303337 -0.20885056 0.20181565 11
1.6401421 -0.210398 -0.20303436 4
1.6242411 -0.2086464 0.25936839 12
1.6540017 -0.21276282 -0.1458987 5
1.637567 -0.21093926 0.32094073 13
1.6361805 -0.21105097 -0.086459011 6
1.6273569 -0.20991282 0.37881759 14
1.6500387 -0.21313134 -0.029040804 7
1.6338022 -0.21393386 0.028761568 8
1.6365746 -0.21458742 -0.3810671 1
1.6297566 -0.21398279 0.086144991 9
1.6331162 -0.21471386 -0.32017753 2
1.6277212 -0.21400455 0.14363267 10
1.6509963 -0.2173578 -0.26374856 3
1.6256212 -0.21430573 0.20132817 11
1.63936 -0.21640801 -0.20303436 4
1.6097571 -0.21278608 0.25717828 12
1.6374097 -0.21673213 -0.14450422 5
1.6406753 -0.21745573 0.321704 13
1.6433156 -0.21809755 -0.086877696 6
1.6265765 -0.21587598 0.37881759 14
1.6413175 -0.21812387 -0.028901186 7
1.6392148 -0.2181356 0.44309825 15
1.6250799 -0.21885301 0.028621947 8
1.6357771 -0.22058432 -0.3810671 1
1.6250027 -0.21942019 0.085935652 9
1.6362479 -0.22093859 -0.32094073 2
1.6210026 -0.21916816 0.14310972 10
1.6423584 -0.22234747 -0.26249707 3
1.6326932 -0.22132914 0.20230313 11
1.6464238 -0.22348313 -0.20400929 4
1.6167959 -0.21974884 0.25842977 12
1.6366432 -0.2224464 -0.14450422 5
1.6282344 -0.22159295 0.31941426 13
1.6385863 -0.2232931 -0.086668357 6
1.6257744 -0.22183624 0.37881759 14
1.6444695 -0.22467951 -0.028970996 7
1.61735 -0.22126181 0.43740419 15
1.6124207 -0.22288142 0.028412517 8
1.6330668 -0.22602573 -0.38061717 1
1.6281836 -0.22563949 0.086144991 9
1.6432453 -0.22772682 -0.32246721 2
1.6143072 -0.22400361 0.14258678 10
1.6357025 -0.22726348 -0.26155844 3
1.62208 -0.22565931 0.20108443 11
1.6613628 -0.23141983 -0.2059592 4
1.6121061 -0.22484545 0.25780404 12
1.6358566 -0.22815801 -0.14450422 5
1.6216179 -0.22646061 0.31826943 13
1.6259288 -0.22735195 -0.086040318 6
1.62885 -0.22805028 0.37971738 14
1.6436752 -0.23041844 -0.028970996 7
1.6299596 -0.22878575 0.44102767 15
1.6235124 -0.23019281 0.028621947 8
1.6187621 -0.22980751 -0.37746787 1
1.6234716 -0.2304761 0.085935652 9
1.638553 -0.23290887 -0.321704 2
1.6214055 -0.23076013 0.14328404 10
1.6368548 -0.23325038 -0.26187131 3
1.6134216 -0.2301985 0.20010948 11
1.6291431 -0.2324416 -0.20205939 4
1.6172181 -0.23102821 0.25874263 12
1.6311055 -0.23330259 -0.14415559 5
1.6208175 -0.23211974 0.31826943 13
1.6172171 -0.23189217 -0.085621633 6
1.6203687 -0.23234408 0.37791777 14
1.642902 -0.23586778 -0.028970996 7
1.6330162 -0.23473936 0.44206294 15
1.6187822 -0.23500074 0.028552137 8
1.6218481 -0.23573484 -0.37836766 1
1.6108395 -0.23413475 0.08530762 9
1.6261148 -0.23664483 -0.31941426 2
1.6127449 -0.2349866 0.14258678 10
1.6380272 -0.23896231 -0.2621842 3
1.6185421 -0.23640825 0.2008407 11
1.6283633 -0.23784275 -0.20205939 4
1.6066703 -0.23496062 0.25717828 12
1.6382084 -0.23986483 -0.14485285 5
1.6297512 -0.2389171 0.32017753 13
1.6203914 -0.23783386 -0.085830979 6
1.611877 -0.23658414 0.37611815 14
1.6302403 -0.23957011 -0.028761568 7
1.626495 -0.23930973 0.44051 15
1.62195 -0.24095522 0.028621947 8
1.622985 -0.2413985 -0.37881759 1
1.6198897 -0.24122712 0.085830979 9
1.6253213 -0.24203596 -0.31941426 2
1.6040745 -0.23915812 0.14188954 10
1.6313645 -0.24351798 -0.26124558 3
1.6138226 -0.24118739 0.20035322 11
1.6314496 -0.24411286 -0.20254686 4
1.5823973 -0.23705557 0.25342387 12
1.6255815 -0.24352491 -0.14380698 5
1.62895 -0.24432023 0.32017753 13
1.6195937 -0.24320598 -0.085830979 6
1.6110413 -0.24220923 0.37611815 14
1.6254393 -0.24466395 -0.028691756 7
1.6199189 -0.24412218 0.43895712 15
1.6119797 -0.24494022 -0.43688658 0
1.6072603 -0.24451014 0.028377613 8
1.627912 -0.24794257 -0.38016728 1
1.6249611 -0.24778329 0.086144991 9
1.6167033 -0.2465241 -0.31788781 2
1.5992907 -0.24415454 0.14154093 10
1.6265992 -0.2486141 -0.26061985 3
1.614933 -0.24711947 0.20059694 11
1.6305875 -0.2498062 -0.20254686 4
1.5952281 -0.2446741 0.25561395 12
1.6129055 -0.24738544 -0.14276111 5
1.6164442 -0.24821699 0.31788781 13
1.6266314 -0.25007188 -0.086249664 6
1.6101861 -0.24783134 0.37611815 14
1.6245753 -0.25033632 -0.028691756 7
1.605692 -0.24771342 0.43533364 15
1.6263862 -0.25294065 -0.44102767 0
1.6004694 -0.24919607 0.028272899 8
1.6154838 -0.25182262 -0.37746787 1
1.6142194 -0.25191414 0.085621633 9
1.6119093 -0.25184181 -0.31712458 2
1.6023659 -0.25035077 0.14188954 10
1.6179149 -0.2530694 -0.25936839 3
1.6003324 -0.25060534 0.19889079 11
1.6316668 -0.25580394 -0.2027906 4
1.6002188 -0.25115988 0.25655255 12
1.6198609 -0.25453246 -0.14345835 5
1.6038871 -0.25230932 0.3155981 13
1.6099203 -0.25354636 -0.085412286 6
1.6131612 -0.25405678 0.37701797 14
1.6276423 -0.25662851 -0.028761568 7
1.6086341 -0.25391927 0.43636894 15
1.6197248 -0.25798833 -0.43947476 0
1.6034948 -0.25569019 0.028342709 8
1.6030037 -0.25589877 -0.37476847 1
1.5994797 -0.25562254 0.084888928 9
1.6187299 -0.25898877 -0.31865105 2
1.6014374 -0.25622207 0.14188954 10
1.6169765 -0.25899762 -0.25936839 3
1.5876427 -0.25458336 0.19742836 11
1.6130782 -0.25895083 -0.20059694 4
1.591486 -0.25576952 0.25530109 12
1.618917 -0.26046783 -0.14345835 5
1.6107047 -0.25943494 0.31712458 13
1.5971495 -0.25753763 -0.084784262 6
1.6006758 -0.25810623 0.37431854 14
1.630639 -0.26322976 -0.028831376 7
1.6076926 -0.25981349 0.43636894 15
1.6206748 -0.26423404 -0.4399924 0
1.5985997 -0.26092133 0.028272899 8
1.6020551 -0.26177236 -0.37476847 1
1.598532 -0.26148319 0.084888928 9
1.6100199 -0.26365086 -0.31712458 2
1.6044201 -0.26273385 0.14223817 10
1.6160163 -0.26492244 -0.25936839 3
1.586699 -0.26040065 0.19742836 11
1.6121184 -0.26486132 -0.20059694 4
1.5963855 -0.26256263 0.25623968 12
1.6179515 -0.26639971 -0.14345835 5
1.6097429 -0.26533672 0.31712458 13
1.600136 -0.26404008 -0.084993601 6
1.5958736 -0.26333675 0.37341875 14
1.6178255 -0.26724911 -0.028621947 7
1.6105413 -0.26633462 0.43740419 15
1.6158845 -0.26953664 -0.43895712 0
1.6035498 -0.2677668 0.028377613 8
1.608773 -0.26892763 -0.37656805 1
1.6054424 -0.26865891 0.08530762 9
1.6090428 -0.26955014 -0.31712458 2
1.5877262 -0.26597914 0.14084367 10
1.6150345 -0.27084363 -0.25936839 3
1.5916069 -0.26720044 0.19815956 11
1.609179 -0.27043924 -0.20035322 4
1.5837244 -0.26644555 0.25436246 12
1.6091055 -0.27100444 -0.14276111 5
1.6087596 -0.27123496 0.31712458 13
1.6109738 -0.27189744 -0.085621633 6
1.5948976 -0.26918414 0.37341875 14
1.6089481 -0.27184436 -0.028482327 7
1.6019353 -0.27094704 0.43533364 15
1.6055548 -0.27271235 -0.43636894 0
1.5909199 -0.27051222 0.028168185 8
1.6156524 -0.27500778 -0.37836766 1
1.5987315 -0.27241471 0.084993601 9
1.6063008 -0.27399296 -0.31674296 2
1.583002 -0.27001879 0.14049506 10
1.6064349 -0.27430439 -0.2581169 3
1.5849371 -0.27091825 0.19742836 11
1.6103262 -0.27554739 -0.20059694 4
1.586821 -0.27181038 0.25498822 12
1.6082942 -0.27577755 -0.14276111 5
1.6040781 -0.27534279 0.31636134 13
1.6101601 -0.27667609 -0.085621633 6
1.5979332 -0.27457514 0.37431854 14
1.6120758 -0.27729499 -0.028552137 7
1.5935088 -0.2743876 0.43326309 15
1.6045445 -0.27859518 -0.43636894 0
1.5859774 -0.27565655 0.028098376 8
1.5954347 -0.27758718 -0.37386864 1
1.6016576 -0.2789579 0.08520294 9
1.6014175 -0.2792041 -0.31597972 2
1.5820017 -0.27581897 0.14049506 10
1.6054188 -0.28019041 -0.2581169 3
1.5722005 -0.2746757 0.19596592 11
1.6132164 -0.28213164 -0.20108443 4
1.5877597 -0.27796519 0.25530109 12
1.6072726 -0.28167039 -0.14276111 5
1.5953231 -0.27986327 0.31483486 13
1.5973322 -0.28050312 -0.084993601 6
1.596916 -0.28043002 0.37431854 14
1.6110487 -0.28320163 -0.028552137 7
1.5924925 -0.28022623 0.43326309 15
1.607317 -0.28514916 -0.43740419 0
1.5829875 -0.28111795 0.028063469 8
1.5905694 -0.28275076 -0.37296885 1
1.5888262 -0.28272697 0.084574915 9
1.6004332 -0.28479239 -0.31597972 2
1.5888263 -0.28301305 0.1411923 10
1.6043811 -0.2860727 -0.2581169 3
1.5750917 -0.28113389 0.19645341 11
1.6004467 -0.28594762 -0.19962201 4
1.5731186 -0.28134832 0.25311098 12
1.5984346 -0.28587604 -0.14206386 5
1.5943365 -0.28543025 0.31483486 13
1.5845478 -0.28396323 -0.084365569 6
1.5920414 -0.28559294 0.37341875 14
1.6178727 -0.29051825 -0.028691756 7
1.5952576 -0.28674468 0.43429837 15
1.6101137 -0.29144621 -0.43843949 0
1.5878996 -0.28771144 0.028168185 8
1.5934075 -0.2889967 -0.37386864 1
1.579969 -0.28684419 0.084156223 9
1.5917026 -0.28897443 -0.31445324 2
1.576067 -0.2864199 0.14014643 10
1.6033727 -0.29167128 -0.2581169 3
1.5623829 -0.28449652 0.19499096 11
1.5955329 -0.29082054 -0.19913453 4
1.5604671 -0.2847105 0.25123379 12
1.6091871 -0.29359958 -0.14310972 5
1.5933305 -0.29099378 0.31483486 13
1.5835469 -0.28949261 -0.084365569 6
1.5833671 -0.28974533 0.37161914 14
1.5971791 -0.29256094 -0.028342709 7
1.5942469 -0.29231143 0.43429837 15
1.5976881 -0.29496044 -0.43533364 0
1.5947512 -0.29470605 0.028307803 8
1.5943052 -0.29491141 -0.37431854 1
1.5829371 -0.29280856 0.084365569 9
1.5829624 -0.29309899 -0.31292677 2
1.5789756 -0.29264581 0.14049506 10
1.6081715 -0.29834732 -0.25905553 3
1.5808976 -0.29357284 0.19742836 11
1.5945597 -0.29610988 -0.19913453 4
1.549804 -0.28807858 0.24966943 12
1.5963999 -0.29702815 -0.14206386 5
1.5961651 -0.29727268 0.3155981 13
1.5903804 -0.29648256 -0.084784262 6
1.5785661 -0.29428008 0.37071934 14
1.5922686 -0.29712212 -0.028272899 7
1.5932689 -0.29759654 0.43429837 15
1.5853097 -0.29811478 -0.43222782 0
1.5760785 -0.29666367 0.02799366 8
1.5971487 -0.30091834 -0.37521836 1
1.5858829 -0.29879576 0.084574915 9
1.5839109 -0.2987105 -0.31330839 2
1.5701653 -0.29640198 0.13979781 10
1.589704 -0.3003777 -0.25623968 3
1.5682123 -0.29660028 0.19596592 11
1.59747 -0.30213389 -0.19962201 4
1.5740719 -0.29799306 0.25373673 12
1.5875759 -0.30083656 -0.14136662 5
1.5835973 -0.30036899 0.31330839 13
1.593313 -0.30249992 -0.084993601 6
1.5814106 -0.30024016 0.37161914 14
1.5991327 -0.30389398 -0.028412517 7
1.5770905 -0.29999036 0.43015727 15
1.591902 -0.30482349 -0.43429837 0
1.5672302 -0.30038282 0.02785404 8
1.582745 -0.30364287 -0.37206903 1
1.5809073 -0.30357641 0.084365569 9
1.5828587 -0.30423757 -0.31330839 2
1.5652604 -0.30085504 0.13944918 10
1.5848197 -0.30490127 -0.25561395 3
1.5652708 -0.30142361 0.19572218 11
1.600304 -0.30845964 -0.20010948 4
1.5575051 -0.30049208 0.25123379 12
1.5865161 -0.30637643 -0.14136662 5
1.574829 -0.30440459 0.31178191 13
1.5765601 -0.30502468 -0.084156223 6
1.5803529 -0.30575848 0.37161914 14
1.5941356 -0.30871379 -0.028342709 7
1.579827 -0.30622888 0.43119255 15
1.588878 -0.31028581 -0.43378076 0
1.5680814 -0.30650863 0.027888944 8
1.5739715 -0.30794519 -0.37026942 1
1.5719439 -0.30783337 0.083946884 9
1.5894393 -0.31154752 -0.31483486 2
1.5700128 -0.30773973 0.13997212 10
1.5836915 -0.31070787 -0.25561395 3
1.5583118 -0.30601105 0.19499096 11
1.5913714 -0.31279156 -0.19913453 4
1.5563934 -0.3061986 0.25123379 12
1.5853825 -0.31218922 -0.14136662 5
1.5775551 -0.31093389 0.31254515 13
1.5754316 -0.31080103 -0.084156223 6
1.575398 -0.31079438 0.37071934 14
1.6047645 -0.3168788 -0.028552137 7
1.578694 -0.31201717 0.43119255 15
1.599098 -0.31837049 -0.43688658 0
1.5708697 -0.31303543 0.027958756 8
1.5747435 -0.31409317 -0.37071934 1
1.5688466 -0.31320173 0.08384221 9
1.5767906 -0.31478766 -0.31254515 2
1.5786433 -0.31544405 0.14084367 10
1.586416 -0.31728512 -0.25623968 3
1.5630193 -0.31288949 0.19572218 11
1.5863215 -0.31784216 -0.19864705 4
1.5436399 -0.30957055 0.24935657 12
1.5823296 -0.31732962 -0.1411923 5
1.5803097 -0.31721145 0.31330839 13
1.5704209 -0.31551158 -0.083946884 6
1.5666062 -0.31502968 0.36891973 14
1.5918299 -0.32039103 -0.028342709 7
1.5775398 -0.31780127 0.43119255 15
1.580937 -0.32049605 -0.43222782 0
1.5697674 -0.31851688 0.027958756 8
1.5793667 -0.3207517 -0.37206903 1
1.5638292 -0.31788039 0.083632864 9
1.5718343 -0.3195076 -0.31178191 2
1.5619133 -0.31777483 0.13944918 10
1.58917 -0.32360914 -0.25686541 3
1.5658078 -0.31913641 0.19620967 11
1.5813123 -0.32258394 -0.19815956 4
1.5425498 -0.31495693 0.24935657 12
1.5792601 -0.32245243 -0.14101799 5
1.5830398 -0.32351199 0.31407163 13
1.577137 -0.32259244 -0.084365569 6
1.5693152 -0.32127792 0.36981952 14
1.57503 -0.3227343 -0.028063469 7
1.5726358 -0.32252976 0.43015727 15
1.5779166 -0.32562214 -0.43171018 0
1.5608126 -0.32237655 0.027819136 8
1.5782374 -0.32626274 -0.37206903 1
1.5666783 -0.32387319 0.08384221 9
1.5668644 -0.32419682 -0.31101868 2
1.5490886 -0.32080081 0.13840331 10
1.5802939 -0.32755077 -0.25561395 3
1.5607969 -0.32379368 0.19572218 11
1.5841213 -0.32863244 -0.19864705 4
1.5376287 -0.31926727 0.24873082 12
1.5644701 -0.3251254 -0.13979781 5
1.5703682 -0.32663709 0.31178191 13
1.5720905 -0.32728153 -0.084156223 6
1.5644256 -0.32568583 0.36891973 14
1.5856969 -0.33040294 -0.028272899 7
1.563993 -0.32616541 0.4280867 15
1.5806094 -0.33164629 -0.43274546 0
1.5499499 -0.32549569 0.027644612 8
1.5637975 -0.32868871 -0.36891973 1
1.5753685 -0.33112079 0.084365569 9
1.5734655 -0.3310076 -0.31254515 2
1.5538653 -0.32716754 0.13892625 10
1.5598696 -0.32871607 -0.25248525 3
1.5500027 -0.32691935 0.19450349 11
1.5830228 -0.33388379 -0.19864705 4
1.5384942 -0.32477251 0.2490437 12
1.5692314 -0.33154714 -0.14032075 5
1.5615933 -0.33021811 0.31025544 13
1.5670886 -0.3316659 -0.083946884 6
1.570963 -0.33248588 0.37071934 14
1.58068 -0.3348307 -0.028203089 7
1.574242 -0.33375403 0.43119255 15
1.5757222 -0.33608004 -0.43171018 0
1.5547289 -0.33188614 0.027749326 8
1.5607932 -0.33346549 -0.36846983 1
1.5585783 -0.33327672 0.083528191 9
1.5723592 -0.33622357 -0.31254515 2
1.55472 -0.33273551 0.13910057 10
1.5664973 -0.33554196 -0.25373673 3
1.5372641 -0.32956085 0.19304106 11
1.574084 -0.33774173 -0.1976721 4
1.5431452 -0.33138514 0.2499823 12
1.5642273 -0.33591244 -0.13997212 5
1.5604897 -0.33539471 0.31025544 13
1.5581698 -0.33518064 -0.083528191 6
1.5583622 -0.33550662 0.36801991 14
1.5873209 -0.34203115 -0.028342709 7
1.5730673 -0.33924714 0.43119255 15
1.5820913 -0.34321657 -0.43378076 0
1.5555151 -0.33773541 0.027784232 8
1.5596197 -0.33891162 -0.36846983 1
1.5495988 -0.3370173 0.083109505 9
1.5635023 -0.34004116 -0.31101868 2
1.5574427 -0.33900794 0.13944918 10
1.5691767 -0.34184897 -0.25436246 3
1.5419229 -0.33619356 0.19377227 11
1.5651377 -0.34154135 -0.19669713 4
1.5284698 -0.33381927 0.24779223 12
1.5708313 -0.34307104 -0.14066936 5
1.5631454 -0.34167829 0.31101868 13
1.5569903 -0.34061763 -0.083528191 6
1.5533743 -0.34011066 0.36712012 14
1.5665839 -0.34328943 -0.02799366 7
1.5601321 -0.34415931 -0.4280867 0
1.5582321 -0.34402534 0.02785404 8
1.5641356 -0.34561503 -0.36981952 1
1.5484129 -0.34242436 0.083109505 9
1.5584719 -0.3446489 -0.31025544 2
1.5484687 -0.34272021 0.13875194 10
1.5679739 -0.34732431 -0.25436246 3
1.5484922 -0.34329244 0.19474722 11
1.5678118 -0.3478626 -0.19718461 4
1.5292237 -0.3395808 0.24810509 12
1.5579541 -0.34596074 -0.13962351 5
1.5657761 -0.34798446 0.31178191 13
1.5557919 -0.34605047 -0.083528191 6
1.5521777 -0.3455309 0.36712012 14
1.565376 -0.34875575 -0.02799366 7
1.5570363 -0.34918034 -0.42756909 0
1.5453147 -0.34683493 0.027644612 8
1.5686238 -0.35235408 -0.37116924 1
1.5530541 -0.34914151 0.083423525 9
1.5534285 -0.34922567 -0.3094922 2
1.5394877 -0.34637389 0.1380547 10
1.5628977 -0.35192758 -0.25373673 3
1.5453479 -0.34825918 0.19450349 11
1.566588 -0.35333318 -0.19718461 4
1.5338097 -0.34622157 0.2490437 12
1.5470195 -0.34920338 -0.13875194 5
1.5607219 -0.35258266 0.31101868 13
1.5584706 -0.35235998 -0.083737537 6
1.5547634 -0.35180706 0.36801991 14
1.5641491 -0.35421777 -0.02799366 7
1.5576915 -0.35504261 -0.4280867 0
1.5440946 -0.352227 0.027644612 8
1.5483856 -0.35349014 -0.36667022 1
1.5479317 -0.35367078 0.083214179 9
1.5579418 -0.3559579 -0.31063706 2
1.5382693 -0.35174564 0.1380547 10
1.5539573 -0.3556183 -0.25248525 3
1.5383178 -0.3523218 0.19377227 11
1.5730847 -0.36057347 -0.19815956 4
1.5422187 -0.35378185 0.25060806 12
1.5534966 -0.35665441 -0.13944918 5
1.544174 -0.35451406 0.30796573 13
1.549445 -0.35600892 -0.083318852 6
1.5573243 -0.35810548 0.36891973 14
1.5706983 -0.36146945 -0.028133281 7
1.5563797 -0.36074942 -0.4280867 0
1.5428556 -0.35761473 0.027644612 8
1.539549 -0.35713142 -0.36487061 1
1.5350146 -0.35636196 0.082586147 9
1.5642761 -0.36344287 -0.31216353 2
1.5408509 -0.35828376 0.13840331 10
1.5468715 -0.35996825 -0.25154665 3
1.5293448 -0.35588968 0.1927973 11
1.5602164 -0.36336082 -0.19669713 4
1.544822 -0.36005983 0.25123379 12
1.5580631 -0.36343277 -0.13997212 5
1.5466878 -0.36106399 0.30872896 13
1.54424 -0.36077675 -0.083109505 6
1.5408208 -0.36026156 0.3653205 14
1.5733212 -0.36786053 -0.028203089 7
1.5663936 -0.36883673 -0.43119255 0
1.5454273 -0.36418453 0.027714422 8
1.5420231 -0.36366636 -0.3657704 1
1.5337614 -0.36171797 0.082586147 9
1.5515332 -0.36619511 -0.30987382 2
1.5395908 -0.36366016 0.13840331 10
1.5532951 -0.36718342 -0.25279811 3
1.5299619 -0.36194965 0.19304106 11
1.5511475 -0.36724746 -0.19572218 4
1.5301001 -0.36226431 0.2490437 12
1.5509688 -0.36749107 -0.13944918 5
1.5492387 -0.3673667 0.3094922 13
1.5429713 -0.36616495 -0.083109505 6
1.5357618 -0.36473727 0.36442071 14
1.5525717 -0.36872953 -0.02785404 7
1.5519445 -0.37115681 -0.42756909 0
1.5481009 -0.37023762 0.027784232 8
1.5483894 -0.37059233 -0.36757001 1
1.5324894 -0.36706957 0.082586147 9
1.5426089 -0.36977816 -0.30834734 2
1.5266876 -0.36624348 0.13735744 10
1.5520689 -0.3723323 -0.25279811 3
1.5306835 -0.36748463 0.19328479 11
1.5537814 -0.37331674 -0.19620967 4
1.5076991 -0.36252317 0.24560213 12
1.5438654 -0.37150437 -0.13892625 5
1.5518295 -0.37342075 0.31025544 13
1.5495155 -0.37315005 -0.083528191 6
1.5421219 -0.3716543 0.3662203 14
1.5434994 -0.3722713 -0.027714422 7
1.545073 -0.37493446 -0.42601615 0
1.5312535 -0.37186396 0.027504994 8
1.5527673 -0.3773756 -0.36891973 1
1.5389615 -0.3743048 0.083004832 9
1.5413742 -0.37489161 -0.30834734 2
1.5215929 -0.37036172 0.13700882 10
1.5392444 -0.37494269 -0.25092092 3
1.5293914 -0.37282544 0.19328479 11
1.5582545 -0.38014963 -0.19694087 4
1.5236957 -0.37200046 0.24841796 12
1.5348173 -0.37499961 -0.13822901 5
1.5352594 -0.37510762 0.30720252 13
1.5482035 -0.37855658 -0.083528191 6
1.5332437 -0.37518233 0.36442071 14
1.5499598 -0.37955943 -0.02785404 7
1.5474398 -0.38151982 -0.42705145 0
1.5221798 -0.375292 0.027365373 8
1.5419806 -0.38045937 -0.36667022 1
1.5337675 -0.37871692 0.082795486 9
1.5438018 -0.38148046 -0.30911061 2
1.5202252 -0.37593612 0.13700882 10
1.5340246 -0.37963268 -0.25029516 3
1.5222999 -0.37673113 0.19255358 11
1.5607716 -0.38654104 -0.19742836 4
1.5128011 -0.37494084 0.24685362 12
1.5412343 -0.38227341 -0.13892625 5
1.5300632 -0.37978613 0.30643925 13
1.5351756 -0.38133958 -0.082900167 6
1.5356406 -0.38173968 0.3653205 14
1.5525066 -0.38593233 -0.02792385 7
1.5517209 -0.38832608 -0.42860436 0
1.5246737 -0.38184014 0.027435182 8
1.5330147 -0.38421342 -0.36487061 1
1.5284946 -0.38336414 0.082586147 9
1.5462692 -0.38782221 -0.30987382 2
1.5227687 -0.38221052 0.13735744 10
1.53269 -0.38498512 -0.25029516 3
1.5151334 -0.38085634 0.19182236 11
1.5400933 -0.38741624 -0.19499096 4
1.5152478 -0.38144749 0.24747935 12
1.5398228 -0.38791975 -0.13892625 5
1.5363433 -0.38704318 0.30796573 13
1.5299617 -0.38571951 -0.08269082 6
1.5267406 -0.38519084 0.36352089 14
1.547204 -0.39064091 -0.02785404 7
1.5484147 -0.3935349 -0.4280867 0
1.5291457 -0.38863763 0.027539898 8
1.5316641 -0.38956231 -0.36487061 1
1.5155338 -0.38574135 0.081958115 9
1.5372273 -0.3915486 -0.30834734 2
1.5232882 -0.38828129 0.13753176 10
1.5408393 -0.3930414 -0.25185952 3
1.5137947 -0.38614279 0.19182236 11
1.5387316 -0.39278981 -0.19499096 4
1.5005097 -0.38331196 0.24528927 12
1.5423198 -0.39427933 -0.13927487 5
1.5330125 -0.392185 0.30758414 13
1.5324075 -0.39231524 -0.082900167 6
1.521543 -0.38981673 0.3626211 14
1.5380824 -0.39405409 -0.027714422 7
1.5377475 -0.39625713 -0.42549852 0
1.5219707 -0.39247501 0.027435182 8
1.5378426 -0.39685419 -0.36667022 1
1.521982 -0.3927612 0.082376808 9
1.5302178 -0.39517137 -0.30720252 2
1.5123472 -0.390838 0.1366602 10
1.5433522 -0.39913806 -0.25248525 3
1.5143594 -0.39192194 0.1920661 11
1.5373511 -0.39815861 -0.19499096 4
1.5087918 -0.39076203 0.24685362 12
1.5197886 -0.39389318 -0.13735744 5
1.5355042 -0.39825228 0.30834734 13
1.5368977 -0.39889994 -0.083214179 6
1.5240142 -0.39584002 0.36352089 14
1.5290253 -0.39714158 -0.027574802 7
1.5288787 -0.39966813 -0.42342797 0
1.5167916 -0.39650837 0.027365373 8
1.5365182 -0.4019517 -0.36667022 1
1.5206017 -0.3980715 0.082376808 9
1.5307282 -0.40100795 -0.30758414 2
1.5090466 -0.39560944 0.13648589 10
1.534377 -0.40225005 -0.25123379 3
1.5168915 -0.39794907 0.19255358 11
1.5398624 -0.40426263 -0.19547844 4
1.5055081 -0.39552438 0.24654076 12
1.5184045 -0.39919582 -0.13735744 5
1.5265802 -0.40134522 0.30682087 13
1.5394295 -0.40501067 -0.083423525 6
1.5302314 -0.40287629 0.3653205 14
1.519895 -0.40043861 -0.027435182 7
1.527545 -0.40473586 -0.42342797 0
1.5057337 -0.39923805 0.027190849 8
1.5275716 -0.40531361 -0.36487061 1
1.5269244 -0.40542716 0.082795486 9
1.5312874 -0.40658563 -0.30796573 2
1.5115774 -0.40163472 0.13683452 10
1.5157821 -0.40303513 -0.24841796 3
1.5078198 -0.40119982 0.19157861 11
1.5461149 -0.41167834 -0.19645341 4
1.5079358 -0.40179437 0.24716648 12
1.5170017 -0.40449363 -0.13735744 5
1.5175819 -0.40464833 0.30529439 13
1.5225685 -0.40626252 -0.082586147 6
1.5250502 -0.4072099 0.36442071 14
1.5378071 -0.41090366 -0.027784232 7
1.5279169 -0.41083351 -0.42394564 0
1.5062621 -0.40501082 0.027225753 8
1.5186201 -0.40861797 -0.36307099 1
1.5139283 -0.40763891 0.082167462 9
1.5316826 -0.41270617 -0.30834734 2
1.5081716 -0.40665349 0.1366602 10
1.5219234 -0.41064647 -0.24966943 3
1.4968274 -0.40387502 0.19035992 11
1.5235873 -0.41138065 -0.19377227 4
1.4893612 -0.40241829 0.24435066 12
1.5232738 -0.41186661 -0.1380547 5
1.519879 -0.41123334 0.30605766 13
1.5172136 -0.41079637 -0.082376808 6
1.5160238 -0.41075826 0.3626211 14
1.5363634 -0.41626915 -0.027784232 7
1.5302012 -0.41718072 -0.42498088 0
1.5124842 -0.41263413 0.027365373 8
1.5208721 -0.41520768 -0.36397079 1
1.5047891 -0.41081694 0.081748769 9
1.5226573 -0.41598064 -0.30682087 2
1.5048211 -0.41139016 0.13648589 10
1.5204808 -0.41595644 -0.24966943 3
1.501081 -0.41093087 0.19109115 11
1.5183127 -0.41564816 -0.19328479 4
1.495568 -0.40970227 0.24560213 12
1.5218269 -0.41718128 -0.1380547 5
1.5260075 -0.4186137 0.30758414 13
1.5157703 -0.41608992 -0.082376808 6
1.5108948 -0.41475156 0.36172128 14
1.5233313 -0.4184514 -0.027574802 7
1.5194987 -0.41968119 -0.4223927 0
1.5130349 -0.41818017 0.027400278 8
1.5232433 -0.42128778 -0.36487061 1
1.5034186 -0.41580477 0.081748769 9
1.513701 -0.41893297 -0.30529439 2
1.4976881 -0.4147827 0.13596295 10
1.524804 -0.42257896 -0.25060806 3
1.5035357 -0.41696739 0.19157861 11
1.5226648 -0.42227232 -0.19401602 4
1.4903944 -0.41360304 0.2449764 12
1.5089165 -0.41902688 -0.13700882 5
1.524611 -0.42367181 0.30758414 13
1.5182306 -0.42218426 -0.082586147 6
1.5057561 -0.41871542 0.36082149 14
1.5142293 -0.42135632 -0.027435182 7
1.5143778 -0.42367673 -0.42135742 0
1.5020117 -0.42049974 0.027225753 8
1.5180849 -0.42528531 -0.36397079 1
1.5058043 -0.42212841 0.081958115 9
1.5160841 -0.4250102 -0.30605766 2
1.4963044 -0.41974694 0.13596295 10
1.5176886 -0.42603141 -0.24966943 3
1.5021449 -0.421951 0.19157861 11
1.5192704 -0.42704764 -0.19377227 4
1.48704 -0.41826814 0.24466354 12
1.5074447 -0.4242914 -0.13700882 5
1.5118586 -0.42553374 0.30529439 13
1.5206671 -0.42829949 -0.082795486 6
1.5117881 -0.42608353 0.3626211 14
1.5165986 -0.42772505 -0.027504994 7
1.5128148 -0.42922437 -0.42135742 0
1.4928396 -0.42355689 0.027086135 8
1.5053433 -0.42738837 -0.36127138 1
1.508164 -0.42847368 0.082167462 9
1.5145162 -0.43056405 -0.30605766 2
1.4985887 -0.42631873 0.13631159 10
1.5047176 -0.42834613 -0.24779223 3
1.4949352 -0.42556137 0.19084741 11
1.5234981 -0.43397978 -0.19450349 4
1.4969691 -0.42670536 0.24654076 12
1.5059544 -0.4295508 -0.13700882 5
1.506513 -0.42999443 0.30453119 13
1.5114053 -0.43167615 -0.082376808 6
1.5139637 -0.43269262 0.36352089 14
1.5189418 -0.43411538 -0.027574802 7
1.5168773 -0.43610379 -0.42291033 0
1.4874337 -0.42791981 0.027016325 8
1.5000215 -0.43182471 -0.36037159 1
1.4950682 -0.43068135 0.08153943 9
1.5186638 -0.43747845 -0.30720252 2
1.4970914 -0.43154719 0.13631159 10
1.5127032 -0.43633336 -0.24935657 3
1.4857364 -0.42883578 0.18987246 11
1.5104543 -0.43625578 -0.19304106 4
1.4859065 -0.42944682 0.2449764 12
1.5044458 -0.43480492 -0.13700882 5
1.5087749 -0.4363414 0.30529439 13
1.506052 -0.43583885 -0.082167462 6
1.4974693 -0.4336383 0.35992166 14
1.5173403 -0.43967968 -0.027574802 7
1.5246195 -0.44409737 -0.42549852 0
1.4936101 -0.43534768 0.027155945 8
1.4985049 -0.43705812 -0.36037159 1
1.4878038 -0.43421879 0.08122541 9
1.5095888 -0.44057682 -0.30567604 2
1.4936633 -0.43621176 0.13613726 10
1.5111709 -0.44161102 -0.24935657 3
1.4823251 -0.43346214 0.18962872 11
1.5013015 -0.43929574 -0.1920661 4
1.4711279 -0.43074539 0.24278632 12
1.5067433 -0.44117355 -0.13735744 5
1.5110106 -0.44270939 0.30605766 13
1.5006884 -0.43996948 -0.081958115 6
1.4959465 -0.43886286 0.35992166 14
1.504284 -0.44159392 -0.027365373 7
1.4978349 -0.44225743 0.027260659 8
1.5063146 -0.44504702 -0.3626211 1
1.4863558 -0.43915012 0.08122541 9
1.4910976 -0.44083405 -0.30224147 2
1.4844894 -0.43916222 0.13544002 10
1.5096202 -0.44688329 -0.24935657 3
1.4846097 -0.43976143 0.1901162 11
1.5073719 -0.4467901 -0.19304106 4
1.4753734 -0.43730563 0.24372493 12
1.4975535 -0.44416425 -0.1366602 5
1.5094562 -0.44798106 0.30605766 13
1.5029726 -0.44634238 -0.082167462 6
1.4981416 -0.44519216 0.36082149 14
1.5028114 -0.44657984 -0.027365373 7
1.4829484 -0.44321364 0.027016325 8
1.5066974 -0.45059809 -0.36307099 1
1.4886407 -0.44548103 0.081434757 9
1.4951917 -0.44772583 -0.3033863 2
1.4810389 -0.44376951 0.13526571 10
1.500561 -0.449619 -0.24810509 3
1.4907491 -0.44696259 0.19109115 11
1.5020792 -0.45064533 -0.19255358 4
1.4738379 -0.44245294 0.24372493 12
1.495994 -0.44938895 -0.1366602 5
1.4929202 -0.44846562 0.30300471 13
1.5091352 -0.45362374 -0.082586147 6
1.5041217 -0.45240295 0.3626211 14
1.5089027 -0.45412824 -0.027504994 7
1.4813923 -0.44838741 0.027016325 8
1.497655 -0.45359519 -0.36127138 1
1.4928107 -0.4524124 0.081748769 9
1.4974567 -0.45382041 -0.30414957 2
1.4852791 -0.45041293 0.13578865 10
1.4952017 -0.45370695 -0.24747935 3
1.477783 -0.44870308 0.18962872 11
1.5080944 -0.45819414 -0.19352853 4
1.4817343 -0.45046777 0.24528927 12
1.4944955 -0.45434737 -0.1366602 5
1.4875892 -0.45253146 0.30224147 13
1.4922569 -0.45423591 -0.081748769 6
1.5034827 -0.45822647 -0.027435182 7
1.4779062 -0.4529697 0.026981421 8
1.4923365 -0.45767745 -0.36037159 1
1.4816756 -0.45469081 0.08122541 9
1.4958634 -0.45904472 -0.30414957 2
1.4856024 -0.45617962 0.13596295 10
1.4936088 -0.4589234 -0.24747935 3
1.468618 -0.45152533 0.18865377 11
1.4951019 -0.45995343 -0.1920661 4
1.4858167 -0.45738074 0.24622789 12
1.4967089 -0.46073368 -0.13700882 5
1.4860005 -0.45772129 0.30224147 13
1.486845 -0.45826551 -0.08153943 6
1.5056956 -0.46465114 -0.027504994 7
1.4782258 -0.45871848 0.027016325 8
1.4925908 -0.46346176 -0.36082149 1
1.4762647 -0.45867491 0.081016071 9
1.4867525 -0.46193346 -0.30262309 2
1.4878062 -0.46254557 0.13631159 10
1.4957703 -0.46530783 -0.24810509 3
1.4689283 -0.45723897 0.18889751 11
1.4896966 -0.46398884 -0.19157861 4
1.4634659 -0.45609909 0.24278632 12
1.4950914 -0.46595538 -0.13700882 5
1.4918907 -0.46524358 0.30376795 13
1.4890494 -0.4646427 -0.081748769 6
1.4887947 -0.46513361 -0.027225753 7
1.4842469 -0.46627295 0.027155945 8
1.4784652 -0.46502373 0.08122541 9
1.485131 -0.46712035 -0.30262309 2
1.47668 -0.46474552 0.13544002 10
1.4941369 -0.47052625 -0.24810509 3
1.4730034 -0.46415353 0.18962872 11
1.4918544 -0.47037989 -0.1920661 4
1.4618649 -0.4612048 0.24278632 12
1.4820553 -0.46757469 -0.13596295 5
1.484641 -0.46867537 0.30262309 13
1.4912275 -0.47104076 -0.081958115 6
1.4871621 -0.47032756 -0.027225753 7
1.4692703 -0.46720922 0.026911611 8
1.4788182 -0.47052953 0.081330083 9
1.4797499 -0.4711104 -0.30185983 2
1.4579632 -0.46445441 0.13387121 10
1.4849571 -0.4733392 -0.24685362 3
1.4789391 -0.47170529 0.19060367 11
1.4958767 -0.47739509 -0.1927973 4
1.4584458 -0.46544936 0.24247345 12
1.4766184 -0.471533 -0.13561434 5
1.4755156 -0.47146463 0.30109662 13
1.4895742 -0.47624326 -0.081958115 6
1.4855943 -0.47525659 -0.027225753 7
1.4581949 -0.46901748 0.026737086 8
1.4847713 -0.47813758 0.081748769 9
1.4818337 -0.47747704 -0.30262309 2
1.4658146 -0.47259772 0.13474278 10
1.4796193 -0.47704855 -0.24622789 3
1.4641421 -0.47234064 0.18889751 11
1.4923964 -0.48174322 -0.19255358 4
1.4568121 -0.47053748 0.24247345 12
1.4749634 -0.47668448 -0.13561434 5
1.4702078 -0.47514755 0.30033338 13
1.4727838 -0.476264 -0.081120737 6
1.4877312 -0.48167133 -0.027295565 7
1.4641548 -0.47658041 0.026876707 8
1.4641035 -0.47712901 0.080702052 9
1.4802421 -0.48238838 -0.30262309 2
1.4680277 -0.47869131 0.13509139 10
1.474189 -0.48098505 -0.24560213 3
1.4605973 -0.47683254 0.18865377 11
1.4774969 -0.48263505 -0.19084741 4
1.4589159 -0.47684723 0.24309918 12
1.4771621 -0.48281097 -0.13596295 5
1.4722723 -0.48149714 0.30109662 13
1.4635195 -0.47891736 -0.080702052 6
1.4860408 -0.48686153 -0.027295565 7
1.4681802 -0.48356512 0.026981421 8
1.4605323 -0.48161134 0.080597378 9
1.4729557 -0.48570797 -0.30147824 2
1.4682399 -0.48443702 0.13526571 10
1.4762527 -0.48736656 -0.24622789 3
1.4532692 -0.48006013 0.18792254 11
1.4701487 -0.48592049 -0.1901162 4
1.4478652 -0.47883561 0.24153483 12
1.4868175 -0.49171785 -0.13700882 5
1.4743102 -0.48786691 0.30185983 13
1.477007 -0.48904541 -0.08153943 6
1.4691472 -0.48701212 -0.027016325 7
1.4740719 -0.49121583 0.027121039 8
1.4702098 -0.49049908 0.08122541 9
1.4627602 -0.4882974 0.1349171 10
1.4857843 -0.49627155 -0.24810509 3
1.462881 -0.48890537 0.18938497 11
1.4759741 -0.49356762 -0.19109115 4
1.4405651 -0.48200631 0.24059623 12
1.4661978 -0.49058288 -0.13526571 5
1.4763217 -0.49425685 0.30262309 13
1.475291 -0.49419814 -0.08153943 6
1.4750221 -0.49468073 -0.027155945 7
1.4571888 -0.49124771 0.026841803 8
1.4665964 -0.4949894 0.081120737 9
1.4421703 -0.48702577 0.13317397 10
1.4690714 -0.49639601 -0.24560213 3
1.459285 -0.49337304 0.18914123 11
1.4817638 -0.50126117 -0.1920661 4
1.444487 -0.48893186 0.24153483 12
1.4607019 -0.49442029 -0.1349171 5
1.4634303 -0.49562851 0.30033338 13
1.4773401 -0.50062686 -0.081748769 6
1.4732862 -0.49982655 -0.027155945 7
1.4497873 -0.49439508 0.026737086 8
1.4648596 -0.5001058 0.081120737 9
1.4498885 -0.49527714 0.13404553 10
1.4673297 -0.50152099 -0.24560213 3
1.4462843 -0.49460977 0.1876788 11
1.4724925 -0.5038597 -0.19109115 4
1.4446404 -0.494611 0.24184772 12
1.4627371 -0.50080687 -0.13526571 5
1.4542623 -0.49818885 0.29880691 13
1.4680262 -0.50319022 -0.081330083 6
1.4715326 -0.5049662 -0.027155945 7
1.4480526 -0.49945271 0.026737086 8
1.4536656 -0.50195658 0.080597378 9
1.4481509 -0.50033522 0.13404553 10
1.4693041 -0.50793076 -0.24622789 3
1.4407967 -0.49835745 0.18719132 11
1.4632208 -0.50639963 -0.1901162 4
1.4503716 -0.50223619 0.24309918 12
1.4647455 -0.50721365 -0.13561434 5
1.4562244 -0.50454754 0.29957014 13
1.4587126 -0.50569481 -0.080911398 6
1.4773176 -0.51272237 -0.027295565 7
1.4520532 -0.50622672 0.026841803 8
1.4539672 -0.50717872 0.080702052 9
1.4558886 -0.50841904 0.1349171 10
1.4694766 -0.51345193 -0.24654076 3
1.4410102 -0.50378776 0.18743508 11
1.4615335 -0.51124907 -0.1901162 4
1.4375991 -0.50287676 0.24122196 12
1.4743387 -0.5160172 -0.1366602 5
1.4656608 -0.51326704 0.30185983 13
1.4570276 -0.51052928 -0.080911398 6
1.4606028 -0.51206821 -0.027016325 7
1.4541384 -0.51236826 0.026911611 8
1.448421 -0.51092213 0.080492713 9
1.4447116 -0.51018077 0.13404553 10
1.4468184 -0.51120877 0.18841003 11
1.456087 -0.51476955 -0.18962872 4
1.4302481 -0.50591564 0.24028336 12
1.4499897 -0.51318353 -0.13456847 5
1.4602492 -0.51681459 0.30109662 13
1.4590919 -0.51669157 -0.081120737 6
1.4588064 -0.51716357 -0.027016325 7
1.44669 -0.51542765 0.026806895 8
1.4466287 -0.515975 0.080492713 9
1.4392589 -0.5136295 0.1336969 10
1.4431558 -0.51558816 0.18816628 11
1.4580197 -0.52118552 -0.1901162 4
1.4340534 -0.51290077 0.24122196 12
1.4481896 -0.51824176 -0.13456847 5
1.4510425 -0.51926273 0.29957014 13
1.464801 -0.52447462 -0.08153943 6
1.4569923 -0.52225262 -0.027016325 7
1.4373567 -0.51776361 0.026667278 8
1.454213 -0.52440917 0.081016071 9
1.4354926 -0.51822472 0.1335226 10
1.4320121 -0.51725066 0.18694758 11
1.4636593 -0.5289706 -0.19109115 4
1.4322542 -0.51790339 0.24122196 12
1.4501189 -0.52464944 -0.1349171 5
1.4417454 -0.52190459 0.29804367 13
1.4516015 -0.52575898 -0.080911398 6
1.4626807 -0.53006059 -0.027155945 7
1.439207 -0.52439749 0.026737086 8
1.4372705 -0.52426028 0.080178693 9
1.4411616 -0.52596462 0.13421984 10
1.4263775 -0.52113336 0.18646011 11
1.454253 -0.53160548 -0.1901162 4
1.4340569 -0.52450651 0.24184772 12
1.452021 -0.53107685 -0.13526571 5
1.4436022 -0.52828342 0.29880691 13
1.4422555 -0.52807593 -0.080492713 6
1.4644831 -0.5367943 -0.027225753 7
1.4411206 -0.53080034 0.026806895 8
1.4354317 -0.52927411 0.080178693 9
1.4393169 -0.53099203 0.13421984 10
1.4301362 -0.52817231 0.18719132 11
1.4505264 -0.53599048 -0.18987246 4
1.4285116 -0.528139 0.24122196 12
1.4501584 -0.53614211 -0.13526571 5
1.4491146 -0.53604376 0.30033338 13
1.4441494 -0.53449363 -0.080702052 6
1.4513496 -0.53773463 -0.027016325 7
1.4430071 -0.53722298 0.026876707 8
1.4411552 -0.53681993 0.080597378 9
1.4281205 -0.53253233 0.13334829 10
1.4320034 -0.53454971 0.1876788 11
1.424902 -0.53218216 0.2409091 12
1.4445453 -0.53980601 -0.1349171 5
1.4435568 -0.53972375 0.29957014 13
1.4460163 -0.54093099 -0.080911398 6
1.4420673 -0.53974068 -0.026876707 7
1.4299874 -0.53778177 0.026667278 8
1.4392726 -0.54184723 0.080597378 9
1.4225241 -0.53610885 0.13299966 10
1.4357951 -0.54139656 0.18841003 11
1.4230356 -0.53715277 0.2409091 12
1.4333327 -0.54132539 -0.13404553 5
1.4344125 -0.54173321 0.29804367 13
1.4479512 -0.54713511 -0.081120737 6
1.4476559 -0.5476011 -0.027016325 7
1.4206245 -0.53992838 0.026527658 8
1.4411058 -0.54828835 0.080806725 9
1.4244626 -0.5422408 0.13334829 10
1.4246217 -0.54287076 0.18719132 11
1.4248432 -0.54352486 0.24153483 12
1.4333915 -0.54678571 -0.13421984 5
1.425176 -0.54393673 0.29651719 13
1.4385691 -0.54933614 -0.080702052 6
1.4457355 -0.55265105 -0.027016325 7
1.4243314 -0.5470348 0.026632372 8
1.4279978 -0.54901505 0.080178693 9
1.4244206 -0.54792511 0.1335226 10
1.419013 -0.54641366 0.18670385 11
1.4284668 -0.55062664 0.24247345 12
1.435192 -0.55321902 -0.13456847 5
1.4360908 -0.55385339 0.29918852 13
1.4291893 -0.55147827 -0.080283366 6
1.4475284 -0.55913526 -0.027086135 7
1.4298701 -0.55489719 0.026771991 8
1.418722 -0.55085582 0.079760008 9
1.4336416 -0.55722469 0.13456847 10
1.4133971 -0.54992408 0.18621638 11
1.4137472 -0.55034441 0.24028336 12
1.4388218 -0.56039464 -0.13509139 5
1.4304903 -0.55743718 0.29842529 13
1.4309773 -0.55791473 -0.080492713 6
1.4382143 -0.5610255 -0.026946515 7
1.4261603 -0.55890614 0.026737086 8
1.4243252 -0.55847377 0.080178693 9
1.4169488 -0.55615216 0.13317397 10
1.4226513 -0.5589636 0.1876788 11
1.4063991 -0.55286139 0.23934476 12
1.4480804 -0.56953835 -0.13613726 5
1.4328361 -0.56412029 -0.080702052 6
1.4289038 -0.56286013 -0.026806895 7
1.4150022 -0.55995333 0.026562562 8
1.4297947 -0.56638438 0.080597378 9
1.4113922 -0.55937964 0.13282534 10
1.4207898 -0.56367821 0.1876788 11
1.4081326 -0.55922556 0.23997049 12
1.4346695 -0.57034433 -0.080911398 6
1.4380783 -0.57228082 -0.027016325 7
1.4093254 -0.56340462 0.026492754 8
1.4241003 -0.56988776 0.080388032 9
1.4093325 -0.56454897 0.13282534 10
1.4114431 -0.56568033 0.18670385 11
1.4153386 -0.56781495 0.24153483 12
1.4251565 -0.57262033 -0.080492713 6
1.432361 -0.57580549 -0.026946515 7
1.410959 -0.57006443 0.026562562 8
1.4145957 -0.57210827 0.079969354 9
1.4110472 -0.57095969 0.13317397 10
1.3983209 -0.5663783 0.18524142 11
