# .PCD v0.7 - Point Cloud Data file format
VERSION 0.7
FIELDS x y z intensity
SIZE 4 4 4 4
TYPE F F F F
COUNT 1 1 1 1
WIDTH 519
HEIGHT 1
VIEWPOINT 0 0 0 1 0 0 0
POINTS 519
DATA ascii
2.7578344 0.69937634 -0.2489168 5
2.7590103 0.69865113 -0.14915749 6
2.7586212 0.69803894 -0.049669549 7
2.7467284 0.68636358 -0.24769662 5
2.7535613 0.68756193 -0.1487388 6
2.7571609 0.68743706 -0.049599741 7
2.7509236 0.67772847 -0.24787092 5
2.7481868 0.67603689 -0.14832011 6
2.7595434 0.67780918 -0.049599741 7
2.7494001 0.66718274 -0.24752231 5
2.7427657 0.66455781 -0.14790143 6
2.7618926 0.66817302 -0.049599741 7
2.7434947 0.65916234 0.049250688 8
2.7555881 0.65850687 -0.24787092 5
2.741183 0.65405321 -0.14769208 6
2.7486463 0.65481997 -0.049320504 7
2.7418873 0.64866036 0.04918088 8
2.7384756 0.6443215 -0.24612781 5
2.7473381 0.6453948 -0.14790143 6
2.7470212 0.64430863 -0.049250688 7
2.7421873 0.63863242 0.049145978 8
2.7251801 0.63116139 -0.24473332 5
2.7417903 0.63400155 -0.14748274 6
2.7531507 0.63561487 -0.049320504 7
2.7288067 0.62548161 0.048866738 8
2.7273664 0.62164551 -0.24473332 5
2.7323022 0.62176734 -0.14685471 6
2.7475524 0.62422913 -0.04918088 7
2.7329237 0.61639297 0.048901644 8
2.7334077 0.61299396 -0.24508193 5
2.72666 0.61047983 -0.14643602 6
2.7496071 0.61511499 -0.04918088 7
2.7290967 0.60602701 0.048796929 8
2.7240326 0.60390359 0.14622667 9
2.7355309 0.60344815 -0.24508193 5
2.7325702 0.60229486 -0.14664535 6
2.7439258 0.60379368 -0.049041264 7
2.737056 0.59777629 0.048901644 8
2.7319784 0.59566826 0.1465407 9
2.721941 0.59099078 -0.24368747 5
2.7385597 0.59359956 -0.14685471 6
2.7303808 0.59082901 -0.048762023 7
2.7273958 0.58569872 0.048692215 8
2.7438056 0.58822083 0.14706406 9
2.7200899 0.58065581 -0.24333882 5
2.7328017 0.5823707 -0.14643602 6
2.7324269 0.58129388 -0.048762023 7
2.7157273 0.57328409 0.048447877 8
2.7341161 0.57616776 0.14643602 9
2.7314584 0.57361788 -0.34269661 4
2.7221005 0.57115662 -0.24333882 5
2.7230885 0.57037175 -0.14580798 6
2.7344394 0.57175165 -0.048762023 7
2.7137959 0.5629878 0.048378069 8
2.7263315 0.56459719 0.14591266 9
2.7237236 0.56207311 -0.34147793 4
2.7240777 0.56165057 -0.24333882 5
2.7172382 0.55925167 -0.1453893 6
2.7364182 0.56220508 -0.048762023 7
2.7177038 0.5539127 0.048412975 8
2.7144892 0.55276281 0.14517996 9
2.7101047 0.54940748 -0.33952799 4
2.7221162 0.55134791 -0.24299021 5
2.7191739 0.54976261 -0.1453893 6
2.7186666 0.54916757 -0.048412975 7
2.7175648 0.54450381 0.048378069 8
2.7203193 0.54406673 0.1453893 9
2.7021527 0.53945392 0.24107277 10
2.7274864 0.54352158 -0.34147793 4
2.7083912 0.53873229 -0.24159572 5
2.7229407 0.5411337 -0.14549398 6
2.7127211 0.53811717 -0.048273355 7
2.7057147 0.53231162 0.048133738 8
2.7182822 0.53379858 0.14517996 9
2.7000167 0.52972245 0.24072415 10
2.729367 0.53399682 -0.34147793 4
2.7024336 0.52774805 -0.24089848 5
2.7189322 0.5304774 -0.14517996 6
2.7145827 0.52864534 -0.048273355 7
2.6938126 0.52020878 0.047889404 8
2.7240512 0.5250634 0.1453893 9
2.7215052 0.52358747 0.24246727 10
2.7234168 0.52296817 -0.34050298 4
2.7003458 0.51756203 -0.24054985 5
2.7169349 0.51975852 -0.14497061 6
2.7164116 0.51916695 -0.048273355 7
2.7015955 0.5114485 0.047994118 8
2.7062426 0.5118404 0.14434259 9
2.7213588 0.51371425 0.24229297 10
2.7096193 0.51051873 -0.33855307 4
2.7060521 0.50886863 -0.24089848 5
2.7069547 0.50806016 -0.14434259 6
2.7182074 0.50968105 -0.048273355 7
2.7013106 0.50212198 0.047959212 8
2.6961429 0.50067461 0.14371455 9
2.7132518 0.50287211 0.24142142 10
2.6995852 0.49936458 -0.33709061 4
2.711643 0.50061619 -0.24124709 5
2.7046962 0.4983575 -0.14413324 6
2.7080832 0.49849159 -0.04806393 7
2.7068954 0.49387839 0.048029024 8
2.7018044 0.49197519 0.14392389 9
2.6972628 0.49066189 0.23985259 10
2.7130315 0.49206308 -0.33855307 4
2.693769 0.4875983 -0.23950398 5
2.7024033 0.48867413 -0.14392389 6
2.7019346 0.48761553 -0.047924306 7
2.6908867 0.48125872 0.047714882 8
2.703505 0.48254171 0.14392389 9
2.6911969 0.4793756 0.23915535 10
2.7166028 0.483412 0.33879682 11
2.7127781 0.48224297 -0.33830932 4
2.6915309 0.47749552 -0.23915535 5
2.7081096 0.47946304 -0.14413324 6
2.7075586 0.47887689 -0.047994118 7
2.6886928 0.47070247 0.04764507 8
2.7013206 0.47194144 0.14371455 9
2.6987424 0.47100565 0.23967829 10
2.7066224 0.4714075 0.33733436 11
2.7067046 0.47093511 -0.33733436 4
2.6932631 0.46762794 -0.23915535 5
2.6999276 0.46829972 -0.14360988 6
2.7014141 0.46758637 -0.047854498 7
2.6922905 0.46165285 0.047679976 8
2.7009828 0.46217424 0.14360988 9
2.6984863 0.46077633 0.23950398 10
2.6925969 0.45928577 0.33538446 11
2.6907201 0.45848373 -0.33514073 4
2.6909506 0.4575552 -0.23880674 5
2.6878417 0.45606264 -0.14287716 6
2.7069731 0.45882142 -0.047924306 7
2.684025 0.45059606 0.04750545 8
2.6887121 0.45090178 0.14287716 9
2.7098248 0.45346874 0.24037553 10
2.7000575 0.45086679 0.33611569 11
2.6923044 0.44908783 -0.33514073 4
2.6885223 0.44797602 -0.2384581 5
2.6932797 0.44780132 -0.14308652 6
2.6966436 0.44787702 -0.047714882 7
2.6874778 0.44201815 0.047540355 8
2.692241 0.44183648 0.14298184 9
2.6897626 0.440467 0.2384581 10
2.7074149 0.44287118 0.33684689 11
2.6898603 0.43951762 -0.33465323 4
2.686137 0.43794668 -0.23810948 5
2.6908071 0.43822607 -0.14287716 6
2.6863475 0.4365373 -0.04750545 7
2.681107 0.43136436 0.047400735 8
2.699683 0.43338507 0.14329587 9
2.6794055 0.42965156 0.23741224 10
2.6936603 0.43145519 -0.43207204 3
2.7050242 0.43278989 0.33635944 11
2.6933382 0.43043944 -0.33489698 4
2.6997378 0.43097901 0.43301064 12
2.6797795 0.42731202 -0.23741224 5
2.7002101 0.43008798 -0.14329587 6
2.6918051 0.42778453 -0.047575258 7
2.674695 0.4207592 0.047261119 8
2.6972327 0.42334127 0.14308652 9
2.6829305 0.42013568 0.23758654 10
2.6796103 0.41913792 -0.42956907 3
2.6908283 0.42089263 0.33440951 11
2.6909018 0.42042172 -0.33440951 4
2.6778047 0.41789678 0.42925623 12
2.6812544 0.4179571 -0.23741224 5
2.6899271 0.41834602 -0.14266783 6
2.6932817 0.41838634 -0.047575258 7
2.6801722 0.41156077 0.047330927 8
2.684875 0.41180331 0.1423538 9
2.6883194 0.41137123 0.23793517 10
2.681057 0.40978107 -0.42956907 3
2.6805787 0.40922797 0.33294708 11
2.6845746 0.40935987 -0.33343455 4
2.6968224 0.41122746 0.43207204 12
2.6826971 0.40859449 -0.23741224 5
2.6834726 0.40775427 -0.14224915 6
2.7026341 0.41018331 -0.047714882 7
2.6815221 0.40267125 0.047330927 8
2.6823456 0.40183759 0.14214447 9
2.6818573 0.4008061 0.23723793 10
2.678494 0.40030345 -0.42894334 3
2.6799574 0.40004534 0.33270332 11
2.6780641 0.39928359 -0.3324596 4
2.6845648 0.3997739 0.42988196 12
2.6781948 0.39834881 -0.2368893 5
2.6808593 0.39826563 -0.14203981 6
2.6803122 0.39722824 -0.047296021 7
2.6789544 0.3927277 0.047261119 8
2.683732 0.39247131 0.14214447 9
2.6792285 0.39133513 0.2368893 10
2.6876936 0.39209253 -0.43019485 3
2.6872306 0.39154601 0.33343455 11
2.6794415 0.38993353 -0.3324596 4
2.670305 0.38812804 0.42737901 12
2.6696427 0.38803178 -0.23601775 5
2.6861861 0.38947898 -0.14224915 6
2.6816823 0.38787031 -0.047296021 7
2.6743703 0.38252518 0.047156405 8
2.6890402 0.38366443 0.1423538 9
2.6687434 0.38029462 0.23584343 10
2.6694891 0.37992427 -0.42706612 3
2.6846504 0.38160405 0.33294708 11
2.6807861 0.38057876 -0.3324596 4
2.679467 0.37991312 0.4286305 12
2.6670358 0.37815052 -0.23566914 5
2.6855516 0.37982094 -0.14214447 6
2.67906 0.37794778 -0.047226213 7
2.6578643 0.37070078 0.046842258 8
2.6883848 0.37400097 0.14224915 9
2.6740015 0.37152427 0.23619205 10
2.6629725 0.36951825 -0.42581466 3
2.6781013 0.37114117 0.33197212 11
2.6820984 0.371218 -0.3324596 4
2.6827335 0.37082878 0.42894334 12
2.6684039 0.36837342 -0.23566914 5
2.6769683 0.36907968 -0.14162111 6
2.6803629 0.36859438 -0.047226213 7
2.6730127 0.36330661 0.047086593 8
2.6698825 0.36193079 0.14120242 9
2.6773195 0.36198863 0.23636638 10
2.6682246 0.36028346 -0.42644039 3
2.6695442 0.36046168 0.33075345 11
2.6676397 0.35973048 -0.33050969 4
2.6820538 0.36119893 0.4286305 12
2.671648 0.35932153 -0.23584343 5
2.6703849 0.3582041 -0.14120242 6
2.6855969 0.35976622 -0.047296021 7
2.6683788 0.35272023 0.046981879 8
2.6632702 0.35109916 0.14078373 9
2.6805425 0.35290021 0.23654069 10
2.6733823 0.35148424 -0.42706612 3
2.6688793 0.35041705 0.33050969 11
2.665004 0.34943512 -0.33002222 4
2.6696489 0.34957156 0.42644039 12
2.6709104 0.34973672 -0.23566914 5
2.6676583 0.34836257 -0.14099309 6
2.6670682 0.34733874 -0.046946973 7
2.6695936 0.34340426 0.046981879 8
2.668442 0.34230804 0.14099309 9
2.6659479 0.34151649 0.23514619 10
2.6745932 0.34214953 -0.42706612 3
2.6779625 0.34210429 0.33148462 11
2.6662073 0.34013095 -0.33002222 4
2.6630149 0.3392514 0.42518893 12
2.6602564 0.33889997 -0.23462325 5
2.6767833 0.34005594 -0.14141177 6
2.6642966 0.33752343 -0.046877164 7
2.6588707 0.33259362 0.04677245 8
2.6655984 0.33296269 0.14078373 9
2.6631696 0.33171526 0.23479758 10
2.6640098 0.33134779 -0.42518893 3
2.6791401 0.33275619 0.33148462 11
2.6673205 0.33128816 -0.33002222 4
2.6660857 0.33066103 0.42550179 12
2.6535139 0.32863161 -0.233926 5
2.6739898 0.33021989 -0.14120242 6
2.6654012 0.32868701 -0.046877164 7
2.6440787 0.32184219 0.04649321 8
2.674619 0.3250846 0.14120242 9
2.6642549 0.32288256 0.23479758 10
2.6572497 0.32156178 -0.42393744 3
2.6684043 0.32244045 0.33002222 11
2.6723459 0.32291672 -0.33050969 4
2.6671674 0.32181868 0.42550179 12
2.6565673 0.32006803 -0.23410031 5
2.671104 0.3208749 -0.14099309 6
2.6744187 0.32079834 -0.047016785 7
2.6451313 0.31307161 0.04649321 8
2.6598692 0.31387582 0.14036505 9
2.6653109 0.31404507 0.23479758 10
2.6543777 0.31228843 -0.42331171 3
2.6576297 0.31220081 0.32855979 11
2.6537411 0.31127322 -0.32807231 4
2.6682746 0.31250587 0.42550179 12
2.6556892 0.31056336 -0.233926 5
2.6602507 0.31062487 -0.14036505 6
2.6755219 0.31146273 -0.047016785 7
2.6581283 0.30520567 0.046702638 8
2.6490428 0.30322573 0.13973701 9
2.6664441 0.30427471 0.23479758 10
2.6594296 0.30300409 -0.42393744 3
2.6587033 0.30292135 0.32855979 11
2.6508667 0.30155987 -0.32758483 4
2.6575725 0.30185291 0.4236246 12
2.6686354 0.3026377 -0.23497188 5
2.6653404 0.30132177 -0.1405744 6
2.6567221 0.29987788 -0.046667732 7
2.6552541 0.29501876 0.04663283 8
2.6540551 0.29441795 0.13994636 9
2.6595685 0.2940886 0.23410031 10
2.660471 0.29371968 -0.42393744 3
2.6597958 0.29317525 0.32855979 11
2.6519542 0.29184124 -0.32758483 4
2.6468289 0.2912772 0.42174736 12
2.6459103 0.29071003 -0.23288015 5
2.6584346 0.29114574 -0.1401557 6
2.6498013 0.28973353 -0.046528116 7
2.646277 0.28514141 0.046458308 8
2.6630104 0.28600419 0.14036505 9
2.6526549 0.28395548 0.23340309 10
2.653574 0.28405386 -0.42268598 3
2.664701 0.2847746 0.32904723 11
2.6568551 0.28346714 -0.32807231 4
2.651758 0.28245527 0.42237309 12
2.6429462 0.28105021 -0.23253153 5
2.6514411 0.28148556 -0.13973701 6
2.6587508 0.28132316 -0.046667732 7
2.641289 0.2752811 0.046353593 8
2.6560459 0.27588069 0.13994636 9
2.6436729 0.27413046 0.23253153 10
2.64276 0.27356961 -0.42080876 3
2.6577806 0.27465442 0.32807231 11
2.6617775 0.27459925 -0.32855979 4
2.6605878 0.27400723 0.4236246 12
2.6439114 0.27182218 -0.23253153 5
2.6404865 0.27100569 -0.13910899 6
2.6557381 0.27163303 -0.046597924 7
2.6462133 0.26645958 0.046423402 8
2.6490438 0.26581064 0.13952768 9
2.6585374 0.26582727 0.2337517 10
2.6398137 0.2634885 -0.42018303 3
2.6468713 0.26419294 0.32660985 11
2.642967 0.26333737 -0.3261224 4
2.6575968 0.26432666 0.42299888 12
2.6488094 0.26298583 -0.23288015 5
2.6335118 0.26053876 -0.13869029 6
2.66065 0.26275471 -0.046667732 7
2.6431913 0.25637341 0.046353593 8
2.6380274 0.25540784 0.13889964 9
2.6534996 0.25597098 0.23322876 10
2.6537499 0.25506026 0.32734108 11
2.6399622 0.25327009 -0.32563493 4
2.6457446 0.25335759 -0.23253153 5
2.6363935 0.25153479 -0.13879497 6
2.6456256 0.25194842 -0.046388499 7
2.6480091 0.24797906 0.046423402 8
2.6428804 0.2465695 0.13910899 9
2.6444578 0.24578434 0.2323572 10
2.6506281 0.24589252 0.3268536 11
2.6447411 0.24487957 -0.3261224 4
2.6426446 0.24375647 -0.23218289 5
2.6590903 0.24480414 -0.13994636 6
2.6464889 0.24271373 -0.046388499 7
2.6329255 0.2372988 0.046144161 8
2.6476622 0.23816116 0.13931833 9
2.6353362 0.23612392 0.23148565 10
2.6494927 0.23646142 0.32660985 11
2.6495342 0.23599774 -0.32660985 4
2.6315312 0.23393257 -0.23113704 5
2.6559498 0.23516767 -0.13973701 6
2.6512632 0.23428765 -0.046458308 7
2.6217449 0.2275296 0.045934737 8
2.6484773 0.22891693 0.13931833 9
2.6420994 0.22743788 0.23200859 10
2.6463068 0.22733353 0.3261224 11
2.6463463 0.2268717 -0.3261224 4
2.6323318 0.22474469 -0.23113704 5
2.6487548 0.22568125 -0.13931833 6
2.6480799 0.22469272 -0.046388499 7
2.6325252 0.21874616 0.046109259 8
2.6373558 0.21822065 0.13869029 9
2.638906 0.21788526 0.23165996 10
2.631295 0.21633214 0.32417247 11
2.6313324 0.21587293 -0.32417247 4
2.6331379 0.21509579 -0.23113704 5
2.6416016 0.21532306 -0.13889964 6
2.6488855 0.21498612 -0.046388499 7
2.6372595 0.20987342 0.046179067 8
2.6261551 0.20806605 0.13806225 9
2.6416728 0.20836896 0.23183426 10
2.6419291 0.20792393 0.32539117 11
2.6360278 0.20699789 -0.32465994 4
2.6338727 0.20590241 -0.23113704 5
2.6423728 0.20564026 -0.13889964 6
2.6376576 0.20480892 -0.046179067 7
2.6360168 0.20005396 0.046144161 8
2.6308486 0.19920121 0.13827161 9
2.6324506 0.19839714 0.23096271 10
2.6406939 0.19809148 0.32514745 11
2.6427078 0.19777878 -0.32539117 4
2.6186802 0.19552225 -0.22974254 5
2.6430748 0.19641469 -0.13889964 6
2.6303794 0.19500969 -0.046039447 7
2.622705 0.19029781 0.045899831 8
2.6394961 0.19059129 0.13869029 9
2.6212032 0.18835074 0.22991684 10
2.6452961 0.18961793 0.32563493 11
2.6173594 0.18623804 -0.22956821 5
2.6516807 0.18821377 -0.13931833 6
2.6430125 0.18667261 -0.046248876 7
2.6133783 0.18045475 0.045725305 8
2.6361287 0.18156216 0.13848096 9
2.6297646 0.18020284 0.2306141 10
2.6281176 0.17916709 0.32344127 11
2.6239262 0.17796126 -0.23009115 5
2.6323941 0.17761256 -0.13827161 6
2.6316459 0.1771007 -0.046039447 7
2.6199486 0.17218016 0.045830019 8
2.6287742 0.17183867 0.13806225 9
2.6323659 0.17115073 0.23078841 10
2.6247351 0.1701946 0.32295379 11
2.6165783 0.16829002 -0.22939391 5
2.6289821 0.16862708 -0.13806225 6
2.6402309 0.168422 -0.046179067 7
2.6265211 0.1634056 0.045934737 8
2.6213844 0.1621675 0.13764358 9
2.6329191 0.16241981 0.23078841 10
2.6193693 0.16066623 0.32222256 11
2.6330597 0.16012225 -0.23078841 5
2.6215806 0.15896496 -0.13764358 6
2.620842 0.15800203 -0.045830019 7
2.6270757 0.15423688 0.045934737 8
2.6219344 0.15301673 0.13764358 9
2.6235509 0.15219223 0.22991684 10
2.6278415 0.15198098 0.32319754 11
2.6176894 0.15001875 -0.22939391 5
2.6301215 0.14981019 -0.13806225 6
2.6173844 0.14862643 -0.045760211 7
2.615643 0.14394715 0.045725305 8
2.6264663 0.14362326 0.13785292 9
2.6161089 0.14259896 0.2292196 10
2.6283808 0.14234775 0.32319754 11
2.610239 0.14045273 -0.22869666 5
2.6386063 0.14105423 -0.13848096 6
2.6219053 0.13924368 -0.045830019 7
2.6061444 0.13430196 0.045550782 8
2.6269515 0.13445613 0.13785292 9
2.6165905 0.13346672 0.2292196 10
2.6209314 0.13277096 0.32222256 11
2.6191349 0.13084692 -0.13743424 6
2.62637 0.13028938 -0.045899831 7
2.6065974 0.12520331 0.045550782 8
2.6154351 0.12471406 0.1372249 9
2.625001 0.12470978 0.22991684 10
2.6074984 0.12296735 0.32051641 11
2.6155856 0.12151756 -0.1372249 6
2.6288064 0.12121351 -0.045934737 7
2.6150093 0.11646149 0.045690399 8
2.6118636 0.11540669 0.13701554 9
2.6214392 0.11537267 0.22956821 10
2.6059287 0.11377745 0.32027265 11
2.6199844 0.11255997 -0.13743424 6
2.6212218 0.11169528 -0.045795113 7
2.6134019 0.10725001 0.045655496 8
2.612232 0.10674409 0.13701554 9
2.6138632 0.10589813 0.22887097 10
2.6082933 0.10476058 0.32051641 11
2.6203613 0.10341314 -0.13743424 6
2.6055925 0.10237359 -0.045515876 7
2.6097469 0.09843161 0.045585688 8
2.6125886 0.097626843 0.13701554 9
2.6022706 0.096330471 0.22782511 10
2.6206899 0.094722405 -0.13743424 6
2.6139276 0.093565688 -0.045655496 7
2.5980833 0.088911474 0.045376256 8
2.6149099 0.08857353 0.13712022 9
2.6065583 0.087835222 0.22817372 10
2.6170123 0.085442878 -0.1372249 6
2.6142385 0.084440105 -0.045655496 7
2.5943804 0.079719648 0.045306448 8
2.6052213 0.079142578 0.13659686 9
2.6108322 0.07885696 0.22852236 10
2.5933375 0.075610586 -0.13596882 6
2.618515 0.075428657 -0.045725305 7
2.5966418 0.070716828 0.04534135 8
2.5974956 0.069832779 0.13617818 9
2.6051164 0.069582678 0.22799942 10
2.6027699 0.065883614 -0.045446068 7
2.5988719 0.061700433 0.045376256 8
2.59373 0.060671296 0.13596882 9
2.6033514 0.060443006 0.22782511 10
2.5989854 0.056709908 -0.045376256 7
2.5970721 0.052587133 0.04534135 8
2.6059072 0.051856082 0.13659686 9
2.5995626 0.051275972 0.22747649 10
2.6031663 0.047711246 -0.045446068 7
2.5832438 0.043287348 0.04509702 8
2.6060724 0.04276 0.13659686 9
2.5917575 0.042072684 0.22677925 10
2.603317 0.038623519 -0.045446068 7
2.5913773 0.034375291 0.045236636 8
2.5862348 0.033405442 0.13555014 9
2.5978649 0.033100966 0.22730216 10
2.607435 0.029581929 -0.045515876 7
2.5834832 0.025251852 0.04509702 8
2.5903301 0.024414552 0.13575949 9
2.6039417 0.02408712 0.22782511 10
2.599524 0.020417828 -0.045376256 7
2.5975533 0.016322162 0.04534135 8
2.586405 0.015348072 0.13555014 9
2.592056 0.014930454 0.22677925 10
2.575598 0.0071927886 0.044957399 8
2.5904374 0.0063300459 0.13575949 9
2.5841224 0.0058636251 0.226082 10
2.5676084 -0.0017925291 0.044817779 8
2.5904441 -0.0022605893 0.13575949 9
2.5881121 -0.0031619768 0.22643061 10
2.5735874 -0.010331097 0.044922493 8
2.5784369 -0.011250624 0.13513145 9
2.5880854 -0.012196155 0.22643061 10
2.5795348 -0.019359553 0.045027211 8
2.578382 -0.020250978 0.13513145 9
2.5940075 -0.020826472 0.22695355 10
2.5774517 -0.028341703 0.044992302 8
2.5782955 -0.029251089 0.13513145 9
2.5739965 -0.029651619 0.22521043 10
2.5781777 -0.038250841 0.13513145 9
2.5499713 -0.038277514 0.22311871 10
2.5860162 -0.047396526 0.13555014 9
2.5698607 -0.05607456 0.13471277 9
2.5696495 -0.065044709 0.13471277 9
2.5733995 -0.074129075 0.1349221 9
2.5731251 -0.083111458 0.1349221 9
2.5808032 -0.092378631 0.13534079 9
2.780731 0.66041261 -0.14978553 6
2.7701862 0.61717951 -0.1487388 6
2.7645192 0.60579646 -0.14832011 6
2.745719 0.56661212 0.04893655 8
2.7555192 0.55861413 0.049076166 8
