# .PCD v0.7 - Point Cloud Data file format
VERSION 0.7
FIELDS x y z intensity
SIZE 4 4 4 4
TYPE F F F F
COUNT 1 1 1 1
WIDTH 1421
HEIGHT 1
VIEWPOINT 0 0 0 1 0 0 0
POINTS 1421
DATA ascii
-0.96885693 -5.0993996 -1.1983478 0
-0.95814335 -5.1368737 -1.2063924 0
-0.93462753 -5.10571 -1.1983309 0
-0.92040372 -5.1249623 -1.2021184 0
-0.89944774 -5.1066279 -1.1971039 0
-0.88424826 -5.1207747 -1.1997185 0
-0.87093961 -5.1465516 -1.2050667 0
-0.85037631 -5.129519 -1.200404 0
-0.83352238 -5.1344919 -1.2009071 0
-0.81344819 -5.1192932 -1.1967077 0
-0.79995608 -5.1456409 -1.202233 0
-0.78208607 -5.1442609 -1.2012912 0
-0.76697201 -5.161242 -1.2046494 0
-0.74579233 -5.1371226 -1.1984295 0
-0.72667354 -5.1262555 -1.1953192 0
-0.71176344 -5.1451545 -1.1991628 0
-0.69911873 -5.1816807 -1.2071227 0
-0.6763739 -5.1431789 -1.1976184 0
-0.65828073 -5.1388197 -1.1960826 0
-0.64622152 -5.1824913 -1.2057363 0
-0.62625194 -5.1632748 -1.2007703 0
-0.61069918 -5.180294 -1.2042452 0
-0.59114015 -5.1632099 -1.1998062 0
-0.5749985 -5.1757207 -1.2022587 0
-0.5574854 -5.1761651 -1.201921 0
-0.54015476 -5.1782656 -1.2019814 0
-0.52252918 -5.177464 -1.2013819 0
-0.50426811 -5.1699691 -1.1992438 0
-0.48836681 -5.1868763 -1.2027791 0
-0.46934107 -5.1705017 -1.1986103 0
-0.45441431 -5.1996408 -1.2050053 0
-0.4346844 -5.1738315 -1.1986796 0
-0.41948202 -5.2018833 -1.204846 0
-0.39936382 -5.1686416 -1.1968298 0
-0.38313422 -5.184866 -1.2002825 0
-0.36587286 -5.1878896 -1.2006917 0
-0.34869093 -5.1922755 -1.2014294 0
-0.33185896 -5.2024879 -1.2035283 0
-0.3121081 -5.1654062 -1.1947011 0
-0.29592487 -5.1863532 -1.1993096 0
-0.27906984 -5.1972895 -1.2016155 0
-0.26105824 -5.186583 -1.1989311 0
-0.2446848 -5.209094 -1.2039382 0
-0.22656335 -5.1948676 -1.2004679 0
-0.20852999 -5.1803284 -1.1969397 0
-0.19213215 -5.2073421 -1.2030258 0
-0.17387262 -5.1841278 -1.1975213 0
-0.15612581 -5.1726079 -1.1947327 0
-0.1400193 -5.2192168 -1.2053828 0
-0.12193365 -5.1946998 -1.1996194 0
-0.10431293 -5.1849799 -1.1972873 0
-0.086938031 -5.1858931 -1.1974242 0
-0.069937252 -5.2150154 -1.2040876 0
-0.05220348 -5.1905208 -1.198385 0
-0.034791417 -5.1893339 -1.1980772 0
-0.01749721 -5.220705 -1.2052996 0
6.9044672e-06 -5.2038693 -1.2014061 0
0.017504299 -5.218688 -1.204834 0
0.034879506 -5.2004147 -1.2006354 0
0.05213695 -5.182538 -1.1965419 0
0.069926791 -5.2132034 -1.2036692 0
0.08733768 -5.2089081 -1.2027383 0
0.10494934 -5.2159247 -1.204433 0
0.12154375 -5.1775031 -1.1956482 0
0.1391997 -5.1881523 -1.1982086 0
0.15667972 -5.1905026 -1.1988659 0
0.17417835 -5.192832 -1.1995322 0
0.19050443 -5.1628542 -1.1927482 0
0.20920563 -5.1967692 -1.2007387 0
0.22665283 -5.1966023 -1.200869 0
0.24319176 -5.1770158 -1.1965244 0
0.26098883 -5.1849298 -1.198549 0
0.27793506 -5.175899 -1.1966702 0
0.29485345 -5.1673346 -1.194912 0
0.31263179 -5.1738448 -1.196653 0
0.3327108 -5.2156243 -1.2065674 0
0.34830531 -5.1863279 -1.2000535 0
0.36569396 -5.1851563 -1.2000593 0
0.38276425 -5.1796727 -1.1990805 0
0.39850712 -5.1573758 -1.1942214 0
0.41828725 -5.1868954 -1.2013748 0
0.43509755 -5.1785841 -1.1997809 0
0.45329314 -5.1866531 -1.2019957 0
0.46742678 -5.149261 -1.1936866 0
0.48723859 -5.1747465 -1.1999667 0
0.50422037 -5.1693373 -1.1990975 0
0.52312356 -5.1832151 -1.2027168 0
0.53999954 -5.1766448 -1.2016056 0
0.55816424 -5.1823387 -1.203355 0
0.57533532 -5.1786275 -1.2029343 0
0.59207857 -5.1712852 -1.201683 0
0.61382443 -5.2066851 -1.2103807 0
0.62726754 -5.1715336 -1.2026912 0
0.64341307 -5.1598573 -1.2004707 0
0.6637674 -5.1815414 -1.2060267 0
0.67900699 -5.163095 -1.2022563 0
0.69339132 -5.1391277 -1.19721 0
0.71420115 -5.1626754 -1.2032467 0
0.72929072 -5.1446204 -1.1996019 0
0.74452138 -5.1282725 -1.1963652 0
0.76444083 -5.144115 -1.2006524 0
0.78059411 -5.134356 -1.1989787 0
0.79809195 -5.1335602 -1.1994109 0
0.81418824 -5.1238632 -1.1977764 0
0.82979751 -5.1114612 -1.1955209 0
0.85228789 -5.140965 -1.2030833 0
0.86354655 -5.1027827 -1.1948186 0
0.88531756 -5.1268859 -1.2011508 0
0.8991338 -5.1047664 -1.1966679 0
0.9141221 -5.0899072 -1.1938965 0
0.93656111 -5.1161962 -1.2007927 0
0.95220119 -5.1049409 -1.1988935 0
0.97322214 -5.1223011 -1.2037301 0
0.98780054 -5.1056213 -1.2005819 0
1.0062926 -5.1092844 -1.20223 0
1.0217985 -5.097805 -1.2003282 0
1.037977 -5.0898991 -1.1992794 0
1.0591466 -5.106205 -1.2039514 0
1.0740334 -5.0920644 -1.2014595 0
1.0876713 -5.0724444 -1.1976839 0
1.1091006 -5.0890894 -1.2024854 0
1.1273447 -5.0907049 -1.2037535 0
1.1381235 -5.0589685 -1.1971446 0
1.1596501 -5.0751295 -1.2018822 0
1.1829053 -5.0981317 -1.208262 0
1.1892658 -5.0486035 -1.1974622 0
1.2107679 -5.0637498 -1.2020108 0
1.2274573 -5.0585017 -1.201735 0
1.2487695 -5.072062 -1.2059444 0
1.2642032 -5.0615807 -1.2044533 0
1.2764524 -5.0387049 -1.2000215 0
1.2956339 -5.0433297 -1.2021508 0
1.3105764 -5.0314341 -1.200356 0
1.3288641 -5.0324106 -1.2016451 0
1.3433717 -5.0191188 -1.19954 0
1.3627453 -5.0239983 -1.2017914 0
1.3757385 -5.0054159 -1.1984431 0
1.3853781 -4.975153 -1.1923026 0
1.4132608 -5.0102201 -1.2018354 0
1.4301962 -5.0059614 -1.2019572 0
1.4466233 -4.9999318 -1.2016673 0
1.4564992 -4.9715705 -1.196018 0
1.4780939 -4.983294 -1.2000239 0
1.4922768 -4.9699283 -1.1980034 0
1.5130213 -4.9783535 -1.2012503 0
1.5261242 -4.9616132 -1.198439 0
1.5482681 -4.9741936 -1.2027247 0
1.558913 -4.9498472 -1.1980951 0
1.584388 -4.972487 -1.2048539 0
1.5929061 -4.9418783 -1.1987246 0
1.6073718 -4.9300852 -1.1971647 0
1.6242845 -4.9258575 -1.1974536 0
1.6451385 -4.9334216 -1.2006266 0
1.6597023 -4.9220419 -1.1992048 0
1.6739664 -4.9099112 -1.1976099 0
1.6880333 -4.8973498 -1.1959198 0
1.7147578 -4.9212637 -1.2031566 0
1.7241185 -4.8952432 -1.1982017 0
1.7461617 -4.9052792 -1.2020843 0
1.7531271 -4.8730702 -1.1956251 0
1.7633561 -4.8503871 -1.1915035 0
1.7803569 -4.8464842 -1.1920044 0
1.8110029 -4.879303 -1.201563 0
1.8276498 -4.8739982 -1.2017587 0
1.8376861 -4.8512244 -1.1976562 0
1.8527826 -4.8420086 -1.1969078 0
1.8721817 -4.8439846 -1.1989411 0
1.8901222 -4.842061 -1.2000269 0
1.9142439 -4.8557305 -1.2049985 0
1.9281845 -4.8434348 -1.2035447 0
1.943445 -4.8345351 -1.2029457 0
1.9574541 -4.8225985 -1.2016019 0
1.9667891 -4.7993584 -1.1974477 0
1.9821713 -4.79105 -1.197026 0
1.9978093 -4.7833848 -1.1967778 0
2.0152273 -4.7799602 -1.1976047 0
2.0386674 -4.7906251 -1.2019826 0
2.0513773 -4.7759848 -1.2000283 0
2.0676422 -4.7696877 -1.2001811 0
2.0792508 -4.7527356 -1.1976631 0
2.093967 -4.7430038 -1.1969731 0
2.1172152 -4.7524714 -1.2011472 0
2.1331398 -4.7453513 -1.2011485 0
2.1493795 -4.7389255 -1.2013394 0
2.1617815 -4.7240996 -1.1994115 0
2.1826868 -4.7278252 -1.2022086 0
2.1961877 -4.7154598 -1.2009301 0
2.2128627 -4.7099371 -1.2014064 0
2.2231417 -4.690886 -1.1984414 0
2.2475142 -4.7015162 -1.2030756 0
2.2586484 -4.6843796 -1.2006216 0
2.2784405 -4.6852088 -1.2027854 0
2.2845769 -4.6580524 -1.1977735 0
2.3011446 -4.6523137 -1.1982751 0
2.3098466 -4.6307726 -1.1947148 0
2.3317332 -4.6356726 -1.1979892 0
2.350111 -4.6334448 -1.1994431 0
2.3618748 -4.6181912 -1.1975375 0
2.374558 -4.6048408 -1.1961335 0
2.3984573 -4.6131511 -1.2003742 0
2.4109738 -4.5994806 -1.1989137 0
2.4387894 -4.61485 -1.2050446 0
2.449939 -4.5985589 -1.2029288 0
2.4574583 -4.5756373 -1.1990814 0
2.4825256 -4.5853624 -1.2038044 0
2.4820137 -4.5479302 -1.1961553 0
2.5197201 -4.5804334 -1.2069191 0
2.5263615 -4.5562658 -1.2027763 0
2.5297143 -4.5264606 -1.1971405 0
2.5551682 -4.5362244 -1.2019818 0
2.5675304 -4.5226426 -1.2006572 0
2.5873225 -4.5221238 -1.2028157 0
2.5999892 -4.5091214 -1.2016691 0
2.6057458 -4.4842935 -1.1973741 0
2.6360815 -4.5016856 -1.2043713 0
2.6424265 -4.4780216 -1.2004039 0
2.6634269 -4.4792295 -1.2031147 0
2.6814971 -4.4753938 -1.2044926 0
2.6886883 -4.4534602 -1.2010089 0
2.6895411 -4.4213014 -1.1947614 0
2.7066088 -4.4159446 -1.1957594 0
2.7341368 -4.4274712 -1.2013562 0
2.7410467 -4.405551 -1.1978952 0
2.7537153 -4.3930068 -1.1969881 0
2.7731118 -4.3911653 -1.199013 0
2.7889299 -4.3835888 -1.1994907 0
2.7970183 -4.3639264 -1.1966698 0
2.816376 -4.3618684 -1.1986881 0
2.8460643 -4.3755846 -1.2050731 0
2.8480582 -4.3466949 -1.1997398 0
2.8621285 -4.3363833 -1.1995356 0
2.8767533 -4.3269157 -1.199578 0
2.9036875 -4.3358264 -1.2047406 0
2.9200251 -4.3287597 -1.2054906 0
2.9072592 -4.2788205 -1.1942911 0
2.9414632 -4.298089 -1.2024153 0
2.9401031 -4.265347 -1.1960067 0
2.9682 -4.2753611 -1.2015983 0
2.9773672 -4.2580194 -1.1995232 0
2.9746029 -4.2238393 -1.1926973 0
3.0096583 -4.2433238 -1.2010419 0
3.034003 -4.2473969 -1.2050672 0
3.0398722 -4.2255874 -1.2017643 0
3.0595038 -4.2229371 -1.2039212 0
3.0680325 -4.2049627 -1.2017227 0
3.0837953 -4.1969409 -1.2023784 0
3.0813837 -4.1643252 -1.1959875 0
3.0926406 -4.1503634 -1.1949488 0
3.1137304 -4.1495552 -1.1977152 0
3.139832 -4.1552463 -1.2023896 0
3.1529038 -4.1435885 -1.2020684 0
3.1616518 -4.1263027 -1.2001224 0
3.1732936 -4.1128602 -1.1993003 0
3.1967306 -4.1146379 -1.2029374 0
3.2039981 -4.0955749 -1.2004981 0
3.2223372 -4.0906816 -1.2022238 0
3.2307439 -4.0731845 -1.2002583 0
3.2292488 -4.0433807 -1.1946596 0
3.250025 -4.0415311 -1.1973261 0
3.259671 -4.0258121 -1.1959002 0
3.2907672 -4.0364695 -1.2023368 0
3.3096046 -4.0318971 -1.2042735 0
3.3055761 -3.9995699 -1.1979214 0
3.3113835 -3.979351 -1.1951842 0
3.3502922 -3.9987636 -1.2043817 0
3.3595831 -3.982651 -1.2029146 0
3.3618975 -3.9583895 -1.1989845 0
3.3845289 -3.9580634 -1.2023162 0
3.3830755 -3.9296129 -1.1971128 0
3.4170032 -3.9422121 -1.2044344 0
3.4071937 -3.9043682 -1.1963557 0
3.4394484 -3.9147568 -1.2030658 0
3.4315844 -3.8794959 -1.1957586 0
3.463356 -3.889061 -1.2022792 0
3.4762847 -3.8773255 -1.2022476 0
3.4818046 -3.8573833 -1.1996771 0
3.510473 -3.8630247 -1.2050854 0
3.5168719 -3.8440919 -1.2028509 0
3.5312743 -3.8339441 -1.2033736 0
3.5263805 -3.802964 -1.1973541 0
3.5501621 -3.8029568 -1.2010927 0
3.552273 -3.7797327 -1.1975127 0
3.5775769 -3.7811723 -1.2017623 0
3.5856912 -3.7643867 -1.2002417 0
3.6028326 -3.7570782 -1.2017561 0
3.6113141 -3.7407355 -1.2003949 0
3.6264904 -3.7313378 -1.2012743 0
3.6383479 -3.7185113 -1.2010654 0
3.6432972 -3.6986802 -1.1985987 0
3.6688023 -3.6996791 -1.202902 0
3.6686168 -3.674767 -1.1987947 0
3.6890457 -3.6705344 -1.2014421 0
3.6992884 -3.6561255 -1.2007788 0
3.7120147 -3.644182 -1.200937 0
3.7227533 -3.6302934 -1.2004666 0
3.7384155 -3.6211925 -1.2015952 0
3.7406063 -3.5990844 -1.1984141 0
3.7592831 -3.5928597 -1.2005316 0
3.7579775 -3.56758 -1.196288 0
3.7886603 -3.572634 -1.2022355 0
3.7778418 -3.5385783 -1.195031 0
3.8065386 -3.5415726 -1.2003456 0
3.824697 -3.5346172 -1.2023278 0
3.8238289 -3.5101182 -1.1983485 0
3.8426087 -3.50369 -1.2005457 0
3.8345485 -3.4728673 -1.1943829 0
3.859827 -3.4722764 -1.1986237 0
3.8865869 -3.4728436 -1.203311 0
3.8900874 -3.452585 -1.2008041 0
3.9097731 -3.4466915 -1.2033068 0
3.9190962 -3.4316273 -1.2026283 0
3.9256411 -3.4141729 -1.2011172 0
3.9475374 -3.4100373 -1.2043117 0
3.985271 -3.4193676 -1.212319 0
3.9426658 -3.3599274 -1.1959249 0
3.9684474 -3.3589954 -1.2003224 0
4.0152154 -3.3755391 -1.2110381 0
3.9829919 -3.3257208 -1.1979493 0
3.999897 -3.3171389 -1.1996819 0
3.9791126 -3.2774479 -1.1901456 0
4.0348864 -3.3007431 -1.2035106 0
4.029314 -3.2736962 -1.1985679 0
4.0393014 -3.2593882 -1.1982812 0
4.0592847 -3.2531023 -1.2009671 0
4.0680327 -3.2377739 -1.2003367 0
4.0817308 -3.2263808 -1.2011799 0
4.0911126 -3.2115686 -1.2007653 0
4.0920749 -3.1902072 -1.1979015 0
4.1182938 -3.1885054 -1.2024406 0
4.1061883 -3.1571701 -1.1958086 0
4.1240921 -3.1489906 -1.1979411 0
4.1405411 -3.1396301 -1.1996546 0
4.165225 -3.1364081 -1.2037529 0
4.1503649 -3.1034675 -1.1964443 0
4.1558738 -3.0859163 -1.1950431 0
4.1823106 -3.0838466 -1.1996652 0
4.1972065 -3.0731599 -1.2009755 0
4.195498 -3.0503538 -1.1975535 0
4.2129169 -3.0414791 -1.1996081 0
4.2154436 -3.0218551 -1.1974359 0
4.2468443 -3.0228605 -1.2034699 0
4.2534156 -3.0061028 -1.2024691 0
4.2629275 -2.9914439 -1.2023159 0
4.2434368 -2.9565825 -1.1940161 0
4.2413216 -2.9340343 -1.1906462 0
4.2853355 -2.9432874 -1.200225 0
4.2878709 -2.9239192 -1.1981827 0
4.2985353 -2.9101255 -1.1984295 0
4.3260002 -2.9076152 -1.203362 0
4.3171053 -2.8806705 -1.1981944 0
4.3170576 -2.8597662 -1.1955131 0
4.3464541 -2.8583181 -1.2009932 0
4.3449769 -2.8365245 -1.1979504 0
4.3558607 -2.8228467 -1.1983349 0
4.3677287 -2.8097885 -1.1990016 0
4.3976798 -2.8082542 -1.204632 0
4.3987989 -2.7882507 -1.202371 0
4.4035511 -2.7706106 -1.2011241 0
4.415513 -2.7575152 -1.2018583 0
4.4250565 -2.7428954 -1.2019459 0
4.43258 -2.7270296 -1.2014992 0
4.426722 -2.7030079 -1.197448 0
4.4596162 -2.7026081 -1.2038882 0
4.4537721 -2.6786909 -1.1998793 0
4.4172111 -2.6365747 -1.1876413 0
4.4671354 -2.646101 -1.1986722 0
4.4805875 -2.6338158 -1.1999055 0
4.472662 -2.6090188 -1.1954337 0
4.4961128 -2.6025333 -1.1993625 0
4.5326891 -2.6034553 -1.2067841 0
4.4906464 -2.5593219 -1.1932994 0
4.5292349 -2.5612347 -1.201265 0
4.5320845 -2.5428295 -1.1997527 0
4.5309577 -2.5222611 -1.197209 0
4.5479226 -2.5117683 -1.1994596 0
4.5481911 -2.4920528 -1.1973201 0
4.5697546 -2.483983 -1.2007976 0
4.5809793 -2.4702232 -1.201564 0
4.5780902 -2.4488883 -1.1986458 0
4.6020169 -2.4418776 -1.20276 0
4.6075568 -2.4250546 -1.2020761 0
4.6175213 -2.4105635 -1.2025603 0
4.601717 -2.3827136 -1.1963571 0
4.6227121 -2.3739641 -1.1997393 0
4.630744 -2.3585019 -1.1997648 0
4.6636977 -2.3556263 -1.2062497 0
4.6571717 -2.3327649 -1.2025321 0
4.6581826 -2.3137674 -1.2007833 0
4.6702714 -2.3002825 -1.2019045 0
4.6575065 -2.2746232 -1.1966501 0
4.6701527 -2.2614381 -1.1979445 0
4.6889019 -2.2511411 -1.200811 0
4.6811118 -2.2281196 -1.1968961 0
4.7002363 -2.2179239 -1.1998779 0
4.679008 -2.188756 -1.1925786 0
4.7303925 -2.1934922 -1.2037942 0
4.7106972 -2.165199 -1.196928 0
4.7356129 -2.1574488 -1.201414 0
4.7440562 -2.1421173 -1.2017272 0
4.7283702 -2.1159775 -1.1959499 0
4.7490516 -2.1061497 -1.199388 0
4.7668276 -2.0949357 -1.2020967 0
4.745821 -2.0667465 -1.1950451 0
4.7950053 -2.0690677 -1.2056767 0
4.7622333 -2.0360138 -1.195713 0
4.7958221 -2.0313828 -1.2024298 0
4.777597 -2.0047975 -1.1961683 0
4.7793808 -1.9867263 -1.1949403 0
4.8108935 -1.9809349 -1.201152 0
4.8105335 -1.9619491 -1.1994129 0
4.8259501 -1.9493904 -1.2016203 0
4.8104939 -1.9244118 -1.1961585 0
4.8417444 -1.9181072 -1.2023233 0
4.8301516 -1.8948032 -1.1978602 0
4.8438067 -1.8814447 -1.1996754 0
4.8540893 -1.8667328 -1.2006654 0
4.8461256 -1.8450429 -1.1971586 0
4.8706002 -1.8356874 -1.2016774 0
4.8766365 -1.819313 -1.201655 0
4.8750834 -1.8001366 -1.1997784 0
4.8792453 -1.7831066 -1.1993246 0
4.8754749 -1.7632216 -1.196938 0
4.9070396 -1.7560552 -1.203235 0
4.8805623 -1.7281427 -1.1953151 0
4.9349651 -1.7288074 -1.2072127 0
4.9139237 -1.7029606 -1.2006619 0
4.9363551 -1.6922172 -1.2047497 0
4.9046602 -1.6629961 -1.1956468 0
4.9270873 -1.6522025 -1.199757 0
4.9328346 -1.6357517 -1.1998142 0
4.947825 -1.6223296 -1.2021306 0
4.9463515 -1.6034994 -1.2004596 0
4.9393744 -1.5829561 -1.1974714 0
4.9355307 -1.5634964 -1.195262 0
4.9834409 -1.5603076 -1.205591 0
4.9421854 -1.529215 -1.1943634 0
4.9768662 -1.5216807 -1.2015048 0
4.9775434 -1.5036575 -1.2004445 0
4.9913621 -1.489588 -1.2025659 0
4.9895902 -1.4708582 -1.2009441 0
4.9926095 -1.4535722 -1.2004911 0
5.0067816 -1.4395063 -1.2027315 0
5.0041904 -1.4206138 -1.2009581 0
5.0179353 -1.4063528 -1.2031183 0
4.9909086 -1.380747 -1.1955216 0
5.025116 -1.3720894 -1.2026069 0
5.0137687 -1.350944 -1.1988006 0
5.042696 -1.34062 -1.2046356 0
5.0173578 -1.3158884 -1.197522 0
5.0370216 -1.3030117 -1.2011658 0
5.040411 -1.2858734 -1.2009392 0
5.0331898 -1.2660729 -1.1982006 0
5.0501223 -1.2523437 -1.201225 0
5.0352287 -1.2307448 -1.1966943 0
5.0377011 -1.2134641 -1.1963083 0
5.0769067 -1.2049127 -1.2046522 0
5.0873222 -1.1893812 -1.2061707 0
5.0866647 -1.1712546 -1.2050769 0
5.0689325 -1.1492891 -1.1999563 0
5.0635376 -1.1302296 -1.1977755 0
5.0779271 -1.1155812 -1.2002878 0
5.0766401 -1.0974689 -1.1991071 0
5.0690808 -1.0780576 -1.1964611 0
5.084003 -1.063427 -1.1991348 0
5.0994515 -1.0488253 -1.2019423 0
5.079206 -1.0269234 -1.1963522 0
5.0982528 -1.0129941 -1.2000318 0
5.0972142 -0.99503469 -1.1989952 0
5.1019087 -0.97820508 -1.1993214 0
5.1333499 -0.96640092 -1.2059438 0
5.1075096 -0.94381589 -1.1991233 0
5.1318703 -0.93053472 -1.2041034 0
5.1059723 -0.90816712 -1.1973057 0
5.1213393 -0.8931967 -1.2002001 0
5.1532674 -0.88097209 -1.2069836 0
5.1144285 -0.85669357 -1.1972073 0
5.133975 -0.84228128 -1.201115 0
5.1551595 -0.828017 -1.2054149 0
5.1328297 -0.80678636 -1.1995543 0
5.1249952 -0.78795642 -1.1970992 0
5.144237 -0.77326846 -1.2009815 0
5.168407 -0.75919026 -1.2060232 0
5.1529665 -0.73928106 -1.201835 0
5.1532688 -0.72169924 -1.2013345 0
5.1389561 -0.70213509 -1.1974423 0
5.1570277 -0.68699884 -1.2011098 0
5.157155 -0.66942573 -1.2006099 0
5.1576691 -0.65191591 -1.200214 0
5.1758513 -0.6365906 -1.2039417 0
5.1418395 -0.61491412 -1.195544 0
5.1870346 -0.60268617 -1.2055758 0
5.1685033 -0.5829767 -1.2008077 0
5.1794629 -0.56663275 -1.2029058 0
5.1717906 -0.54825217 -1.2006903 0
5.1663857 -0.53016877 -1.1990161 0
5.1679506 -0.51282567 -1.1989734 0
5.1929679 -0.49773142 -1.2043835 0
5.174377 -0.47844699 -1.1996931 0
5.1781702 -0.46129319 -1.2002072 0
5.1589103 -0.44214842 -1.1953928 0
5.1880975 -0.4271324 -1.2018173 0
5.1900115 -0.40977561 -1.2019356 0
5.1600089 -0.39000291 -1.1946779 0
5.1574163 -0.37242061 -1.1937819 0
5.1668463 -0.35569191 -1.1956818 0
5.1677523 -0.33834958 -1.1956222 0
5.2080503 -0.32345527 -1.204688 0
5.2136631 -0.3062596 -1.205742 0
5.2200446 -0.28907558 -1.2069869 0
5.2022996 -0.27060023 -1.2026674 0
5.2155614 -0.25375891 -1.2055297 0
5.182807 -0.23474991 -1.1977702 0
5.1975331 -0.21795738 -1.2009978 0
5.1988692 -0.20055428 -1.2011445 0
5.2168832 -0.18373412 -1.2051573 0
5.2059197 -0.16587383 -1.2024894 0
5.1813955 -0.14770432 -1.1967036 0
5.1963429 -0.13069548 -1.2000479 0
5.2269292 -0.11393015 -1.2070165 0
5.1869392 -0.095660575 -1.1977011 0
2.0174773 -0.030441361 -0.46582365 0
1.9994662 -0.023464534 -0.4616442 0
2.0378985 -0.017082155 -0.47050175 0
2.0096064 -0.01010685 -0.46395934 0
2.0022044 -0.0033565164 -0.46224529 0
2.0008163 0.0033541892 -0.46192479 0
1.9926701 0.010021673 -0.46004924 0
2.0015016 0.016777067 -0.46209854 0
2.006515 0.023547256 -0.46327168 0
2.0073349 0.030288322 -0.46348181 0
2.0091681 0.037054259 -0.4639312 0
5.2131104 0.11362895 -1.2038255 0
5.2096791 0.1310309 -1.2031277 0
5.1956143 0.14810966 -1.1999875 0
5.1942134 0.16550085 -1.1997855 0
5.1685348 0.18203132 -1.1939883 0
5.2063441 0.20084263 -1.2028714 0
5.1887417 0.21758871 -1.1989664 0
5.2251358 0.23666716 -1.2075526 0
5.2000141 0.25300246 -1.2019361 0
5.1919651 0.27006269 -1.2002782 0
5.1780872 0.2867521 -1.1972855 0
5.201149 0.3055245 -1.202848 0
5.1856737 0.32206556 -1.199512 0
5.1884747 0.33970633 -1.2004166 0
5.1897955 0.35727176 -1.2009926 0
5.1567664 0.3723737 -1.1936314 0
5.180316 0.39153773 -1.1993796 0
5.1691217 0.40812626 -1.1970979 0
5.1718059 0.42579108 -1.1980433 0
5.168056 0.44293225 -1.197512 0
5.2035947 0.46355811 -1.2061002 0
5.1639481 0.47748268 -1.1972752 0
5.1743803 0.49594983 -1.2000726 0
5.1546988 0.51151067 -1.1958991 0
5.1726847 0.53081518 -1.200478 0
5.1873093 0.54989731 -1.2042931 0
5.1599479 0.56449783 -1.1983736 0
5.1540828 0.58135015 -1.1974573 0
5.1648641 0.60011011 -1.2004229 0
5.1719465 0.61851466 -1.2025442 0
5.1215105 0.62990713 -1.1913016 0
5.1453929 0.65036428 -1.1973573 0
5.1769514 0.6719954 -1.2052187 0
5.1468554 0.68564373 -1.1987406 0
5.1391692 0.70216417 -1.197492 0
5.1654015 0.72339839 -1.2041628 0
5.1587739 0.74011427 -1.2031896 0
5.1350961 0.7542972 -1.1982503 0
5.1408315 0.77275658 -1.2001864 0
5.1324773 0.78910685 -1.1988471 0
5.1350946 0.80714244 -1.2000837 0
5.1397343 0.82553941 -1.2018081 0
5.1392379 0.84314471 -1.2023463 0
5.1513782 0.86288279 -1.2058566 0
5.1070685 0.87307417 -1.1961629 0
5.1211538 0.89316446 -1.2001567 0
5.1012979 0.90733576 -1.1962095 0
5.1080575 0.92621678 -1.198516 0
5.1264696 0.94731957 -1.2035747 0
5.1255131 0.96492553 -1.2041028 0
5.0916686 0.97624177 -1.1969142 0
5.1061144 0.99677217 -1.2010889 0
5.0843339 1.0102285 -1.1967556 0
5.0808868 1.0272633 -1.1967481 0
5.0687475 1.0425103 -1.1947055 0
5.1016378 1.0671158 -1.2032943 0
5.0844975 1.0813364 -1.2000998 0
5.0488558 1.0914625 -1.1925443 0
5.0777912 1.1155514 -1.2002556 0
5.0880809 1.1357079 -1.2035811 0
5.0636954 1.1481017 -1.1987166 0
5.0918269 1.1724434 -1.2062999 0
5.0722976 1.1858686 -1.2026085 0
5.0680389 1.2028081 -1.2025481 0
5.0290384 1.2113775 -1.1942511 0
5.0546532 1.2354926 -1.2013108 0
5.0248041 1.2460653 -1.1952029 0
5.0258141 1.2642175 -1.1964446 0
5.027741 1.2826412 -1.1979203 0
5.0620251 1.3094796 -1.2071283 0
5.0295262 1.3190798 -1.2004262 0
5.0057669 1.3308023 -1.1958138 0
5.0189281 1.3523343 -1.2000341 0
4.99019 1.362553 -1.1942484 0
4.9929652 1.3813159 -1.1960143 0
4.995235 1.3999906 -1.1976756 0
4.9982595 1.4189299 -1.1995347 0
4.9842277 1.4330218 -1.1973135 0
4.9976506 1.4550399 -1.2017032 0
4.9917178 1.4714854 -1.2014562 0
4.9956889 1.4908792 -1.2036083 0
4.9633431 1.4993677 -1.1970198 0
4.9619913 1.5171326 -1.1979138 0
4.9635482 1.535825 -1.199526 0
4.9467549 1.5488212 -1.1967158 0
4.9620748 1.5719051 -1.2016903 0
4.9335356 1.5810848 -1.1960559 0
4.9374928 1.6006275 -1.1983095 0
4.9474478 1.6222059 -1.2020389 0
4.9446812 1.6396799 -1.2026956 0
4.9115391 1.6469887 -1.1959709 0
4.9149508 1.6664854 -1.1981555 0
4.7681017 1.6345389 -1.1636864 0
4.6971803 1.6278462 -1.1477031 0
4.6458311 1.6275185 -1.1364834 0
4.5937214 1.6265762 -1.1250639 0
4.5385909 1.6242006 -1.1128892 0
4.4939103 1.6252283 -1.1032631 0
4.4753561 1.6355064 -1.1000481 0
4.4371643 1.6384339 -1.0920047 0
4.4606576 1.664125 -1.0991535 0
4.4592719 1.6806613 -1.1001943 0
4.4304743 1.686794 -1.0944786 0
4.4678626 1.718202 -1.1051317 0
4.4387827 1.7241242 -1.0993624 0
4.4446754 1.7435859 -1.1022635 0
4.4509459 1.7632884 -1.1052786 0
4.4652228 1.786288 -1.1103048 0
4.4571724 1.8004266 -1.1097978 0
4.4270096 1.8055309 -1.1037886 0
4.4563661 1.8349545 -1.1126359 0
4.7972536 1.9941558 -1.199409 0
4.7865677 2.0085618 -1.1984143 0
4.7715168 2.0210876 -1.1963359 0
4.7714496 2.0399539 -1.198027 0
4.7920256 2.0677819 -1.2049273 0
4.7580767 2.0720837 -1.1981312 0
4.7738729 2.098032 -1.2038734 0
4.7375245 2.1010375 -1.1964768 0
4.7389235 2.1207001 -1.1986191 0
4.7446203 2.1423719 -1.2018701 0
4.7043486 2.1432054 -1.1934824 0
4.7240129 2.1713192 -1.2003113 0
4.7156839 2.186672 -1.2000512 0
4.7228489 2.209264 -1.2037528 0
4.7184796 2.2265325 -1.204535 0
4.6944528 2.2344697 -1.2003073 0
4.6783805 2.2460897 -1.1981165 0
4.6792412 2.2658391 -1.2002758 0
4.6517043 2.2717896 -1.1951594 0
4.6735306 2.3018878 -1.2027433 0
4.6616898 2.3155093 -1.2016872 0
4.6505642 2.3294554 -1.2008259 0
4.6492109 2.3483093 -1.2025027 0
4.6093659 2.3476138 -1.1942261 0
4.6295767 2.3774893 -1.2015209 0
4.6058712 2.3848646 -1.1974372 0
4.6018109 2.4023621 -1.1984689 0
4.6110516 2.4268939 -1.2029879 0
4.6029391 2.4423671 -1.203001 0
4.585124 2.4526505 -1.2004874 0
4.5761943 2.467643 -1.2003088 0
4.5538449 2.4753349 -1.1966169 0
4.5803852 2.5096924 -1.2057952 0
4.5507717 2.5133419 -1.200211 0
4.55018 2.5329616 -1.202288 0
4.5219049 2.5371182 -1.197058 0
4.5267534 2.5598314 -1.2006067 0
4.4939651 2.5612135 -1.1941813 0
4.4966435 2.5827518 -1.1971874 0
4.4641628 2.5840394 -1.1908396 0
4.4894395 2.6188054 -1.1999179 0
4.4755802 2.6308722 -1.1985644 0
4.4569373 2.6400599 -1.1959356 0
4.4748182 2.6709597 -1.2031299 0
4.4391036 2.6698687 -1.1959275 0
4.4386511 2.689903 -1.1982285 0
4.4343052 2.7076385 -1.1994994 0
4.4021378 2.7083008 -1.1932476 0
4.4068465 2.7316077 -1.1969997 0
4.4087143 2.7532692 -1.2000077 0
4.4163527 2.7786648 -1.2046158 0
4.3993287 2.7885866 -1.2025158 0
4.3850131 2.8001654 -1.2011622 0
4.3617206 2.8059232 -1.1973522 0
4.3381872 2.8113933 -1.1934729 0
4.3539042 2.8423526 -1.2004118 0
4.3420448 2.8554184 -1.1997747 0
4.3343568 2.8712258 -1.2003038 0
4.3295598 2.8889811 -1.2016511 0
4.3117838 2.8980598 -1.1994073 0
4.2961078 2.9084821 -1.1977527 0
4.3122196 2.9405227 -1.2049867 0
4.3025055 2.9550805 -1.205034 0
4.278439 2.9597113 -1.201066 0
4.2741003 2.9779475 -1.2026443 0
4.2861447 3.0077362 -1.2088641 0
4.2419491 2.997999 -1.1992275 0
4.244411 3.0211284 -1.2027802 0
4.2181416 3.0237889 -1.1982023 0
4.2016888 3.0333731 -1.196411 0
4.1886177 3.0453515 -1.1955897 0
4.1856074 3.0646675 -1.1976568 0
4.1628127 3.0694699 -1.1940724 0
4.1574378 3.0870776 -1.1954927 0
4.1741095 3.1212227 -1.2032893 0
4.1510983 3.1257706 -1.1996702 0
4.1440287 3.1422746 -1.200665 0
4.1073761 3.1362269 -1.1930854 0
4.1080422 3.1585953 -1.1963484 0
4.1286077 3.1964908 -1.2054518 0
4.0935783 3.1913793 -1.1983416 0
4.0935373 3.2134721 -1.2014769 0
4.0803037 3.2252529 -1.2007599 0
4.0569348 3.2289407 -1.197062 0
4.0630326 3.2561059 -1.2020758 0
4.0500374 3.2680516 -1.2014661 0
4.0229893 3.2685571 -1.1966864 0
4.0126038 3.2825148 -1.1968642 0
4.0395794 3.3272521 -1.2082311 0
3.9990127 3.3164055 -1.1994168 0
3.9908862 3.3323126 -1.2003236 0
3.975636 3.3422651 -1.1991005 0
3.9835277 3.3717597 -1.2048837 0
3.9529984 3.3687329 -1.1990591 0
3.9544387 3.3929133 -1.2029399 0
3.9318514 3.396487 -1.1995262 0
3.9145622 3.4045374 -1.1977274 0
3.908159 3.4220505 -1.199272 0
3.894249 3.433006 -1.1985289 0
3.8814058 3.4448798 -1.1981242 0
3.8643515 3.4529753 -1.1964267 0
3.8615103 3.4737906 -1.1991464 0
3.8420019 3.4796178 -1.1967045 0
3.8347759 3.4965484 -1.1980985 0
3.8391409 3.524174 -1.2031472 0
3.8160539 3.5266299 -1.1996108 0
3.8205428 3.5546021 -1.2047617 0
3.7848952 3.5451849 -1.1972622 0
3.7786193 3.5631657 -1.1990492 0
3.7551343 3.5648808 -1.195383 0
3.7632804 3.5966799 -1.2018081 0
3.7604415 3.6181688 -1.2047689 0
3.7443485 3.6269393 -1.2035022 0
3.7158213 3.6235332 -1.1982312 0
3.7099621 3.6421671 -1.200273 0
3.6972532 3.6541142 -1.2001183 0
3.6812837 3.6628113 -1.1989142 0
3.6818907 3.6880634 -1.2031323 0
3.6597369 3.6905372 -1.1999297 0
3.6404796 3.6958196 -1.1976718 0
3.6301272 3.7101097 -1.1983517 0
3.6314714 3.7364628 -1.2029243 0
3.5989184 3.7278955 -1.1962746 0
3.5979385 3.7519743 -1.2001235 0
3.5857077 3.7644041 -1.2002472 0
3.566191 3.7691386 -1.1979376 0
3.5595417 3.7874668 -1.1999631 0
3.5506091 3.8034356 -1.2012439 0
3.533191 3.8103085 -1.1996664 0
3.5215275 3.8233616 -1.200052 0
3.4980524 3.8235214 -1.1964142 0
3.4751778 3.8241849 -1.1929692 0
3.461154 3.8345051 -1.1925619 0
3.4797966 3.8812428 -1.2034622 0
3.4723828 3.8991973 -1.2054127 0
3.4562938 3.9074304 -1.2043687 0
3.4433486 3.9191961 -1.20443 0
3.3935592 3.8887441 -1.1915683 0
3.394594 3.9163582 -1.1965355 0
3.3864172 3.9334943 -1.1982952 0
3.365088 3.9353282 -1.19541 0
3.3880808 3.9892185 -1.2083225 0
3.3581345 3.9809337 -1.2023959 0
3.3550627 4.0044575 -1.2060966 0
3.3152943 3.9840505 -1.1965957 0
3.2995565 3.9922867 -1.19574 0
3.2928274 4.0114584 -1.1981688 0
3.2849271 4.0293059 -1.2002031 0
3.2643633 4.0316076 -1.1976218 0
3.2706082 4.0671272 -1.204909 0
3.2400212 4.056869 -1.1986449 0
3.2282908 4.0700917 -1.1993469 0
3.2217622 4.0899515 -1.2020092 0
3.2018154 4.0927849 -1.1996803 0
3.1974549 4.1155705 -1.20321 0
3.1814365 4.123414 -1.2023778 0
3.1589737 4.1228075 -1.1991059 0
3.1480074 4.1371536 -1.2002017 0
3.1417301 4.1577582 -1.2031165 0
3.1153452 4.1517072 -1.1983364 0
3.1112645 4.1753569 -1.2021449 0
3.1028702 4.1933632 -1.2043271 0
3.0809834 4.1931143 -1.201282 0
3.0755715 4.2152953 -1.2046758 0
3.0447419 4.2025619 -1.1981124 0
3.0531275 4.2440133 -1.2070047 0
3.041085 4.2573113 -1.2078801 0
3.0111361 4.2454071 -1.2016315 0
2.9965856 4.255054 -1.2015115 0
2.9634085 4.2380567 -1.1938995 0
2.9678235 4.2748189 -1.2014459 0
2.9433248 4.270021 -1.1973172 0
2.937129 4.2917557 -1.2006435 0
2.931674 4.3147531 -1.2043207 0
2.9077873 4.3106179 -1.2004385 0
2.8986633 4.3283243 -1.2026561 0
2.8856001 4.3402224 -1.2032671 0
2.8625314 4.3369937 -1.1997045 0
2.8661726 4.374341 -1.2073704 0
2.8340318 4.3570857 -1.1999784 0
2.8281419 4.3800907 -1.2036958 0
2.7997649 4.3682117 -1.197845 0
2.7865448 4.3798399 -1.198465 0
2.7785044 4.399704 -1.2013445 0
2.75265 4.3913074 -1.1965251 0
2.739043 4.4023309 -1.1970197 0
2.7181802 4.4016323 -1.194345 0
2.7148082 4.4293222 -1.1993818 0
2.7018585 4.4415498 -1.2002331 0
2.6916056 4.4582925 -1.202312 0
2.6498578 4.4225883 -1.1902806 0
2.6509507 4.4582481 -1.1974791 0
2.649291 4.489655 -1.2035224 0
2.6263092 4.4849973 -1.1999066 0
2.6174326 4.504405 -1.2027444 0
2.5835006 4.4805255 -1.1940485 0
2.5852978 4.5185852 -1.2018745 0
2.5547159 4.5000701 -1.1946647 0
2.5423884 4.5135365 -1.1959701 0
2.5452297 4.5542221 -1.2044828 0
2.5181279 4.5414166 -1.1988564 0
2.5097218 4.5622582 -1.20213 0
2.5036061 4.5874953 -1.2065612 0
2.4777515 4.5765443 -1.2014893 0
2.4552927 4.5716052 -1.1980247 0
2.44401 4.58743 -1.2000177 0
2.4290507 4.5964217 -1.2002326 0
2.4141006 4.6054459 -1.2004687 0
2.4076202 4.630775 -1.20496 0
2.3750176 4.605732 -1.196365 0
2.364295 4.6229234 -1.1987647 0
2.3406923 4.6148753 -1.194636 0
2.3385639 4.6492529 -1.2014987 0
2.3295922 4.6703582 -1.2049277 0
2.300838 4.6516938 -1.1981153 0
2.2860181 4.6609912 -1.1985291 0
2.2638392 4.6551843 -1.1950775 0
2.2521384 4.6708779 -1.1971611 0
2.234936 4.6752038 -1.1963426 0
2.2226756 4.6899023 -1.1981901 0
2.2067595 4.6969466 -1.1980928 0
2.2059224 4.736361 -1.2062532 0
2.1841698 4.7310371 -1.2030255 0
2.1603611 4.7209949 -1.1986233 0
2.1558022 4.7530866 -1.2049292 0
2.1406586 4.7620778 -1.2053822 0
2.1141558 4.745604 -1.1994115 0
2.1042056 4.7661948 -1.2028257 0
2.0901179 4.777576 -1.2039226 0
2.0694091 4.7737637 -1.2012068 0
2.0539455 4.7819643 -1.2015307 0
2.0393319 4.7921858 -1.2023742 0
2.0193198 4.7896671 -1.2000368 0
2.0114315 4.8160005 -1.2049381 0
1.9841282 4.7957797 -1.1982079 0
1.9769865 4.8242421 -1.2036562 0
1.9539316 4.81392 -1.1994395 0
1.9379172 4.8207846 -1.1995242 0
1.9196972 4.8221154 -1.1982471 0
1.8979876 4.8144941 -1.1947653 0
1.8910673 4.8444824 -1.200627 0
1.8732792 4.8468242 -1.199644 0
1.8520873 4.8401914 -1.1964586 0
1.8453379 4.8714242 -1.2026429 0
1.820488 4.8548985 -1.1970495 0
1.8204788 4.9048338 -1.2078501 0
1.789101 4.8702879 -1.1978589 0
1.7777679 4.890029 -1.2012416 0
1.7608637 4.8945751 -1.2009013 0
1.7414839 4.8921385 -1.1988641 0
1.7299901 4.9119143 -1.2022822 0
1.708185 4.9024 -1.1985447 0
1.6871275 4.8947215 -1.1952779 0
1.6825984 4.9352298 -1.2037855 0
1.6633554 4.9328756 -1.2018443 0
1.6499158 4.9477477 -1.204113 0
1.6304678 4.9446092 -1.2020121 0
1.6127295 4.9465184 -1.2011551 0
1.5901815 4.9334249 -1.1966741 0
1.5809776 4.9617834 -1.2022604 0
1.5668997 4.9752064 -1.2042332 0
1.543676 4.9594402 -1.1991575 0
1.5294912 4.9725595 -1.2010829 0
1.5065768 4.9571486 -1.1961337 0
1.4946564 4.9778533 -1.1999137 0
1.4756321 4.9749942 -1.1980252 0
1.4570336 4.9733944 -1.1964568 0
1.4427758 4.9866338 -1.1984714 0
1.4205089 4.9720535 -1.1938158 0
1.4153558 5.0176473 -1.2036169 0
1.3987987 5.0233488 -1.2038528 0
1.3779769 5.0135603 -1.2003931 0
1.3600264 5.0139742 -1.1993936 0
1.3444856 5.0232801 -1.2005346 0
1.3208091 5.0019064 -1.1943613 0
1.3085065 5.0234876 -1.1984602 0
1.2921983 5.0299563 -1.198963 0
1.2769903 5.0408282 -1.2005272 0
1.2560326 5.0288672 -1.196669 0
1.2372383 5.0252261 -1.1948087 0
1.2235872 5.042552 -1.197946 0
1.2152808 5.082624 -1.206491 0
1.1915712 5.0583901 -1.1997833 0
1.1768396 5.0719891 -1.2020662 0
1.1580063 5.0679359 -1.2001786 0
1.1333539 5.0377679 -1.1921277 0
1.1294399 5.1001658 -1.2059907 0
1.1040536 5.0659313 -1.1970134 0
1.0919616 5.092453 -1.2024083 0
1.0788342 5.1148257 -1.20683 0
1.0586087 5.1036115 -1.2033398 0
1.0389663 5.0947504 -1.2004225 0
1.020447 5.0910625 -1.1987406 0
1.0064645 5.1101575 -1.2024354 0
0.98887265 5.1111627 -1.201885 0
0.96789473 5.0942616 -1.1971409 0
0.9525376 5.1067443 -1.1993171 0
0.93615955 5.1140027 -1.2002778 0
0.92233914 5.1356606 -1.2046285 0
0.90139723 5.1176167 -1.1996803 0
0.88094765 5.1015797 -1.1952219 0
0.86547524 5.1141791 -1.1974871 0
0.85265464 5.1431775 -1.203601 0
0.83296621 5.13098 -1.2000862 0
0.82079422 5.1654363 -1.2074947 0
0.79473138 5.1119437 -1.1943605 0
0.7802434 5.1320486 -1.19844 0
0.76070845 5.1189985 -1.1947901 0
0.74747491 5.1486163 -1.2011113 0
0.72810721 5.1362715 -1.1976551 0
0.71307194 5.1545129 -1.2013444 0
0.70015192 5.1892343 -1.2088828 0
0.6769172 5.1472044 -1.1985562 0
0.66191673 5.1670947 -1.2026641 0
0.64150107 5.1445236 -1.1969032 0
0.62660736 5.16609 -1.2014253 0
0.6102525 5.1763868 -1.2033373 0
0.58860952 5.1409855 -1.1946422 0
0.57589269 5.1836443 -1.2040995 0
0.55594897 5.1617708 -1.198579 0
0.54272139 5.2027373 -1.2076621 0
0.52265751 5.1785975 -1.2016453 0
0.50548154 5.1822672 -1.2020968 0
0.48537585 5.154963 -1.195379 0
0.47332099 5.2141924 -1.2087389 0
0.45318776 5.1854472 -1.2017163 0
0.43650767 5.1953678 -1.2036693 0
0.41860104 5.1907868 -1.2022761 0
0.4015826 5.1971774 -1.2034377 0
0.38466933 5.2054524 -1.2050483 0
0.36502549 5.1756783 -1.1978657 0
0.34807044 5.1828303 -1.1992441 0
0.33115169 5.1911831 -1.2009133 0
0.31488243 5.211092 -1.2052679 0
0.29725736 5.2094636 -1.204654 0
0.27802375 5.1775508 -1.197052 0
0.26120871 5.1892982 -1.1995589 0
0.24282889 5.169291 -1.1947391 0
0.22617872 5.1857324 -1.198357 0
0.20899603 5.1915627 -1.1995356 0
0.19202349 5.2040224 -1.2022591 0
0.17450233 5.2024908 -1.2017633 0
0.15748708 5.2172489 -1.2050436 0
0.13955797 5.2015061 -1.2012926 0
0.12272226 5.227705 -1.2072414 0
0.10454973 5.196064 -1.1998469 0
0.087264761 5.2045588 -1.2017342 0
0.069448292 5.1775303 -1.1954328 0
0.051929861 5.161953 -1.1917893 0
0.034818124 5.1912627 -1.1985226 0
0.017491985 5.2150168 -1.2039864 0
6.8825357e-06 5.1873398 -1.1975899 0
-0.017494362 5.2198553 -1.2051034 0
-0.034850348 5.1981244 -1.2001066 0
-0.052375503 5.2076249 -1.2023339 0
-0.069529526 5.1846123 -1.1970679 0
-0.086367384 5.151854 -1.1895646 0
-0.10442684 5.1906414 -1.1985947 0
-0.12232998 5.2115841 -1.2035185 0
-0.13897648 5.1803455 -1.1964055 0
-0.15819407 5.2411313 -1.2105597 0
-0.17389579 5.1848187 -1.197681 0
-0.19168995 5.1953573 -1.2002571 0
-0.21017075 5.2210879 -1.2063575 0
-0.22639179 5.1909337 -1.1995589 0
-0.24453078 5.2058153 -1.2031804 0
-0.26183721 5.2020593 -1.2025086 0
-0.27987802 5.2123404 -1.2050952 0
-0.29623556 5.1917987 -1.2005689 0
-0.31311172 5.1820159 -1.1985427 0
-0.33298293 5.220108 -1.2076044 0
-0.3485316 5.1899028 -1.2008804 0
-0.36653417 5.1972666 -1.2028619 0
-0.38401881 5.1968369 -1.2030537 0
-0.39783961 5.1489148 -1.1922619 0
-0.41849649 5.1896625 -1.2020154 0
-0.43563467 5.185142 -1.2013 0
-0.45153666 5.1667128 -1.1973743 0
-0.47011691 5.1790485 -1.2005916 0
-0.48641714 5.1661692 -1.1979773 0
-0.5046863 5.1742563 -1.2002382 0
-0.51996642 5.152071 -1.1954898 0
-0.53815573 5.159102 -1.1975331 0
-0.55583704 5.1608601 -1.1983671 0
-0.57368106 5.1638622 -1.1995041 0
-0.5896526 5.1502171 -1.196787 0
-0.60813332 5.1585288 -1.1991855 0
-0.627141 5.1706047 -1.2024748 0
-0.64560622 5.1775565 -1.2045882 0
-0.65629143 5.1232901 -1.192468 0
-0.67916131 5.1643748 -1.2025539 0
-0.69687724 5.1650667 -1.2032524 0
-0.7121492 5.147943 -1.1998128 0
-0.73153925 5.1605806 -1.203323 0
-0.75034505 5.1684823 -1.2057453 0
-0.76446259 5.1443553 -1.2007079 0
-0.78001994 5.1306705 -1.1981176 0
-0.79462099 5.1113234 -1.1942151 0
-0.81535524 5.1312952 -1.1995133 0
-0.82954419 5.1099863 -1.1951755 0
-0.84898812 5.1211457 -1.1984445 0
-0.86828738 5.1308789 -1.2013969 0
-0.88567305 5.1290259 -1.2016516 0
-0.9021976 5.1222401 -1.2007637 0
-0.91906953 5.1175332 -1.2003759 0
-0.93363923 5.1003113 -1.1970638 0
-0.95527458 5.1214933 -1.2027802 0
-0.97244978 5.11831 -1.2027917 0
-0.98897213 5.1117492 -1.2020224 0
-0.99975443 5.076159 -1.1944349 0
-1.0167526 5.0727005 -1.1944165 0
-1.0419475 5.1094384 -1.2038827 0
-1.0483644 5.0542908 -1.1917102 0
-1.0753337 5.0982966 -1.2029294 0
-1.0956587 5.1097603 -1.2064942 0
-1.1098806 5.0927329 -1.2033457 0
-1.1256069 5.0829215 -1.2019123 0
-1.1367428 5.0528936 -1.1957064 0
-1.1566396 5.062016 -1.198776 0
-1.1739737 5.0596981 -1.1991525 0
-1.1909006 5.0556035 -1.1991216 0
-1.2031083 5.031774 -1.1944197 0
-1.2257001 5.0513182 -1.2000278 0
-1.2453707 5.0583148 -1.2026752 0
-1.2601147 5.0452681 -1.2005709 0
-1.2782241 5.0457544 -1.2016997 0
-1.2975657 5.0509048 -1.2039557 0
-1.3062164 5.0147505 -1.1963749 0
-1.3317741 5.0434852 -1.2042887 0
-1.3388385 5.002234 -1.1955038 0
-1.3625183 5.0232139 -1.2016031 0
-1.3737284 4.9981546 -1.1967036 0
-1.3939213 5.0058842 -1.1996665 0
-1.4088165 4.9945149 -1.1980672 0
-1.4200693 4.9705648 -1.1934575 0
-1.4389491 4.9734569 -1.1953036 0
-1.4577661 4.9759431 -1.197069 0
-1.4822077 4.9972119 -1.2033745 0
-1.4979508 4.988873 -1.202569 0
-1.5163311 4.9892912 -1.2038887 0
-1.5251344 4.9584422 -1.197672 0
-1.5509802 4.9829535 -1.2048419 0
-1.5575291 4.9454989 -1.1970416 0
-1.5838243 4.9707632 -1.2044352 0
-1.5939292 4.945097 -1.1995044 0
-1.6056592 4.9248772 -1.1958989 0
-1.6312611 4.9470592 -1.2026067 0
-1.6421243 4.9244261 -1.1984364 0
-1.6586951 4.9190984 -1.1984864 0
-1.6773322 4.919826 -1.2000272 0
-1.6826078 4.8816514 -1.192085 0
-1.7099289 4.9074464 -1.1997775 0
-1.7253435 4.8987627 -1.199062 0
-1.7438028 4.8986936 -1.2004695 0
-1.7673106 4.9125366 -1.205307 0
-1.7824479 4.9029422 -1.2044126 0
-1.7906927 4.8746605 -1.1989332 0
-1.8102331 4.8772688 -1.2010608 0
-1.8260579 4.869792 -1.2007205 0
-1.8501898 4.8842716 -1.2058135 0
-1.8559862 4.8504195 -1.1989857 0
-1.8710436 4.8410778 -1.1982205 0
-1.8917847 4.8463578 -1.2010906 0
-1.9100052 4.845016 -1.2023383 0
-1.9198253 4.8224745 -1.1983351 0
-1.9405316 4.8273249 -1.2011504 0
-1.9547925 4.8160777 -1.1999758 0
-1.9744265 4.8180313 -1.2021053 0
-1.9830827 4.7932887 -1.197584 0
-2.0160947 4.8272018 -1.2077392 0
-2.0138805 4.7768011 -1.1968119 0
-2.035861 4.7840652 -1.2003354 0
-2.05756 4.7904143 -1.2036525 0
-2.0593376 4.7505651 -1.1953681 0
-2.0728281 4.7380891 -1.1939708 0
-2.1081147 4.7750835 -1.2050675 0
-2.1135669 4.7443161 -1.1990845 0
-2.1275253 4.7328954 -1.1979941 0
-2.1502964 4.7409806 -1.2018588 0
-2.1618509 4.7242842 -1.199457 0
-2.1706514 4.7017884 -1.1955866 0
-2.1915467 4.7055273 -1.1983989 0
-2.2081175 4.6998696 -1.1988368 0
-2.2152798 4.6743293 -1.1942099 0
-2.241215 4.6883707 -1.1997102 0
-2.2497001 4.6658525 -1.1958715 0
-2.2686658 4.6651406 -1.197632 0
-2.2917922 4.6727953 -1.2015629 0
-2.3151031 4.6805654 -1.2055501 0
-2.3156815 4.6425009 -1.1977391 0
-2.3284149 4.6291065 -1.1962907 0
-2.347651 4.6286254 -1.1981938 0
-2.3771484 4.6480861 -1.2052879 0
-2.3868074 4.6286254 -1.2023101 0
-2.3979349 4.6121764 -1.200119 0
-2.409111 4.5959568 -1.1979935 0
-2.4232612 4.5854964 -1.197378 0
-2.4394195 4.5788431 -1.1977696 0
-2.4638436 4.5875559 -1.2022029 0
-2.474051 4.5697384 -1.1997008 0
-2.4807112 4.5455723 -1.1955334 0
-2.5180335 4.5773964 -1.206117 0
-2.5237744 4.5516286 -1.2015504 0
-2.5395164 4.5440283 -1.2017848 0
-2.5533011 4.532938 -1.2011092 0
-2.5621662 4.5132213 -1.1981543 0
-2.5806303 4.5104547 -1.1997101 0
-2.6032441 4.5147939 -1.2031791 0
-2.6094851 4.4907556 -1.1990979 0
-2.6349456 4.4997735 -1.2038579 0
-2.6478837 4.4872971 -1.2028884 0
-2.6530178 4.461751 -1.1984181 0
-2.6800439 4.4729953 -1.2038451 0
-2.6884522 4.4530959 -1.2009087 0
-2.6980433 4.4353046 -1.1985435 0
-2.713372 4.4270058 -1.1987525 0
-2.744179 4.4437594 -1.2057738 0
-2.7557669 4.4292364 -1.2043334 0
-2.7607694 4.4042859 -1.2000594 0
-2.7908232 4.4192367 -1.2066759 0
-2.7805891 4.3705044 -1.1959084 0
-2.8176336 4.3961163 -1.2054949 0
-2.8256261 4.3762197 -1.20263 0
-2.8528838 4.3860941 -1.2079655 0
-2.8616452 4.3674564 -1.2054682 0
-2.8610613 4.3347917 -1.1990932 0
-2.878063 4.3289104 -1.2001289 0
-2.8913541 4.3174348 -1.1996282 0
-2.9083114 4.3114195 -1.2006595 0
-2.9202724 4.297997 -1.1996416 0
-2.9258285 4.2752676 -1.1960288 0
-2.9441032 4.2711744 -1.1976385 0
-2.972641 4.2817822 -1.2034007 0
-2.9696157 4.2469578 -1.1964048 0
-2.9811957 4.2332244 -1.1953453 0
-3.0007174 4.230742 -1.1974784 0
-3.0200934 4.2279482 -1.1995469 0
-3.0399888 4.2257733 -1.2018149 0
-3.0507491 4.2108769 -1.2004806 0
-3.0440037 4.1720524 -1.1923152 0
-3.0799279 4.1917009 -1.2008748 0
-3.101881 4.1920495 -1.2039474 0
-3.1066322 4.1691632 -1.2003592 0
-3.1334932 4.1759152 -1.2053213 0
-3.1342902 4.1479349 -1.2002716 0
-3.1344361 4.1193404 -1.1950316 0
-3.1753809 4.1442437 -1.205338 0
-3.185781 4.1290674 -1.2040238 0
-3.1734784 4.0847311 -1.1941915 0
-3.195869 4.085206 -1.1974562 0
-3.2180986 4.0853229 -1.2006464 0
-3.2303255 4.072679 -1.2001069 0
-3.2417533 4.0590601 -1.1992897 0
-3.2586529 4.0522823 -1.2005086 0
-3.2623599 4.0291548 -1.1968907 0
-3.2750511 4.0172138 -1.1965986 0
-3.2820024 3.9982927 -1.1942338 0
-3.3231518 4.0208573 -1.2042946 0
-3.3175306 3.9867597 -1.1974068 0
-3.3348668 3.9803741 -1.1988403 0
-3.3367517 3.9556067 -1.1947435 0
-3.3493183 3.9435995 -1.194502 0
-3.3773963 3.9497433 -1.1997862 0
-3.378593 3.924427 -1.1955303 0
-3.4052579 3.9286826 -1.2002981 0
-3.4220645 3.9214301 -1.2015809 0
-3.4366932 3.9116418 -1.2021056 0
-3.4563675 3.9075346 -1.2043979 0
-3.4491394 3.8731174 -1.1973475 0
-3.4777429 3.8789728 -1.2027556 0
-3.5128956 3.8918486 -1.2103932 0
-3.4972308 3.8484731 -1.2005432 0
-3.5023031 3.8281879 -1.1978714 0
-3.5222454 3.8241615 -1.2003002 0
-3.5145469 3.7902222 -1.1933393 0
-3.5443428 3.7967432 -1.1991273 0
-3.5793979 3.8086147 -1.2066603 0
-3.5426846 3.7443142 -1.1900449 0
-3.5728383 3.7509134 -1.1959428 0
-3.5971191 3.7511399 -1.1998537 0
-3.6195202 3.7492557 -1.203126 0
-3.6227338 3.7274923 -1.2000332 0
-3.6312945 3.7113223 -1.1987402 0
-3.6472116 3.7026734 -1.1998898 0
-3.6523509 3.6831086 -1.1975112 0
-3.6671538 3.6733212 -1.1983199 0
-3.6846519 3.666182 -1.2000142 0
-3.7005484 3.6573904 -1.2011911 0
-3.7192945 3.6513481 -1.2032954 0
-3.696173 3.6043921 -1.1918983 0
-3.7477078 3.6302125 -1.2045851 0
-3.74405 3.6024168 -1.1995205 0
-3.77826 3.6110156 -1.2065949 0
-3.7645044 3.5737953 -1.1983688 0
-3.7908204 3.5746899 -1.202924 0
-3.7892134 3.5492485 -1.198631 0
-3.8063645 3.5414295 -1.2002937 0
-3.806061 3.5174136 -1.1964724 0
-3.8335679 3.5190768 -1.2014036 0
-3.8434353 3.5044625 -1.2008069 0
-3.8675566 3.5027809 -1.2046671 0
-3.8578341 3.4705019 -1.1980076 0
-3.88447 3.4709706 -1.2026584 0
-3.8971398 3.4588628 -1.2029839 0
-3.8947678 3.4334817 -1.1986914 0
-3.9061046 3.42027 -1.1986443 0
-3.9149964 3.4049332 -1.197863 0
-3.9285343 3.3936398 -1.198517 0
-3.9367015 3.377713 -1.197547 0
-3.9735084 3.3862295 -1.2052832 0
-3.9803178 3.369061 -1.2039155 0
-3.9830451 3.3485122 -1.2013378 0
-4.0052047 3.344286 -1.2046328 0
-4.0046964 3.321137 -1.2011241 0
-4.0196891 3.3108869 -1.2022845 0
-4.0081029 3.2788503 -1.1955242 0
-4.0533271 3.2932236 -1.2057134 0
-4.0605707 3.2765689 -1.2045934 0
-4.0538154 3.2487366 -1.1993513 0
-4.0677924 3.2376001 -1.2002683 0
-4.0660596 3.2140112 -1.1965706 0
-4.074564 3.198595 -1.1959106 0
-4.1155734 3.2085445 -1.204783 0
-4.1281281 3.1961367 -1.2053143 0
-4.1079741 3.1585605 -1.1963311 0
-4.1585708 3.1753347 -1.2079587 0
-4.1427379 3.1413133 -1.2002935 0
-4.1628685 3.1346509 -1.2030742 0
-4.1627245 3.1127269 -1.2000097 0
-4.2027435 3.1207366 -1.2085232 0
-4.1798553 3.0820534 -1.1989633 0
-4.2055655 3.0792975 -1.2033697 0
-4.1898065 3.0462329 -1.1959313 0
-4.213037 3.0415828 -1.1996446 0
-4.2455168 3.0434301 -1.2059807 0
-4.2262735 3.0082352 -1.1976427 0
-4.2339344 2.9923511 -1.1969638 0
-4.2586875 2.9884853 -1.2011223 0
-4.2668834 2.9729359 -1.2006158 0
-4.2783279 2.9596512 -1.201037 0
-4.2942386 2.9494193 -1.2027208 0
-4.2940588 2.9281552 -1.199914 0
-4.3083148 2.9167628 -1.2011582 0
-4.2945905 2.8865204 -1.1946269 0
-4.3268032 2.8871582 -1.200888 0
-4.3419614 2.8762801 -1.2024119 0
-4.3554754 2.8642676 -1.2034881 0
-4.354917 2.8430302 -1.2006931 0
-4.3736386 2.8343844 -1.203228 0
-4.3783817 2.8166578 -1.2019279 0
-4.376061 2.7944653 -1.1987121 0
-4.3674483 2.7683949 -1.1938037 0
-4.402389 2.7698958 -1.2008091 0
-4.3994942 2.7475274 -1.1975 0
-4.3985925 2.7265077 -1.1947597 0
-4.4456868 2.7351096 -1.2050539 0
-4.431881 2.7061741 -1.1988455 0
-4.4428616 2.6924708 -1.1993672 0
-4.4422469 2.6717756 -1.1967763 0
-4.4583941 2.6611724 -1.1987159 0
-4.4582458 2.6408513 -1.1962887 0
-4.4970026 2.643481 -1.2043033 0
-4.4910769 2.6197765 -1.2003574 0
-4.5238447 2.6186018 -1.2067621 0
-4.4952765 2.5819824 -1.1968253 0
-4.5200424 2.5760913 -1.2011126 0
-4.5316162 2.562597 -1.2018983 0
-4.5373664 2.545809 -1.2011527 0
-4.5446267 2.529886 -1.2008225 0
-4.5313125 2.5026107 -1.1950806 0
-4.5480151 2.491972 -1.1972754 0
-4.569922 2.4840896 -1.2008431 0
-4.5724945 2.4656637 -1.1993402 0
-4.581687 2.4508278 -1.1995891 0
-4.571764 2.4258409 -1.1948549 0
-4.5910449 2.4163795 -1.1977699 0
-4.6143489 2.4089231 -1.2017359 0
-4.6112843 2.3876829 -1.1988461 0
-4.6293335 2.3773801 -1.2014595 0
-4.6221342 2.3541322 -1.1975358 0
-4.6286654 2.3379471 -1.1971903 0
-4.6633134 2.3358567 -1.2041194 0
-4.665833 2.3175828 -1.2027569 0
-4.6544132 2.2924871 -1.197825 0
-4.6882682 2.2896619 -1.2045552 0
-4.6842585 2.2682841 -1.2015643 0
-4.6857386 2.2496378 -1.2000024 0
-4.6909747 2.2328293 -1.1994194 0
-4.7024121 2.2189658 -1.2004348 0
-4.7222943 2.2090199 -1.2036129 0
-4.7242637 2.1906655 -1.2022359 0
-4.7344961 2.1761529 -1.2029763 0
-4.7072573 2.1445453 -1.1942216 0
-4.7363501 2.1386526 -1.1997765 0
-4.7465587 2.1241322 -1.2005517 0
-4.7466736 2.1051102 -1.1987889 0
-4.7861671 2.1034503 -1.2069752 0
-4.7464523 2.0670364 -1.1952055 0
-4.7937875 2.0685573 -1.2053717 0
-4.7736363 2.040904 -1.1985775 0
-4.7755351 2.0228045 -1.1973447 0
-4.7818847 2.0066116 -1.1972431 0
-4.8037314 1.9968635 -1.2010298 0
-4.8142333 1.982325 -1.2019871 0
-4.8102546 1.96185 -1.1993446 0
-4.8234997 1.9484154 -1.2010114 0
-4.8142452 1.9259275 -1.1970928 0
-4.8084383 1.9049274 -1.1940539 0
-4.8038936 1.8845172 -1.1913496 0
-4.847187 1.8827726 -1.200514 0
-4.8275089 1.8565255 -1.1940919 0
-4.8548532 1.8483804 -1.1993158 0
-4.8678718 1.8346739 -1.2010056 0
-4.8695292 1.8166763 -1.1999049 0
-4.8691015 1.7979424 -1.1983074 0
-4.897615 1.7898344 -1.2038411 0
-4.9082603 1.7750932 -1.204988 0
-4.8973761 1.7526118 -1.2008666 0
-4.9130759 1.73967 -1.2032793 0
-4.9333715 1.728264 -1.2068239 0
-4.9261489 1.707212 -1.2036501 0
-4.9531283 1.697982 -1.2088444 0
-4.9314451 1.6720927 -1.2021775 0
-4.9247546 1.6514347 -1.1991899 0
-4.9191904 1.6312417 -1.1964965 0
-4.9388509 1.6194016 -1.1999512 0
-4.9389629 1.6011186 -1.1986674 0
-4.9146204 1.5750375 -1.1914712 0
-4.9513488 1.5685216 -1.1990937 0
-4.9828467 1.5601361 -1.2054482 0
-4.9440479 1.5298057 -1.1948144 0
-4.9677696 1.5189139 -1.1993097 0
-4.9656515 1.5000794 -1.1975775 0
-4.9782934 1.4857023 -1.1994182 0
-4.998383 1.4734646 -1.2030613 0
-5.0025344 1.4564763 -1.2028785 0
-4.9948025 1.4360765 -1.1998549 0
-4.9801388 1.4138001 -1.1951869 0
-4.9978333 1.4007332 -1.1982995 0
-4.9955983 1.3820587 -1.1966459 0
-5.0026922 1.3659811 -1.1972414 0
-5.0463786 1.359745 -1.2065985 0
-5.0301247 1.3372922 -1.2016335 0
-5.0464811 1.3235408 -1.2044739 0
-5.0252934 1.2999918 -1.1983699 0
-5.0552826 1.2896816 -1.2044833 0
-5.0712719 1.2756665 -1.2072672 0
-5.0411129 1.2501237 -1.199083 0
-5.0296283 1.22939 -1.195364 0
-5.0708437 1.2214617 -1.2041794 0
-5.0731792 1.2040423 -1.2037686 0
-5.0583954 1.1826326 -1.199313 0
-5.0744262 1.1684508 -1.2021782 0
-5.0475879 1.1444638 -1.1949042 0
-5.0586143 1.1291447 -1.1966115 0
-5.0457206 1.1085197 -1.1926757 0
-5.0873675 1.099802 -1.2016414 0
-5.0688596 1.0780246 -1.1964095 0
-5.1093149 1.0687357 -1.2051057 0
-5.1016626 1.0492941 -1.2024642 0
-5.0783997 1.0267744 -1.1961631 0
-5.0816994 1.009719 -1.1961361 0
-5.1180015 0.99910676 -1.2038857 0
-5.120718 0.98182553 -1.2037436 0
-5.1045265 0.96098864 -1.1991732 0
-5.120173 0.94616997 -1.2020968 0
-5.1162443 0.9277153 -1.2004375 0
-5.1017814 0.90743572 -1.1963234 0
-5.1111512 0.89143384 -1.197813 0
-5.1120954 0.87394744 -1.1973408 0
-5.1254516 0.85855395 -1.1997882 0
-5.1255307 0.8409099 -1.19914 0
-5.112679 0.8212077 -1.1954824 0
-5.1235652 0.8053441 -1.1973897 0
-5.1199918 0.78720111 -1.1959311 0
-5.1483278 0.77389741 -1.2019371 0
-5.1639962 0.75855637 -1.2049944 0
-5.1302242 0.73603219 -1.1965313 0
-5.1681314 0.7237947 -1.2047997 0
