# .PCD v0.7 - Point Cloud Data file format
VERSION 0.7
FIELDS x y z intensity
SIZE 4 4 4 4
TYPE F F F F
COUNT 1 1 1 1
WIDTH 1415
HEIGHT 1
VIEWPOINT 0 0 0 1 0 0 0
POINTS 1415
DATA ascii
22.04884 6.179523 -1.2000538 0
22.022465 6.2518435 -1.1997523 0
22.020058 6.3310156 -1.200771 0
21.954899 6.3920546 -1.1983798 0
21.979107 6.4791193 -1.2008801 0
21.976494 6.5585151 -1.2019321 0
21.923605 6.6228638 -1.2002472 0
21.918316 6.7015424 -1.2011809 0
21.871408 6.7674689 -1.199847 0
21.856575 6.8432598 -1.2002852 0
21.822063 6.9128766 -1.199656 0
21.801517 6.986886 -1.1998076 0
21.766462 7.0562124 -1.1991736 0
21.767185 7.1371861 -1.200525 0
21.744068 7.2104378 -1.2005768 0
21.712835 7.2809749 -1.2001934 0
21.678398 7.3503752 -1.1996453 0
4.7628636 1.6327432 -0.26387015 0
4.6711946 1.6188408 -0.25909078 0
4.6456413 1.6274523 -0.25797468 0
4.5780144 1.6210145 -0.2545197 0
4.5454392 1.6266513 -0.25301042 0
4.5081458 1.6303766 -0.25123742 0
4.4300222 1.6189393 -0.24718475 0
4.4386258 1.6389735 -0.24797003 0
4.4435997 1.6577611 -0.24855702 0
4.4422793 1.6742569 -0.24879576 0
4.4436331 1.6918039 -0.24918789 0
4.4297581 1.7035481 -0.24872871 0
4.4469719 1.7273052 -0.25001904 0
4.444346 1.7434567 -0.25019863 0
4.4432397 1.7602355 -0.25046721 0
4.4450388 1.7782136 -0.25090328 0
4.4628224 1.8027089 -0.25224683 0
4.4570026 1.8177633 -0.25226095 0
4.4505663 1.8325664 -0.25224301 0
21.130442 8.7836494 -1.1992642 0
21.101645 8.8547697 -1.199308 0
21.085884 8.9314203 -1.2001075 0
21.048889 8.9991035 -1.1997124 0
21.000116 9.0616512 -1.1986575 0
21.005463 9.1476192 -1.2007065 0
20.936453 9.2011976 -1.1985185 0
20.924431 9.2797441 -1.1996046 0
20.894068 9.3502359 -1.1996545 0
20.895702 9.4351835 -1.2015579 0
20.869438 9.5076904 -1.201874 0
20.805634 9.5629873 -1.2000391 0
20.792875 9.6416969 -1.2011611 0
20.751001 9.7069464 -1.2006155 0
20.682581 9.7595921 -1.1985434 0
20.683895 9.8451385 -1.2005256 0
20.640442 9.9094734 -1.1999252 0
20.585716 9.9682655 -1.19868 0
20.592157 10.056754 -1.2010117 0
20.537939 10.115699 -1.1998209 0
20.494293 10.179728 -1.1992583 0
20.469572 10.253154 -1.1998165 0
20.467167 10.337934 -1.2017004 0
20.406246 10.393183 -1.2001629 0
20.378748 10.465375 -1.2006025 0
20.33045 10.526862 -1.1998297 0
20.296577 10.595769 -1.1999205 0
20.267979 10.667466 -1.2003375 0
20.228203 10.733294 -1.2001064 0
20.212648 10.812045 -1.2013276 0
20.146793 10.863851 -1.1995716 0
20.112831 10.932738 -1.1997252 0
20.114122 11.020965 -1.2019997 0
20.022894 11.058428 -1.1987569 0
20.008699 11.1383 -1.2001362 0
19.940971 11.188338 -1.1983171 0
19.931484 11.271044 -1.200011 0
19.906502 11.34517 -1.2007904 0
19.857542 11.405641 -1.200137 0
19.789005 11.454683 -1.1983093 0
19.78233 11.539541 -1.2002412 0
19.73904 11.603165 -1.1999683 0
19.697886 11.668013 -1.1998378 0
19.651442 11.729686 -1.1993977 0
19.617449 11.798782 -1.1997308 0
19.570877 11.860306 -1.1993077 0
19.541166 11.932063 -1.1999319 0
19.522821 12.010908 -1.2012714 0
19.440199 12.050113 -1.1986668 0
19.427996 12.132903 -1.2004158 0
19.369408 12.186774 -1.1993139 0
19.329618 12.252396 -1.1993871 0
19.311932 12.332143 -1.2008485 0
19.276926 12.400972 -1.2012503 0
19.199129 12.442132 -1.1989952 0
19.164032 12.510826 -1.1994163 0
19.125889 12.57758 -1.1996615 0
19.077106 12.637327 -1.1992527 0
19.063116 12.720226 -1.2010475 0
19.001188 12.771184 -1.1998369 0
18.955845 12.833182 -1.1996839 0
18.913467 12.897182 -1.1997318 0
18.875731 12.964376 -1.2000886 0
18.832783 13.028023 -1.2001284 0
18.79763 13.097108 -1.2006799 0
18.737375 13.148664 -1.1996404 0
18.709698 13.223083 -1.2007 0
18.661863 13.283324 -1.2004818 0
18.613771 13.343346 -1.2002592 0
18.569679 13.40622 -1.2003076 0
18.504396 13.453697 -1.1989969 0
18.488279 13.536966 -1.2008867 0
18.455029 13.607903 -1.2016836 0
18.366678 13.638055 -1.1989015 0
18.309641 13.691176 -1.198168 0
18.290049 13.772378 -1.1999009 0
18.224873 13.819295 -1.198658 0
18.210943 13.905143 -1.2008015 0
18.161861 13.964309 -1.2006456 0
18.095234 14.009868 -1.1993395 0
18.05797 14.078107 -1.1999915 0
18.005817 14.134765 -1.1996683 0
17.958059 14.194846 -1.1996505 0
17.917383 14.260562 -1.2001207 0
17.851185 14.305902 -1.1988926 0
17.817335 14.377144 -1.19985 0
17.773195 14.440185 -1.2001311 0
17.734337 14.507593 -1.200785 0
17.69463 14.574413 -1.2013984 0
17.625847 14.617221 -1.2000489 0
17.580891 14.679702 -1.2003324 0
17.523911 14.732123 -1.1998078 0
17.47315 14.789721 -1.1997207 0
17.417463 14.843108 -1.1993076 0
17.394197 14.924244 -1.2011442 0
17.32198 14.963403 -1.1996149 0
17.269102 15.019126 -1.1994337 0
17.206282 15.066113 -1.1985722 0
17.172674 15.138708 -1.1997601 0
17.125841 15.199767 -1.2000418 0
17.08465 15.265919 -1.2007353 0
17.026495 15.316929 -1.2002506 0
16.956575 15.357203 -1.1989447 0
16.893299 15.403309 -1.1981156 0
16.855404 15.47257 -1.1991005 0
16.823019 15.547097 -1.2004981 0
16.764328 15.597394 -1.200035 0
16.698521 15.640946 -1.1990714 0
16.669815 15.719316 -1.200788 0
16.604729 15.763453 -1.1999 0
16.563248 15.829992 -1.200731 0
16.506174 15.88168 -1.2004471 0
16.461071 15.944913 -1.2010481 0
16.395927 15.988709 -1.2001996 0
16.349733 16.050961 -1.2007508 0
16.28252 16.092537 -1.1997705 0
16.213089 16.131731 -1.198633 0
16.169485 16.196594 -1.1994175 0
16.12373 16.259426 -1.2000604 0
16.038849 16.282661 -1.1977994 0
16.019487 16.372442 -1.2004462 0
15.972407 16.434195 -1.2010406 0
15.912782 16.483061 -1.200706 0
15.84171 16.51993 -1.1995158 0
15.769657 16.55555 -1.1982564 0
15.732833 16.62817 -1.1996878 0
15.695308 16.700312 -1.2010893 0
15.616001 16.727962 -1.1993055 0
15.570785 16.792042 -1.2001501 0
15.507479 16.836643 -1.199615 0
15.452166 16.889879 -1.19971 0
15.410261 16.957891 -1.2008642 0
15.348924 17.004597 -1.2005205 0
15.279584 17.042309 -1.1995595 0
15.223775 17.095034 -1.1996711 0
15.189382 17.171993 -1.2014911 0
15.095785 17.181919 -1.1986377 0
15.047875 17.243649 -1.1994175 0
14.985552 17.288898 -1.1990634 0
14.926878 17.338322 -1.1990134 0
14.841566 17.356585 -1.1968284 0
14.81993 17.449389 -1.1997948 0
14.774419 17.514481 -1.2008576 0
14.704869 17.551094 -1.1999809 0
14.648907 17.603863 -1.2002239 0
14.582491 17.644033 -1.1996224 0
14.540395 17.713711 -1.2010385 0
14.478345 17.759199 -1.2008246 0
14.411239 17.798405 -1.2002016 0
14.339813 17.832109 -1.1992255 0
14.292384 17.895664 -1.2002703 0
14.22661 17.936306 -1.1997902 0
14.155567 17.970161 -1.1988733 0
14.108908 18.034996 -1.200036 0
14.028973 18.057243 -1.1983799 0
13.999258 18.144238 -1.2010314 0
13.925591 18.174425 -1.1999325 0
13.865769 18.22258 -1.2000357 0
13.798368 18.260727 -1.1994944 0
13.741026 18.312166 -1.1998402 0
13.682236 18.361734 -1.2000756 0
13.617237 18.402967 -1.1997797 0
13.541821 18.42996 -1.1985726 0
13.507524 18.513046 -1.2010241 0
13.446816 18.560217 -1.2011527 0
13.363171 18.575533 -1.1992375 0
13.315004 18.640097 -1.2005168 0
13.254199 18.687124 -1.2006768 0
13.177681 18.711878 -1.1994218 0
13.117936 18.760342 -1.1997023 0
13.048974 18.795591 -1.1991519 0
13.002695 18.863626 -1.2007043 0
12.931724 18.895935 -1.1999943 0
12.885435 18.964411 -1.2015924 0
12.79199 18.963348 -1.1988009 0
12.740023 19.023577 -1.1999013 0
12.679348 19.070969 -1.2002023 0
12.621 19.121956 -1.2007413 0
12.556942 19.164354 -1.2007532 0
12.486402 19.196793 -1.200156 0
12.418851 19.233721 -1.1998547 0
12.342007 19.256079 -1.1986613 0
12.300624 19.333893 -1.2009311 0
12.219255 19.348936 -1.199314 0
12.152214 19.386448 -1.1991068 0
12.094831 19.439434 -1.1998692 0
12.026879 19.475492 -1.1995991 0
11.957058 19.508436 -1.1991522 0
11.885018 19.537626 -1.1984903 0
11.836432 19.605501 -1.2002128 0
11.756988 19.622303 -1.1988214 0
11.711579 19.695999 -1.2009182 0
11.640539 19.726788 -1.2004091 0
11.557872 19.737595 -1.1987017 0
11.520611 19.826107 -1.2017248 0
11.449685 19.857012 -1.2012644 0
11.361706 19.857996 -1.1990126 0
11.295918 19.897486 -1.1991035 0
11.248638 19.969858 -1.2011853 0
11.173365 19.992689 -1.2002985 0
11.111243 20.039009 -1.2008359 0
11.028433 20.047863 -1.199144 0
10.968713 20.098577 -1.199971 0
10.896772 20.126944 -1.1994765 0
10.840772 20.184855 -1.2007549 0
10.761454 20.19935 -1.1994641 0
10.698452 20.24437 -1.2000006 0
10.622243 20.264343 -1.1990668 0
10.552826 20.297123 -1.1989061 0
10.491163 20.344896 -1.1996434 0
10.43365 20.400991 -1.2008816 0
10.355217 20.416197 -1.1997262 0
10.292857 20.463028 -1.2004434 0
10.21664 20.482285 -1.1995568 0
10.153094 20.526907 -1.2001698 0
10.07499 20.542025 -1.199072 0
10.01757 20.599356 -1.2004511 0
9.9414253 20.618263 -1.1996038 0
9.8704062 20.647644 -1.199381 0
9.8119879 20.703545 -1.2007105 0
9.7405519 20.732143 -1.2004683 0
9.6570721 20.73481 -1.1987412 0
9.5980053 20.789831 -1.2000549 0
9.512476 20.787432 -1.1980686 0
9.466877 20.872456 -1.2011328 0
9.387907 20.884201 -1.1999906 0
9.3177605 20.915396 -1.1999812 0
9.2404661 20.930399 -1.1990577 0
9.1680241 20.9562 -1.1987681 0
9.1183128 21.034349 -1.2014829 0
9.0337334 21.032198 -1.1996232 0
8.9727631 21.084921 -1.2009078 0
8.8915319 21.090012 -1.1994931 0
8.8307562 21.143612 -1.2008508 0
8.7529268 21.156448 -1.1999065 0
8.6820517 21.18594 -1.1999213 0
8.6167421 21.229151 -1.2007256 0
8.5399981 21.244194 -1.1999503 0
8.4681768 21.271338 -1.199873 0
8.4046841 21.319584 -1.2009981 0
8.3274565 21.33304 -1.2001766 0
8.2552538 21.359209 -1.2000849 0
8.1810417 21.380098 -1.1997107 0
8.1093044 21.407387 -1.1997095 0
8.0405045 21.442511 -1.2001604 0
7.9659076 21.462185 -1.19976 0
7.8971953 21.497732 -1.2002602 0
7.8270264 21.529461 -1.2005597 0
7.7528963 21.550297 -1.2002653 0
7.6762218 21.563873 -1.1995813 0
7.6053476 21.593658 -1.199813 0
7.5256276 21.59815 -1.1986538 0
7.4578366 21.636797 -1.1994042 0
7.3812904 21.650064 -1.198761 0
7.3126926 21.686649 -1.1994224 0
7.2475991 21.734013 -1.2006912 0
7.166791 21.73424 -1.1993695 0
7.0969949 21.767702 -1.1998962 0
7.026567 21.799425 -1.2003396 0
6.951365 21.816355 -1.1999816 0
6.8762207 21.833317 -1.1996398 0
6.8080854 21.872656 -1.2005404 0
6.7337584 21.892258 -1.2003703 0
6.6494665 21.879 -1.1984142 0
6.590765 21.950102 -1.2010916 0
6.5121822 21.955383 -1.2001792 0
6.4406714 21.984392 -1.2005776 0
6.3619761 21.988756 -1.1996443 0
6.2927923 22.02598 -1.2005174 0
6.2150826 22.033394 -1.1997789 0
6.1371226 22.039558 -1.1989875 0
6.0736237 22.09796 -1.20105 0
5.9861279 22.068903 -1.1983731 0
5.9253445 22.138329 -1.2010576 0
5.8451662 22.135654 -1.1998425 0
5.774157 22.167566 -1.2005161 0
5.6984925 22.181711 -1.2002406 0
5.6246881 22.203054 -1.2003683 0
5.5451984 22.201708 -1.1992836 0
5.4678249 22.20838 -1.198647 0
5.404078 22.270864 -1.2010348 0
5.3265705 22.277119 -1.2004023 0
5.2494864 22.284821 -1.1998621 0
5.1780825 22.316702 -1.2006371 0
5.1066866 22.349066 -1.2014503 0
5.0195746 22.31205 -1.198549 0
4.947691 22.342087 -1.1992648 0
4.875598 22.371599 -1.1999646 0
4.8061438 22.413847 -1.2013596 0
4.7229118 22.391644 -1.199314 0
4.6472125 22.404469 -1.1991597 0
4.5779309 22.448673 -1.2006973 0
4.5026031 22.463717 -1.2006878 0
4.4236507 22.460356 -1.1997086 0
4.3537688 22.503222 -1.2012118 0
4.2679133 22.463051 -1.1982969 0
4.19698 22.500849 -1.1995559 0
4.1193638 22.503042 -1.1989298 0
4.0468302 22.533087 -1.1998008 0
3.9755783 22.571054 -1.201106 0
3.8938212 22.549173 -1.1992401 0
3.821898 22.583975 -1.2004027 0
3.7456014 22.593313 -1.2002249 0
3.6701601 22.60778 -1.200333 0
3.5931737 22.612621 -1.1999435 0
3.5192349 22.636745 -1.2005908 0
3.4424567 22.64275 -1.2002904 0
3.3631341 22.631376 -1.199083 0
3.290452 22.664673 -1.2002559 0
3.2140114 22.672533 -1.2000948 0
3.1411376 22.70603 -1.2013036 0
3.0600402 22.679743 -1.1993632 0
2.9864459 22.708609 -1.2003535 0
2.9092686 22.71051 -1.1999316 0
2.8359969 22.743301 -1.2011551 0
2.7576764 22.735777 -1.2002625 0
2.6791062 22.725166 -1.1992215 0
2.6007607 22.715353 -1.1982368 0
2.529985 22.772545 -1.2007995 0
2.4497044 22.744556 -1.1988838 0
2.3763499 22.780611 -1.2003576 0
2.2980011 22.769066 -1.1993364 0
2.2235055 22.795687 -1.2003392 0
2.1465523 22.797586 -1.2000536 0
2.071264 22.81743 -1.2007258 0
1.9937394 22.812687 -1.2001176 0
1.9164023 22.809254 -1.1995924 0
1.8396438 22.81217 -1.1994146 0
1.762604 22.811163 -1.1990441 0
1.6862384 22.818647 -1.1991336 0
1.6115203 22.849667 -1.2004731 0
1.5352677 22.860407 -1.2007601 0
1.4567038 22.835505 -1.1991888 0
1.3823391 22.87678 -1.2011062 0
1.3036351 22.846329 -1.1992712 0
1.2284148 22.876389 -1.2006263 0
1.1511041 22.868389 -1.1999971 0
1.0740882 22.864967 -1.1996218 0
0.99857247 22.894857 -1.2010076 0
0.92188275 22.900015 -1.2011093 0
0.84451306 22.887121 -1.2002777 0
0.76777983 22.890053 -1.2002897 0
0.69143289 22.905865 -1.2009904 0
0.61392957 22.881948 -1.1996219 0
0.53741473 22.892715 -1.2000852 0
0.46066773 22.894934 -1.2001137 0
0.38386962 22.894373 -1.2000102 0
0.30691937 22.881548 -1.1992772 0
0.2305737 22.91958 -1.2012233 0
0.1534867 22.88434 -1.1993426 0
0.076825567 22.904585 -1.2003834 0
3.0403784e-05 22.915209 -1.2009335 0
-0.07676924 22.905912 -1.200453 0
-0.15336931 22.875889 -1.1988996 0
-0.23024754 22.893198 -1.1998405 0
-0.30717322 22.905005 -1.2005066 0
-0.38415566 22.91506 -1.2010944 0
-0.46051025 22.890127 -1.1998618 0
-0.53733927 22.89209 -1.2000523 0
-0.6138128 22.87986 -1.1995124 0
-0.69074285 22.885015 -1.1998973 0
-0.76781827 22.893013 -1.2004448 0
-0.84424096 22.881395 -1.1999773 0
-0.92059463 22.869528 -1.1995101 0
-0.99809122 22.885218 -1.2005018 0
-1.0745083 22.875204 -1.2001587 0
-1.151368 22.874842 -1.2003355 0
-1.2263591 22.839239 -1.1986763 0
-1.3035361 22.845659 -1.1992359 0
-1.3789212 22.82122 -1.198189 0
-1.4576465 22.851236 -1.2000148 0
-1.5342784 22.846582 -1.2000338 0
-1.6112556 22.846777 -1.200321 0
-1.687516 22.836761 -1.2000853 0
-1.7625954 22.81184 -1.1990795 0
-1.8424777 22.848068 -1.2013017 0
-1.9172982 22.820644 -1.200191 0
-1.9928676 22.80341 -1.1996293 0
-2.0700746 22.805 -1.2000715 0
-2.1449957 22.781704 -1.1992172 0
-2.2193379 22.753586 -1.198122 0
-2.299808 22.787573 -1.2003109 0
-2.3773954 22.79122 -1.2009162 0
-2.4532678 22.77821 -1.2006572 0
-2.5272031 22.748055 -1.1995077 0
-2.602649 22.73238 -1.1991346 0
-2.6828711 22.757622 -1.2009338 0
-2.7573318 22.733442 -1.2001389 0
-2.8341401 22.728903 -1.2003943 0
-2.9080613 22.701563 -1.1994585 0
-2.9875448 22.717432 -1.2008195 0
-3.0618272 22.693441 -1.2000873 0
-3.1374032 22.679482 -1.1998985 0
-3.2126992 22.663708 -1.1996272 0
-3.2924092 22.678577 -1.2009919 0
-3.3595266 22.607513 -1.1978183 0
-3.4435821 22.650557 -1.2007037 0
-3.5187178 22.633814 -1.2004349 0
-3.5958295 22.629723 -1.2008506 0
-3.6682217 22.596222 -1.1997187 0
-3.745281 22.591751 -1.2001413 0
-3.8216932 22.583128 -1.2003572 0
-3.9009638 22.590893 -1.2014583 0
-3.9734392 22.559259 -1.2004777 0
-4.046103 22.529379 -1.1996028 0
-4.1263194 22.541376 -1.2009716 0
-4.200067 22.517731 -1.2004553 0
-4.2785654 22.51944 -1.2013044 0
-4.3551583 22.510723 -1.2016116 0
-4.4207025 22.4457 -1.1989251 0
-4.4950891 22.426538 -1.1987 0
-4.5693083 22.406696 -1.1984515 0
-4.6476092 22.406683 -1.1992775 0
-4.7246151 22.400013 -1.1997616 0
-4.8013563 22.391809 -1.2001778 0
-4.875206 22.370085 -1.1998826 0
-4.9517374 22.360641 -1.2002599 0
-5.0238366 22.331272 -1.1995809 0
-5.0995655 22.318172 -1.1997889 0
-5.1771984 22.31316 -1.2004459 0
-5.2517228 22.29458 -1.2003868 0
-5.3228569 22.261848 -1.1995786 0
-5.3990788 22.250521 -1.199937 0
-5.4784942 22.251968 -1.2009988 0
-5.5450873 22.201513 -1.1992724 0
-5.619556 22.183043 -1.1992856 0
-5.6972065 22.176947 -1.199982 0
-5.7706184 22.154224 -1.1997927 0
-5.8404927 22.118193 -1.1988951 0
-5.9213023 22.123463 -1.2002501 0
-5.9910011 22.087101 -1.1993605 0
-6.0699553 22.084843 -1.2003361 0
-6.141839 22.056725 -1.1999204 0
-6.2201591 22.051615 -1.2007703 0
-6.2858467 22.00189 -1.1992035 0
-6.3619089 21.988743 -1.1996427 0
-6.4360685 21.968899 -1.1997306 0
-6.498425 21.909214 -1.1976544 0
-6.5840001 21.927784 -1.1998694 0
-6.661869 21.920017 -1.20066 0
-6.7321305 21.887171 -1.2000904 0
-6.8086758 21.874758 -1.2006547 0
-6.8773761 21.837189 -1.1998515 0
-6.9500227 21.812342 -1.1997598 0
-7.0233755 21.789722 -1.1998042 0
-7.1024475 21.784622 -1.2008278 0
-7.1662331 21.732742 -1.1992859 0
-7.2562547 21.760162 -1.2021347 0
-7.3090906 21.676157 -1.198841 0
-7.3895254 21.674408 -1.2001078 0
-7.4625974 21.650797 -1.2001791 0
-7.5313845 21.614857 -1.1995798 0
-7.6083508 21.602367 -1.2002958 0
-7.6810751 21.577688 -1.2003486 0
-7.7423201 21.521078 -1.1986368 0
-7.8320994 21.543594 -1.2013466 0
-7.8975987 21.499006 -1.20033 0
-7.96487 21.459562 -1.1996121 0
-8.0452547 21.455351 -1.2008779 0
-8.110013 21.40943 -1.1998228 0
-8.1825418 21.38419 -1.199939 0
-8.2598572 21.371288 -1.2007624 0
-8.3226395 21.320868 -1.1994905 0
-8.3900309 21.282578 -1.1989121 0
-8.4778976 21.295919 -1.2012583 0
-8.541151 21.247225 -1.2001202 0
-8.6006021 21.189548 -1.1984844 0
-8.6773062 21.17452 -1.1992732 0
-8.7456427 21.139002 -1.1989156 0
-8.8199244 21.117834 -1.1993855 0
-8.8980541 21.105637 -1.2003804 0
-8.9586906 21.052008 -1.1990318 0
-9.0353346 21.036079 -1.1998433 0
-9.1074543 21.009453 -1.2000595 0
-9.1766996 20.976183 -1.1999099 0
-9.2495127 20.95104 -1.2002388 0
-9.2982922 20.871843 -1.197481 0
-9.3790073 20.86455 -1.19886 0
-9.4641914 20.86668 -1.200799 0
-9.5187683 20.801327 -1.1988679 0
-9.6090155 20.813824 -1.2014383 0
-9.6659594 20.754034 -1.199851 0
-9.7361622 20.722942 -1.199934 0
-9.809659 20.698772 -1.2004323 0
-9.8701448 20.647238 -1.199356 0
-9.9358702 20.606882 -1.1989402 0
-10.014987 20.594185 -1.2001482 0
-10.08352 20.559555 -1.2000936 0
-10.165812 20.552755 -1.2016796 0
-10.212296 20.473713 -1.1990533 0
-10.28861 20.454718 -1.1999544 0
-10.354034 20.413998 -1.1995953 0
-10.424169 20.382587 -1.1997967 0
-10.504411 20.37072 -1.2011645 0
-10.558984 20.309097 -1.1996117 0
-10.640108 20.298555 -1.2010894 0
-10.704898 20.256697 -1.2007296 0
-10.767226 20.210316 -1.2001134 0
-10.841471 20.186287 -1.2008383 0
-10.914641 20.160076 -1.2014493 0
-10.962544 20.0874 -1.199302 0
-11.043375 20.075151 -1.2007744 0
-11.092873 20.006002 -1.1988562 0
-11.160843 19.970407 -1.198959 0
-11.229029 19.935169 -1.1990969 0
-11.307516 19.918037 -1.2003402 0
-11.36888 19.870657 -1.1997752 0
-11.433713 19.829433 -1.1995941 0
-11.521603 19.827936 -1.2018337 0
-11.575802 19.768333 -1.2005668 0
-11.642436 19.730124 -1.20061 0
-11.700809 19.678005 -1.1998191 0
-11.769711 19.643656 -1.200124 0
-11.833725 19.601133 -1.1999435 0
-11.898949 19.560644 -1.1999004 0
-11.976954 19.541014 -1.2011527 0
-12.036735 19.491566 -1.2005873 0
-12.095697 19.440941 -1.1999602 0
-12.164494 19.406153 -1.2003236 0
-12.226788 19.360977 -1.2000583 0
-12.292201 19.320768 -1.2001138 0
-12.354403 19.275532 -1.1998702 0
-12.425428 19.24402 -1.2004951 0
-12.495918 19.211535 -1.2010754 0
-12.548306 19.151285 -1.1999323 0
-12.61184 19.108187 -1.1998746 0
-12.681715 19.074638 -1.2004312 0
-12.738177 19.020933 -1.1997324 0
-12.777586 18.942102 -1.1974558 0
-12.867264 18.937775 -1.1999027 0
-12.941444 18.910248 -1.200901 0
-12.980236 18.831152 -1.1986351 0
-13.058612 18.80958 -1.2000421 0
-13.111478 18.751211 -1.1991161 0
-13.193741 18.734787 -1.200888 0
-13.25371 18.686539 -1.200637 0
-13.311674 18.63554 -1.2002211 0
-13.378114 18.596409 -1.200583 0
-13.436127 18.545568 -1.2002022 0
-13.508365 18.514303 -1.2011033 0
-13.565294 18.462009 -1.2006546 0
-13.616652 18.402279 -1.1997324 0
-13.67911 18.357641 -1.1998057 0
-13.746491 18.31955 -1.2003217 0
-13.804851 18.269407 -1.2000622 0
-13.881016 18.242718 -1.2013593 0
-13.922687 18.170734 -1.1996863 0
-13.994747 18.138491 -1.2006487 0
-14.041237 18.073128 -1.1994317 0
-14.123102 18.053238 -1.2012475 0
-14.162641 17.979239 -1.1994764 0
-14.21461 17.921274 -1.1987821 0
-14.299281 17.904398 -1.2008535 0
-14.338527 17.830606 -1.199122 0
-14.406185 17.792259 -1.1997846 0
-14.456553 17.732567 -1.1990212 0
-14.531342 17.702776 -1.2002945 0
-14.58339 17.645216 -1.1997002 0
-14.648391 17.603338 -1.2001854 0
-14.715575 17.563967 -1.2008582 0
-14.764872 17.503258 -1.2000854 0
-14.797528 17.423105 -1.1979848 0
-14.863886 17.382778 -1.198632 0
-14.947764 17.362675 -1.2006948 0
-14.978552 17.280916 -1.1985071 0
-15.057254 17.254486 -1.2001686 0
-15.1147 17.203541 -1.2001432 0
-15.157084 17.135572 -1.19894 0
-15.244949 17.118902 -1.2013433 0
-15.285478 17.048975 -1.2000258 0
-15.334595 16.988811 -1.1994033 0
-15.398923 16.945505 -1.1999841 0
-15.438274 16.874786 -1.198635 0
-15.508679 16.838036 -1.1997113 0
-15.554933 16.775036 -1.1989317 0
-15.633639 16.746946 -1.2006637 0
-15.665637 16.668829 -1.1988221 0
-15.724556 16.619511 -1.19906 0
-15.790129 16.577129 -1.1998153 0
-15.862903 16.542116 -1.2011238 0
-15.913582 16.483976 -1.2007697 0
-15.961784 16.423351 -1.2002451 0
-16.006327 16.359079 -1.1994634 0
-16.05743 16.301611 -1.1991903 0
-16.108015 16.243668 -1.198894 0
-16.18144 16.208654 -1.2003075 0
-16.231071 16.149712 -1.1999657 0
-16.299276 16.109184 -1.2010083 0
-16.345821 16.047205 -1.2004666 0
-16.401363 15.994097 -1.2006007 0
-16.459587 15.943559 -1.2009429 0
-16.49819 15.874081 -1.1998694 0
-16.549278 15.816726 -1.1997213 0
-16.605881 15.764629 -1.1999862 0
-16.660427 15.710546 -1.2001147 0
-16.724993 15.665825 -1.2009753 0
-16.761393 15.594746 -1.1998278 0
-16.808334 15.533608 -1.1994531 0
-16.869829 15.485893 -1.2001295 0
-16.932522 15.439155 -1.2009003 0
-16.975433 15.374364 -1.200281 0
-17.018501 15.309819 -1.19969 0
-17.072292 15.254958 -1.1998696 0
-17.135233 15.208183 -1.2007027 0
-17.185879 15.150428 -1.2006854 0
-17.258427 15.111853 -1.2022072 0
-17.281685 15.03015 -1.2003103 0
-17.328146 14.968811 -1.2000448 0
-17.360836 14.895699 -1.1988431 0
-17.431486 14.855139 -1.2002758 0
-17.482105 14.797379 -1.2003382 0
-17.540701 14.746318 -1.20096 0
-17.552599 14.656158 -1.1984035 0
-17.623718 14.615535 -1.1999067 0
-17.693077 14.573212 -1.2012955 0
-17.713699 14.490788 -1.1993902 0
-17.771124 14.43858 -1.1999937 0
-17.82177 14.3808 -1.2001512 0
-17.86622 14.318029 -1.199905 0
-17.911098 14.255637 -1.1997023 0
-17.961971 14.198015 -1.1999143 0
-18.00482 14.13406 -1.1996044 0
-18.053537 14.074728 -1.1996994 0
-18.117096 14.026871 -1.200791 0
-18.156719 13.960433 -1.2003082 0
-18.185946 13.886133 -1.1991557 0
-18.241217 13.831765 -1.1997355 0
-18.29978 13.779781 -1.2005417 0
-18.33568 13.710724 -1.1998744 0
-18.38401 13.650999 -1.2000352 0
-18.42004 13.58218 -1.1994078 0
-18.472038 13.525149 -1.1998341 0
-18.523176 13.467426 -1.2002161 0
-18.546774 13.389759 -1.1988294 0
-18.625042 13.351499 -1.2009882 0
-18.642626 13.269705 -1.1992464 0
-18.710835 13.223963 -1.2007753 0
-18.719616 13.136277 -1.1985055 0
-18.772377 13.079587 -1.1990691 0
-18.833441 13.028551 -1.2001725 0
-18.865322 12.9573 -1.199429 0
-18.913631 12.897367 -1.1997445 0
-18.941343 12.823438 -1.1987683 0
-19.012764 12.779037 -1.2005699 0
-19.023039 12.693557 -1.1985246 0
-19.08383 12.641853 -1.1996775 0
-19.134295 12.58318 -1.2001909 0
-19.137932 12.493858 -1.1977848 0
-19.21664 12.453554 -1.2000909 0
-19.267654 12.395081 -1.2006747 0
-19.275949 12.309237 -1.1986129 0
-19.33547 12.256176 -1.1997521 0
-19.389526 12.199505 -1.2005615 0
-19.412916 12.123558 -1.1994863 0
-19.450191 12.056378 -1.199285 0
-19.505011 12.000022 -1.2001776 0
-19.543579 11.933609 -1.2000821 0
-19.590601 11.872331 -1.2005184 0
-19.6052 11.791486 -1.1989836 0
-19.64065 11.723314 -1.198741 0
-19.698917 11.668694 -1.1999027 0
-19.75193 11.610812 -1.2007537 0
-19.772509 11.533883 -1.1996472 0
-19.801407 11.461932 -1.1990621 0
-19.841019 11.39622 -1.1991402 0
-19.884665 11.332794 -1.1994749 0
-19.925047 11.267474 -1.1996253 0
-19.976322 11.208241 -1.200443 0
-20.009441 11.138782 -1.2001823 0
-20.047907 11.072311 -1.2002561 0
-20.088766 11.007141 -1.2004861 0
-20.084293 10.917295 -1.1980246 0
-20.158363 10.870159 -1.2002622 0
-20.201107 10.805941 -1.2006433 0
-20.225506 10.731932 -1.1999481 0
-20.259113 10.662868 -1.1998141 0
-20.321863 10.609038 -1.2014171 0
-20.344671 10.534294 -1.2006706 0
-20.34878 10.450054 -1.1988386 0
-20.412222 10.396295 -1.2005159 0
-20.43959 10.324073 -1.2000829 0
-20.473003 10.254941 -1.2000192 0
-20.49979 10.182526 -1.1995815 0
-20.540474 10.117016 -1.1999706 0
-20.580519 10.051138 -1.2003344 0
-20.58671 9.9688139 -1.1987394 0
-20.646032 9.9122248 -1.2002518 0
-20.672096 9.8395891 -1.1998423 0
-20.706556 9.7709723 -1.1999342 0
-20.735334 9.6996841 -1.1997106 0
-20.781857 9.6366539 -1.2005261 0
-20.791084 9.5563669 -1.1992015 0
-20.836409 9.4927092 -1.1999732 0
-20.848545 9.4139566 -1.1988477 0
-20.90086 9.3533421 -1.2000459 0
-20.939823 9.2866364 -1.2004884 0
-20.961885 9.2124414 -1.1999758 0
-20.99394 9.1426678 -1.2000493 0
-21.038921 9.0784616 -1.2008739 0
-21.076437 9.0109472 -1.2012839 0
-21.086992 8.9319553 -1.2001719 0
-21.098879 8.8536749 -1.1991521 0
-21.124397 8.7812023 -1.1989225 0
-21.166796 8.7157106 -1.1996635 0
-21.1873 8.6411867 -1.1991768 0
-21.221003 8.5720596 -1.1994509 0
-21.2565 8.5036125 -1.1998391 0
-21.285501 8.4325371 -1.1998734 0
-21.316895 8.3623943 -1.2000558 0
-21.340954 8.2893772 -1.1998389 0
-21.324379 8.2007618 -1.1973544 0
-21.416126 8.1537275 -1.2009643 0
-21.410185 8.0693798 -1.1991071 0
-21.444994 8.0004883 -1.1995476 0
-21.484444 7.933249 -1.2002597 0
-21.516827 7.8633289 -1.2005892 0
-21.531813 7.7870717 -1.1999618 0
-21.546326 7.7107296 -1.1993231 0
-21.579988 7.6412539 -1.199764 0
-21.617599 7.5731006 -1.2004367 0
-21.62273 7.4935989 -1.1993196 0
-21.6724 7.4295158 -1.2006862 0
-21.688736 7.3539443 -1.2002184 0
-21.709156 7.2798052 -1.199991 0
-21.750753 7.212718 -1.2009469 0
-21.719276 7.1215415 -1.1978838 0
-21.76779 7.0567069 -1.1992478 0
-21.821251 6.9932742 -1.2008946 0
-21.833708 6.9166298 -1.2002972 0
-21.864141 6.8456922 -1.2007017 0
-21.873035 6.7680359 -1.1999372 0
-21.921562 6.7025981 -1.2013597 0
-21.906462 6.6177487 -1.1993096 0
-21.924259 6.5429893 -1.1990762 0
-21.968784 6.4761395 -1.200317 0
-21.963373 6.3945851 -1.1988432 0
-21.989471 6.3222847 -1.199104 0
-22.030058 6.2540622 -1.2001669 0
-22.037901 6.1765199 -1.1994593 0
-22.070196 6.1058364 -1.200096 0
-22.102465 6.0350599 -1.2007437 0
-22.109455 5.9573855 -1.2000316 0
-22.147198 5.88798 -1.2010019 0
-22.143984 5.8077035 -1.199765 0
-22.156088 5.7315531 -1.1993729 0
-22.204111 5.6646161 -1.2009375 0
-22.201603 5.5847611 -1.1997825 0
-22.222498 5.5108609 -1.1999063 0
-22.2377 5.4355521 -1.1997364 0
-22.266514 5.3635435 -1.200314 0
-22.286598 5.2893867 -1.200434 0
-22.301035 5.2138925 -1.2002631 0
-22.310198 5.1372051 -1.1998225 0
-22.285618 5.0529246 -1.1975828 0
-22.354954 4.9898996 -1.200403 0
-22.350985 4.9103999 -1.1992991 0
-22.37879 4.8379126 -1.199914 0
-22.389036 4.76161 -1.1996006 0
-22.429636 4.6916962 -1.2009263 0
-22.414064 4.6100554 -1.1992583 0
-22.458616 4.5407872 -1.2008206 0
-22.443329 4.4594245 -1.1991971 0
-22.457724 4.3840675 -1.1991742 0
-22.46069 4.3065209 -1.1985548 0
-22.510733 4.2379169 -1.2004602 0
-22.524311 4.1623254 -1.2004333 0
-22.542704 4.0876098 -1.2006763 0
-22.547459 4.0104365 -1.2002068 0
-22.574688 3.9372423 -1.2009467 0
-22.559679 3.8567307 -1.1994536 0
-22.587498 3.7835855 -1.2002515 0
-22.601044 3.7079947 -1.2003038 0
-22.589605 3.6283832 -1.1990436 0
-22.61367 3.5545146 -1.1996816 0
-22.643463 3.4814429 -1.2006361 0
-22.668413 3.4075191 -1.2013466 0
-22.655554 3.3279486 -1.2000669 0
-22.653088 3.2500336 -1.1993524 0
-22.664583 3.1741657 -1.1993908 0
-22.687214 3.099813 -1.2000316 0
-22.685715 3.0221624 -1.1994097 0
-22.719971 2.9492323 -1.2006912 0
-22.712997 2.8709249 -1.1998073 0
-22.727116 2.7953246 -1.2000512 0
-22.741945 2.7197773 -1.2003461 0
-22.748993 2.6432867 -1.2002435 0
-22.733547 2.5642715 -1.1989683 0
-22.747663 2.4886532 -1.1992658 0
-22.769194 2.4137821 -1.1999676 0
-22.758228 2.3354852 -1.1989703 0
-22.76207 2.258785 -1.1987669 0
-22.809898 2.186326 -1.200893 0
-22.817997 2.1099191 -1.2009401 0
-22.803623 2.0315037 -1.1998185 0
-22.803478 1.9544507 -1.1994593 0
-22.814699 1.8783789 -1.1997116 0
-22.825304 1.8022252 -1.1999447 0
-22.838383 1.7262276 -1.2003213 0
-22.853315 1.6503148 -1.2008085 0
-22.863096 1.573984 -1.2010385 0
-22.828344 1.4947069 -1.1989428 0
-22.816374 1.4171126 -1.1980579 0
-22.895739 1.3449963 -1.2019817 0
-22.887789 1.2675408 -1.2013345 0
-22.852619 1.1887513 -1.1992725 0
-22.852209 1.1119165 -1.1990486 0
-22.898592 1.0372291 -1.2012931 0
-22.865114 0.95890415 -1.1993613 0
-22.917799 0.88414985 -1.2019627 0
-22.8887 0.80618101 -1.2002881 0
-22.887316 0.72930884 -1.2000804 0
-22.86166 0.65177047 -1.1986139 0
-22.872864 0.57534599 -1.1990933 0
-22.915356 0.49954146 -1.2012265 0
-22.889736 0.4222067 -1.1998025 0
-22.895374 0.34552506 -1.2000306 0
-22.902229 0.26882759 -1.2003359 0
-22.914349 0.19213438 -1.2009305 0
-22.854841 0.11500379 -1.1977849 0
-22.891401 0.038436126 -1.1996874 0
-22.882626 6.07211e-05 -1.1992258 0
-68.743652 -0.11542499 -1.1999248 0
-68.724098 -0.34581435 -1.1995971 0
-68.723457 -0.57623887 -1.1996127 0
-68.733795 -0.80680096 -1.1998336 0
-68.770576 -1.0378497 -1.2005298 0
-68.72924 -1.2677274 -1.1998756 0
-68.748375 -1.4986746 -1.2002907 0
-68.724197 -1.7286946 -1.1999631 0
-68.711784 -1.9589264 -1.1998541 0
-68.7658 -2.1912358 -1.2009189 0
-68.732491 -2.4208813 -1.2004722 0
-68.692818 -2.6501124 -1.1999277 0
-68.697418 -2.8809934 -1.20017 0
-68.674461 -3.1107218 -1.1999446 0
-68.684799 -3.3419862 -1.2003142 0
-68.645927 -3.5708351 -1.1998373 0
-68.637573 -3.8011937 -1.1999073 0
-68.620102 -4.0310464 -1.1998315 0
-68.607506 -4.2611747 -1.1998543 0
-68.601891 -4.4917722 -1.2000127 0
-68.564301 -4.7202315 -1.1996253 0
-68.578918 -4.9523144 -1.2001648 0
-68.564415 -5.1824069 -1.2002084 0
-68.525925 -5.4106245 -1.1998453 0
-68.488274 -5.6387739 -1.1995105 0
-68.49881 -5.8709269 -1.2000329 0
-68.46003 -6.0988903 -1.199705 0
-68.462578 -6.3305521 -1.200115 0
-68.417603 -6.5578184 -1.1997051 0
-68.417694 -6.789402 -1.2000992 0
-68.397308 -7.0190392 -1.2001477 0
-68.385681 -7.2496262 -1.2003635 0
-68.368011 -7.4796381 -1.2004868 0
-68.317734 -7.7060213 -1.2000507 0
-68.265991 -7.9320688 -1.1996022 0
-68.251007 -8.1623421 -1.1998131 0
-68.233116 -8.3923416 -1.1999866 0
-68.186584 -8.6187906 -1.1996697 0
-68.192223 -8.8518915 -1.2002844 0
-68.135872 -9.0769758 -1.1998215 0
-68.127922 -9.3084946 -1.2002242 0
-68.087723 -9.5356579 -1.2000725 0
-68.032921 -9.7606688 -1.1996768 0
-68.055252 -9.9968596 -1.2006549 0
-68.014252 -10.223912 -1.2005295 0
-67.944405 -10.446484 -1.1999081 0
-67.925865 -10.676881 -1.200206 0
-67.885841 -10.903947 -1.2001382 0
-67.836639 -11.129481 -1.1999213 0
-67.80397 -11.357705 -1.2000103 0
-67.765923 -11.585046 -1.2000176 0
-67.732887 -11.813267 -1.2001272 0
-67.682487 -12.038443 -1.1999426 0
-67.632957 -12.263709 -1.1997868 0
-67.594711 -12.491001 -1.1998445 0
-67.55545 -12.718128 -1.1998978 0
-67.533768 -12.948648 -1.200277 0
-67.489349 -13.174882 -1.2002659 0
-67.4179 -13.395742 -1.1997873 0
-67.343048 -13.615729 -1.1992607 0
-67.350166 -13.852374 -1.2002079 0
-67.291389 -14.075608 -1.1999948 0
-67.251076 -14.302687 -1.2001241 0
-67.207062 -14.52902 -1.2002014 0
-67.152626 -14.753097 -1.2001058 0
-67.084122 -14.973999 -1.1997721 0
-67.088249 -15.21124 -1.2007513 0
-67.010155 -15.429936 -1.2002727 0
-66.943756 -15.651182 -1.2000166 0
-66.865005 -15.869397 -1.1995521 0
-66.832039 -16.098459 -1.1999222 0
-66.806824 -16.329565 -1.2004457 0
-66.737366 -16.54991 -1.2001879 0
-66.670197 -16.770731 -1.1999843 0
-66.631691 -16.998785 -1.2003103 0
-66.580574 -17.223713 -1.2004232 0
-66.494072 -17.439404 -1.199911 0
-66.446907 -17.665354 -1.200122 0
-66.367516 -17.882706 -1.1997643 0
-66.314957 -18.107244 -1.1999048 0
-66.244225 -18.326815 -1.1997302 0
-66.197456 -18.553034 -1.2000029 0
-66.133369 -18.774448 -1.1999755 0
-66.094513 -19.003111 -1.2004199 0
-66.00779 -19.218016 -1.2000083 0
-65.922264 -19.433111 -1.1996312 0
-65.863396 -19.656012 -1.1997524 0
-65.815735 -19.882351 -1.2000918 0
-65.724617 -20.095543 -1.1996522 0
-65.686401 -20.32493 -1.2001919 0
-65.612366 -20.543322 -1.2000908 0
-65.529655 -20.758926 -1.1998442 0
-65.491249 -20.988634 -1.2004229 0
-65.376465 -21.193817 -1.1996146 0
-65.340668 -21.424574 -1.2002691 0
-65.232208 -21.631504 -1.1996022 0
-65.180862 -21.857321 -1.199999 0
-65.113998 -22.078037 -1.200124 0
-65.032135 -22.293665 -1.1999861 0
-64.956436 -22.511379 -1.1999754 0
-64.880791 -22.729107 -1.1999789 0
-64.758743 -22.93041 -1.1991369 0
-64.723137 -23.162308 -1.1999089 0
-64.637375 -23.376383 -1.1997652 0
-64.572327 -23.597971 -1.2000196 0
-64.468948 -23.805513 -1.1995751 0
-64.423454 -24.034472 -1.2002211 0
-64.356567 -24.255634 -1.2004834 0
-64.233635 -24.455568 -1.199713 0
-64.149246 -24.670013 -1.199675 0
-64.075897 -24.888733 -1.1998571 0
-64.005859 -25.108828 -1.2001152 0
-63.917187 -25.321653 -1.2000378 0
-63.824837 -25.532974 -1.1999044 0
-63.757271 -25.754257 -1.2002509 0
-63.603104 -25.940365 -1.1989791 0
-63.592014 -26.184862 -1.2004184 0
-63.487698 -26.391207 -1.2001128 0
-63.379017 -26.595594 -1.1997372 0
-63.288864 -26.807678 -1.1997253 0
-63.218334 -27.028149 -1.2000995 0
-63.154922 -27.251848 -1.2006234 0
-63.037205 -27.452124 -1.2001286 0
-62.946171 -27.663919 -1.2001545 0
-62.841934 -27.869875 -1.199942 0
-62.742435 -28.077864 -1.199833 0
-62.654102 -28.29085 -1.1999509 0
-62.576954 -28.508986 -1.2002974 0
-62.452709 -28.705622 -1.1997535 0
-62.387478 -28.929396 -1.200357 0
-62.255512 -29.122213 -1.1996899 0
-62.160419 -29.332148 -1.1997458 0
-62.061455 -29.540266 -1.1997405 0
-61.981945 -29.757725 -1.2001255 0
-61.850388 -29.95015 -1.1995158 0
-61.768448 -30.166548 -1.1998814 0
-61.652695 -30.366449 -1.1996039 0
-61.593449 -30.594307 -1.2004404 0
-61.48243 -30.796589 -1.2002822 0
-61.367691 -30.996929 -1.2000644 0
-61.241661 -31.191427 -1.1996382 0
-61.148781 -31.402769 -1.1998746 0
-61.082909 -31.628199 -1.2006561 0
-60.921951 -31.804333 -1.1995816 0
-60.82457 -32.013466 -1.1997708 0
-60.723011 -32.220463 -1.1998917 0
-60.654915 -32.445419 -1.200689 0
-60.492519 -32.619877 -1.1996325 0
-60.413097 -32.838974 -1.2002342 0
-60.276043 -33.02676 -1.1997045 0
-60.17046 -33.231701 -1.1998141 0
-60.063965 -33.436184 -1.1999191 0
-59.971954 -33.648846 -1.2003281 0
-59.829853 -33.833363 -1.1997477 0
-59.708851 -34.029648 -1.1996025 0
-59.60017 -34.232952 -1.1997182 0
-59.533752 -34.460773 -1.2007002 0
-59.388306 -34.642937 -1.2001027 0
-59.283367 -34.848648 -1.2003365 0
-59.13578 -35.029202 -1.1997194 0
-59.040039 -35.240433 -1.2001674 0
-58.925499 -35.440556 -1.2002478 0
-58.789814 -35.627907 -1.1999105 0
-58.653282 -35.81459 -1.1995679 0
-58.539673 -36.015224 -1.1997073 0
-58.457035 -36.235126 -1.2004968 0
-58.332027 -36.428925 -1.2004311 0
-58.188366 -36.610962 -1.1999941 0
-58.075027 -36.812023 -1.2001953 0
-57.933365 -36.995094 -1.1998243 0
-57.817966 -37.194893 -1.2000104 0
-57.697605 -37.39156 -1.2001076 0
-57.586529 -37.594341 -1.2004122 0
-57.437332 -37.772198 -1.1999353 0
-57.296776 -37.955559 -1.1996509 0
-57.194073 -38.164047 -1.2001728 0
-57.073139 -38.360535 -1.2003273 0
-56.928856 -38.541283 -1.2000039 0
-56.817646 -38.744438 -1.2003911 0
-56.673237 -38.924976 -1.2000906 0
-56.549328 -39.119556 -1.2002375 0
-56.407253 -39.301552 -1.2000121 0
-56.272869 -39.488842 -1.1999631 0
-56.153355 -39.686623 -1.2002453 0
-56.013062 -39.869751 -1.2000971 0
-55.872528 -40.052635 -1.1999565 0
-55.733101 -40.236256 -1.1998527 0
-55.593079 -40.419399 -1.199749 0
-55.477455 -40.620365 -1.2001861 0
-55.336151 -40.802601 -1.2000821 0
-55.179478 -40.973381 -1.1996568 0
-55.049263 -41.163742 -1.1998197 0
-54.900738 -41.340397 -1.1995968 0
-54.775219 -41.534397 -1.1998903 0
-54.629025 -41.712753 -1.1997447 0
-54.514519 -41.915405 -1.2003095 0
-54.360363 -42.087639 -1.2000157 0
-54.210705 -42.263237 -1.1998333 0
-54.081795 -42.455036 -1.2001238 0
-53.941326 -42.637848 -1.2001724 0
-53.784542 -42.807697 -1.1998706 0
-53.639191 -42.986568 -1.1998365 0
-53.474693 -43.149975 -1.1993865 0
-53.356758 -43.35099 -1.1999946 0
-53.199444 -43.520096 -1.1997313 0
-53.055313 -43.699936 -1.1997786 0
-52.916039 -43.883827 -1.1999495 0
-52.76133 -44.054924 -1.199784 0
-52.631409 -44.246777 -1.2001964 0
-52.4743 -44.415829 -1.2000029 0
-52.315407 -44.583267 -1.1997809 0
-52.187584 -44.777252 -1.2002857 0
-52.032867 -44.948265 -1.2001867 0
-51.874039 -45.115658 -1.2000055 0
-51.721588 -45.288544 -1.1999847 0
-51.555386 -45.449303 -1.1996574 0
-51.418133 -45.635586 -1.2000172 0
-51.254028 -45.798069 -1.1997643 0
-51.112995 -45.981178 -1.2000649 0
-50.94175 -46.137085 -1.1996695 0
-50.806229 -46.325359 -1.200129 0
-50.659576 -46.503662 -1.2003412 0
-50.4744 -46.646477 -1.1996526 0
-50.350021 -46.845501 -1.2004228 0
-50.183254 -47.005226 -1.2001975 0
-50.03735 -47.184509 -1.2004848 0
-49.847424 -47.322159 -1.1997279 0
-49.702847 -47.502754 -1.2000748 0
-49.540497 -47.666435 -1.2000068 0
-49.36697 -47.819256 -1.1996806 0
-49.234318 -48.011768 -1.2003621 0
-49.042805 -48.146858 -1.1996218 0
-48.892338 -48.322128 -1.1998976 0
-48.740376 -48.496056 -1.2001519 0
-48.566971 -48.648651 -1.1998917 0
-48.39645 -48.804016 -1.1997147 0
-48.234158 -48.96764 -1.1997547 0
-48.083416 -49.143093 -1.200097 0
-47.910709 -49.296146 -1.1999049 0
-47.744537 -49.455856 -1.1998893 0
-47.590519 -49.628242 -1.2001935 0
-47.421467 -49.785015 -1.2001331 0
-47.234268 -49.922581 -1.1996248 0
-47.093681 -50.109459 -1.2003145 0
-46.926029 -50.267735 -1.2003303 0
-46.740574 -50.40683 -1.1999028 0
-46.567051 -50.558636 -1.1997931 0
-46.403591 -50.721386 -1.1999565 0
-46.235374 -50.878998 -1.200011 0
-46.050255 -51.017918 -1.1996392 0
-45.888885 -51.183121 -1.1998993 0
-45.713718 -51.332981 -1.1998127 0
-45.570938 -51.519409 -1.200592 0
-45.390457 -51.663387 -1.200394 0
-45.213497 -51.811287 -1.2003014 0
-45.038811 -51.961758 -1.2002822 0
-44.852627 -52.098866 -1.1999688 0
-44.676147 -52.247147 -1.1999273 0
-44.501213 -52.397221 -1.1999406 0
-44.310524 -52.528629 -1.1995409 0
-44.145725 -52.690708 -1.1998553 0
-43.97015 -52.840027 -1.1998918 0
-43.793064 -52.987549 -1.1999006 0
-43.627186 -53.148727 -1.2002314 0
-43.441467 -53.285782 -1.2000306 0
-43.271355 -53.44199 -1.2002743 0
-43.091084 -53.585716 -1.2002507 0
-42.892311 -53.706264 -1.199723 0
-42.720978 -53.861088 -1.1999751 0
-42.534756 -53.997173 -1.1998229 0
-42.359413 -54.147068 -1.199991 0
-42.176056 -54.286762 -1.1999463 0
-42.005299 -54.44276 -1.2002747 0
-41.812004 -54.569557 -1.1999726 0
-41.631741 -54.713295 -1.2000573 0
-41.429237 -54.827656 -1.1995122 0
-41.266537 -54.994717 -1.2001334 0
-41.083359 -55.134701 -1.2001755 0
-40.883991 -55.252834 -1.1997564 0
-40.686703 -55.373531 -1.1994083 0
-40.50959 -55.521656 -1.1996682 0
-40.326355 -55.66151 -1.1997617 0
-40.155415 -55.81852 -1.2002373 0
-39.953239 -55.932121 -1.1997929 0
-39.765331 -56.06554 -1.1997881 0
-39.573433 -56.193302 -1.199676 0
-39.40443 -56.353741 -1.2002739 0
-39.192272 -56.452419 -1.1995702 0
-39.027855 -56.619888 -1.2003415 0
-38.838928 -56.752071 -1.2003763 0
-38.625549 -56.848293 -1.1996657 0
-38.451283 -57.002014 -1.2001822 0
-38.248657 -57.113754 -1.199828 0
-38.077831 -57.273079 -1.2004863 0
-37.872414 -57.380459 -1.2000687 0
-37.68536 -57.515575 -1.2002454 0
-37.492805 -57.642372 -1.2002612 0
-37.296207 -57.762917 -1.2001607 0
-37.096653 -57.87878 -1.1999772 0
-36.89888 -57.997322 -1.1998631 0
-36.713284 -58.135063 -1.2001594 0
-36.508575 -58.242535 -1.1998442 0
-36.325397 -58.384388 -1.2002509 0
-36.118931 -58.488834 -1.1999017 0
-35.933811 -58.627857 -1.2002753 0
-35.722363 -58.723877 -1.1997824 0
-35.533276 -58.856571 -1.2000526 0
-35.338882 -58.980621 -1.2001593 0
-35.141033 -59.098942 -1.2001626 0
-34.935577 -59.20438 -1.1999185 0
-34.723141 -59.297718 -1.1994439 0
-34.532742 -59.428619 -1.199743 0
-34.347847 -59.569309 -1.2002516 0
-34.136364 -59.663921 -1.1998451 0
-33.936291 -59.77832 -1.1998507 0
-33.741444 -59.902012 -1.200056 0
-33.544128 -60.021446 -1.2001888 0
-33.346066 -60.139652 -1.20031 0
-33.14724 -60.256565 -1.2004186 0
-32.930145 -60.340099 -1.1998764 0
-32.720055 -60.436134 -1.199598 0
-32.529182 -60.567738 -1.2000386 0
-32.319115 -60.663673 -1.1997856 0
-32.123119 -60.786041 -1.2000688 0
-31.908123 -60.872391 -1.1996548 0
-31.705675 -60.98254 -1.1997238 0
-31.511177 -61.108173 -1.2001102 0
-31.293671 -61.189144 -1.1996331 0
-31.10305 -61.322727 -1.2002007 0
-30.89625 -61.424629 -1.200161 0
-30.683939 -61.515461 -1.1999189 0
-30.482058 -61.627174 -1.2000977 0
-30.277874 -61.734356 -1.2002013 0
-30.069897 -61.833828 -1.2001683 0
-29.870262 -61.950584 -1.2004839 0
-29.639347 -62.002193 -1.1995515 0
-29.449795 -62.140247 -1.2003053 0
-29.24218 -62.240543 -1.2003421 0
-29.030025 -62.331131 -1.2002052 0
-28.825006 -62.437054 -1.2003772 0
-28.611555 -62.524719 -1.2002115 0
-28.393543 -62.602177 -1.1998643 0
-28.183073 -62.696095 -1.1998465 0
-27.980354 -62.807404 -1.2001746 0
-27.758236 -62.875084 -1.1996827 0
-27.554388 -62.98407 -1.1999927 0
-27.334608 -63.056602 -1.1996217 0
-27.13298 -63.171047 -1.2000616 0
-26.922516 -63.26516 -1.2001278 0
-26.711178 -63.357277 -1.2001697 0
-26.499109 -63.447689 -1.2001926 0
-26.275536 -63.510326 -1.1997042 0
-26.066011 -63.606754 -1.1998681 0
-25.850988 -63.689812 -1.1997931 0
-25.648621 -63.804283 -1.2003229 0
-25.431265 -63.88166 -1.2001677 0
-25.215755 -63.963562 -1.2001113 0
-24.996401 -64.035568 -1.1998831 0
-24.787022 -64.133148 -1.2001475 0
-24.574278 -64.222221 -1.2002658 0
-24.347174 -64.273521 -1.1996921 0
-24.13455 -64.362816 -1.1998417 0
-23.909012 -64.417496 -1.1993599 0
-23.702446 -64.523285 -1.1998433 0
-23.491446 -64.617432 -1.2001225 0
-23.27747 -64.703636 -1.2002673 0
-23.058247 -64.775261 -1.2001551 0
-22.833042 -64.829788 -1.1997403 0
-22.618286 -64.913834 -1.1998854 0
-22.408861 -65.013512 -1.2003324 0
-22.179731 -65.055939 -1.199736 0
-21.96641 -65.144539 -1.2000049 0
-21.750528 -65.2258 -1.2001517 0
-21.528383 -65.288246 -1.1999658 0
-21.30641 -65.351006 -1.1997995 0
-21.097542 -65.454216 -1.2003891 0
-20.872704 -65.508064 -1.2000865 0
-20.657225 -65.591255 -1.2003349 0
-20.428524 -65.632294 -1.1998258 0
-20.207052 -65.696175 -1.1997483 0
-19.992716 -65.783447 -1.2001112 0
-19.773411 -65.85466 -1.200194 0
-19.559351 -65.94368 -1.2006145 0
-19.324823 -65.963417 -1.1997875 0
-19.107866 -66.042747 -1.2000585 0
-18.8822 -66.091988 -1.199796 0
-18.669174 -66.185677 -1.2003536 0
-18.443165 -66.233543 -1.2000936 0
-18.221018 -66.295105 -1.2000953 0
-17.992756 -66.334129 -1.199703 0
-17.77446 -66.409813 -1.1999872 0
-17.549318 -66.460007 -1.1998243 0
-17.331194 -66.536911 -1.2001568 0
-17.100008 -66.563499 -1.1995955 0
-16.885986 -66.656967 -1.200253 0
-16.669231 -66.740547 -1.2007447 0
-16.427977 -66.725418 -1.1994748 0
-16.214123 -66.821159 -1.2002119 0
-15.990278 -66.876335 -1.2002333 0
-15.763754 -66.920189 -1.200065 0
-15.54143 -66.981865 -1.2002299 0
-15.317756 -67.037933 -1.2003075 0
-15.088324 -67.06855 -1.1999432 0
-14.866738 -67.133972 -1.2002151 0
-14.633997 -67.148705 -1.1995946 0
-14.4115 -67.210091 -1.1998212 0
-14.192869 -67.290237 -1.2003958 0
-13.968328 -67.342987 -1.2004946 0
-13.7363 -67.359222 -1.1999563 0
-13.508188 -67.393967 -1.1997617 0
-13.282423 -67.440254 -1.1997861 0
-13.056439 -67.485466 -1.1998049 0
-12.829394 -67.525146 -1.199739 0
-12.603231 -67.569435 -1.1997683 0
-12.380244 -67.631149 -1.2001203 0
-12.153271 -67.671448 -1.2001055 0
-11.928467 -67.724045 -1.2003223 0
-11.701836 -67.766563 -1.2003739 0
-11.467395 -67.763069 -1.1996241 0
-11.24257 -67.815834 -1.1998842 0
-11.015993 -67.858444 -1.1999779 0
-10.78769 -67.890434 -1.1998972 0
-10.56299 -67.945419 -1.2002363 0
-10.333937 -67.972656 -1.2000986 0
-10.107642 -68.018112 -1.2002962 0
-9.8766651 -68.03186 -1.1999476 0
-9.6497002 -68.072983 -1.2000954 0
-9.4237003 -68.121498 -1.2003871 0
-9.19137 -68.12397 -1.1998807 0
-8.9619398 -68.147018 -1.1997508 0
-8.7360678 -68.197464 -1.2001165 0
-8.5082159 -68.233192 -1.2002364 0
-8.2786255 -68.254982 -1.2001249 0
-8.0542316 -68.320526 -1.2007957 0
-7.822289 -68.322411 -1.200361 0
-7.591207 -68.330559 -1.2000504 0
-7.3590117 -68.327271 -1.1995525 0
-7.1307311 -68.359711 -1.1996955 0
-6.9043727 -68.411751 -1.2001959 0
-6.6745133 -68.429916 -1.2001152 0
-6.444221 -68.443176 -1.1999621 0
-6.2147412 -68.464767 -1.1999686 0
-5.986659 -68.502411 -1.2002698 0
-5.7546129 -68.494286 -1.1997826 0
-5.5271988 -68.541298 -1.2002747 0
-5.2956901 -68.537811 -1.199896 0
-5.0659466 -68.556274 -1.1999151 0
-4.835146 -68.559891 -1.1996878 0
-4.606194 -68.589767 -1.1999336 0
-4.375421 -68.592621 -1.1997203 0
-4.1480217 -68.649994 -1.2004737 0
-3.9157207 -68.626579 -1.1998279 0
-3.6863327 -68.65284 -1.2000643 0
-3.456073 -68.663643 -1.2000438 0
-3.2245409 -68.647247 -1.1995616 0
-2.9961631 -68.698982 -1.2002833 0
-2.7651753 -68.692833 -1.2000071 0
-2.5344939 -68.692177 -1.1998405 0
-2.3037174 -68.686867 -1.1996062 0
-2.0740752 -68.716232 -1.1999907 0
-1.843537 -68.717804 -1.1999036 0
-1.6128302 -68.710876 -1.1996814 0
-1.3824108 -68.714127 -1.1996504 0
-1.1523288 -68.736946 -1.1999747 0
-0.92168641 -68.727448 -1.1997482 0
-0.69143176 -68.748116 -1.2000618 0
-0.4607842 -68.728539 -1.1996863 0
-0.23049797 -68.774506 -1.2004684 0
9.1228329e-05 -68.758423 -1.200181 0
0.23064254 -68.763199 -1.200271 0
0.46100223 -68.733849 -1.199779 0
0.69155461 -68.742188 -1.1999583 0
0.92209512 -68.744316 -1.2000427 0
1.1529779 -68.764771 -1.2004604 0
1.3834412 -68.756271 -1.2003863 0
1.6132282 -68.720062 -1.1998419 0
1.8439002 -68.724541 -1.2000213 0
2.0743582 -68.719566 -1.200049 0
2.3055897 -68.737244 -1.2004861 0
2.5349839 -68.700516 -1.1999862 0
2.7660949 -68.711136 -1.200327 0
2.9962971 -68.697868 -1.200264 0
3.2259085 -68.67247 -1.2000024 0
3.4562516 -68.663559 -1.2000425 0
3.6866777 -68.655861 -1.2001173 0
3.9141958 -68.596649 -1.1993049 0
4.1474037 -68.636734 -1.2002422 0
4.3750825 -68.584442 -1.1995775 0
4.6061473 -68.586349 -1.199874 0
4.8380222 -68.598076 -1.2003564 0
5.06776 -68.578339 -1.2003015 0
5.2961679 -68.541626 -1.1999631 0
5.5254183 -68.516953 -1.1998487 0
5.7581329 -68.533997 -1.2004786 0
5.9846082 -68.476845 -1.1998221 0
6.2161479 -68.478249 -1.2002052 0
6.4446769 -68.446075 -1.2000132 0
6.6742516 -68.425354 -1.2000356 0
6.9034686 -68.400978 -1.2000072 0
7.132916 -68.378899 -1.2000326 0
7.3626361 -68.359222 -1.2001139 0
7.5888891 -68.308044 -1.1996552 0
7.8198371 -68.299385 -1.199957 0
8.0490923 -68.275368 -1.2000023 0
8.277503 -68.244217 -1.1999359 0
8.5055742 -68.210526 -1.1998383 0
8.7345781 -68.184395 -1.1998869 0
8.9641218 -68.162209 -1.2000186 0
9.1928997 -68.133942 -1.2000569 0
9.4187727 -68.084557 -1.1997365 0
9.6520548 -68.088287 -1.2003658 0
9.8738489 -68.011192 -1.1995835 0
10.107999 -68.019272 -1.200317 0
10.335906 -67.984398 -1.2003064 0
10.56111 -67.932144 -1.2000023 0
10.789215 -67.898872 -1.2000469 0
11.01449 -67.848045 -1.1997945 0
11.244239 -67.824783 -1.2000431 0
11.470157 -67.778297 -1.1998942 0
11.698496 -67.746155 -1.2000128 0
11.92487 -67.702576 -1.1999424 0
12.155018 -67.680145 -1.2002604 0
12.384012 -67.650719 -1.2004682 0
12.608291 -67.595566 -1.2002329 0
12.830141 -67.528099 -1.199792 0
13.060832 -67.507217 -1.2001922 0
13.281392 -67.434074 -1.1996769 0
13.507143 -67.387825 -1.199653 0
13.734392 -67.348961 -1.1997741 0
13.960533 -67.304504 -1.1998093 0
14.187401 -67.263428 -1.1999182 0
14.417561 -67.23748 -1.2003109 0
14.639303 -67.172195 -1.2000149 0
14.867862 -67.138199 -1.2002915 0
15.088197 -67.067154 -1.199919 0
15.316972 -67.033684 -1.2002321 0
15.539031 -66.970718 -1.2000309 0
15.769644 -66.944389 -1.2004998 0
15.984609 -66.851837 -1.1997944 0
16.21014 -66.80397 -1.199904 0
16.441998 -66.781601 -1.2004857 0
16.653667 -66.677483 -1.1996109 0
16.878559 -66.626907 -1.1997124 0
17.109118 -66.598228 -1.2002223 0
17.336491 -66.556526 -1.2005115 0
17.554008 -66.477058 -1.200133 0
17.77634 -66.416138 -1.2001023 0
17.996002 -66.345398 -1.1999077 0
18.22142 -66.295876 -1.2001103 0
18.440386 -66.222893 -1.1999015 0
18.667496 -66.179054 -1.2002345 0
18.879206 -66.080841 -1.1995945 0
19.106152 -66.036171 -1.1999397 0
19.32612 -65.967194 -1.1998571 0
19.543789 -65.890572 -1.1996485 0
19.776621 -65.864708 -1.2003782 0
19.992228 -65.781204 -1.2000712 0
20.214413 -65.71949 -1.2001749 0
