# .PCD v0.7 - Point Cloud Data file format
VERSION 0.7
FIELDS x y z intensity
SIZE 4 4 4 4
TYPE F F F F
COUNT 1 1 1 1
WIDTH 1413
HEIGHT 1
VIEWPOINT 0 0 0 1 0 0 0
POINTS 1413
DATA ascii
13.44414 2.7181616 -1.2000076 0
13.397985 2.755619 -1.1967057 0
13.426665 2.8084719 -1.2001019 0
13.403441 2.8505528 -1.1988735 0
13.400462 2.8969142 -1.1994691 0
13.369142 2.9370966 -1.1975403 0
13.401034 2.9912379 -1.2012887 0
13.386593 3.0351689 -1.2008996 0
13.363749 3.0771348 -1.199769 0
13.383673 3.1290114 -1.2024928 0
13.357516 3.170167 -1.2010911 0
13.318172 3.2080355 -1.1985137 0
13.31921 3.2555716 -1.1995826 0
13.326796 3.3048167 -1.2012571 0
13.30373 3.3464844 -1.2001826 0
13.301213 3.3933101 -1.2009752 0
13.260857 3.4304099 -1.1983631 0
13.279021 3.4826519 -1.201053 0
13.249166 3.5223415 -1.1994141 0
13.220009 3.5620894 -1.1978492 0
13.239141 3.6148987 -1.2006741 0
13.217155 3.656558 -1.1997852 0
13.203222 3.7004042 -1.19964 0
13.178865 3.7412798 -1.19856 0
13.142579 3.7786398 -1.1964053 0
13.163616 3.8325181 -1.1994834 0
13.166867 3.8813999 -1.2009587 0
13.115469 3.9140909 -1.1974609 0
13.123518 3.9644608 -1.1994026 0
13.124818 4.0129232 -1.2007443 0
13.108904 4.0561676 -1.2005259 0
13.064789 4.0905652 -1.197735 0
13.067638 4.1396165 -1.1992619 0
13.078907 4.1914897 -1.2015791 0
13.040859 4.2275624 -1.1993791 0
13.02542 4.2708712 -1.1992693 0
13.013429 4.3153157 -1.1994907 0
12.995372 4.3577437 -1.1991663 0
13.003727 4.4091024 -1.2012947 0
4.7157965 1.6166083 -0.4361473 0
4.6813617 1.6223644 -0.43346322 0
4.6417985 1.6261059 -0.43030229 0
4.577981 1.6210027 -0.42488775 0
4.5410175 1.6250689 -0.42196047 0
4.4898124 1.6237462 -0.41770589 0
4.4597282 1.6297952 -0.41541308 0
4.4629478 1.6479546 -0.41622534 0
4.435904 1.6548902 -0.41421828 0
4.4246635 1.6676178 -0.41368845 0
4.4533896 1.6955184 -0.41690338 0
4.445713 1.7096839 -0.41671905 0
4.4270611 1.7195714 -0.41550881 0
4.451642 1.7463189 -0.41836303 0
4.4604149 1.7670397 -0.41974196 0
4.4549751 1.7821885 -0.41978997 0
4.4381948 1.7927607 -0.41877285 0
4.4617577 1.8197029 -0.4215695 0
4.457849 1.8355651 -0.4217793 0
12.649871 5.2583861 -1.1985285 0
12.635393 5.3021226 -1.1988345 0
12.622901 5.3467255 -1.1993433 0
12.62351 5.3969722 -1.2011138 0
12.614666 5.4432883 -1.2020019 0
12.56481 5.4718199 -1.1989928 0
12.541789 5.5118928 -1.1985527 0
12.518423 5.5517769 -1.198092 0
12.511297 5.5988898 -1.1991998 0
12.493453 5.6412573 -1.1992956 0
12.498302 5.6939712 -1.201587 0
12.472185 5.7326469 -1.2009172 0
12.440568 5.7687154 -1.1997285 0
12.410988 5.8056374 -1.1987463 0
12.393619 5.8482385 -1.1989558 0
12.399303 5.9018312 -1.2014133 0
12.368921 5.9383173 -1.2003919 0
12.349445 5.9799986 -1.2004408 0
12.336903 6.0250707 -1.2011786 0
12.307999 6.0621476 -1.2003366 0
12.262202 6.0907626 -1.1978551 0
12.247631 6.1348057 -1.1984342 0
12.223251 6.1739454 -1.1980674 0
12.253181 6.2407146 -1.2030452 0
12.225071 6.2781067 -1.2023451 0
12.16818 6.3005371 -1.1988208 0
12.167604 6.3520622 -1.2008555 0
12.138801 6.3889074 -1.2001202 0
12.129883 6.4362411 -1.2013652 0
12.112835 6.4793348 -1.2018217 0
12.078018 6.512887 -1.2005271 0
12.045462 6.5475554 -1.1994663 0
12.02481 6.5886545 -1.1996028 0
11.983717 6.6184773 -1.1977104 0
11.998799 6.6794052 -1.2014493 0
11.941799 6.7002196 -1.1979846 0
11.930327 6.7464747 -1.1990962 0
11.929571 6.7989349 -1.2013044 0
11.901149 6.8357015 -1.2007436 0
11.867473 6.8693776 -1.1996629 0
11.855439 6.9155822 -1.2007836 0
11.833369 6.9559884 -1.2009037 0
11.811997 6.996819 -1.2011088 0
11.774931 7.0283008 -1.1997291 0
11.774559 7.0817289 -1.2021037 0
11.727191 7.1068907 -1.1996937 0
11.696987 7.1423163 -1.1990469 0
11.669131 7.1791296 -1.198652 0
11.656967 7.2256341 -1.1998843 0
11.619279 7.2563114 -1.1985025 0
11.593977 7.2946568 -1.1984087 0
11.59098 7.3471322 -1.2006384 0
11.599517 7.407177 -1.2040884 0
11.536388 7.4214334 -1.2001116 0
11.500847 7.4532056 -1.1990072 0
11.479458 7.4941163 -1.1993901 0
11.461438 7.5372791 -1.200141 0
11.44921 7.5843477 -1.2015165 0
11.421068 7.6209245 -1.2012379 0
11.379049 7.648149 -1.1995088 0
11.350524 7.6843495 -1.199211 0
11.317546 7.7174873 -1.1984539 0
11.265669 7.7375746 -1.1957009 0
11.294478 7.8132224 -1.2015322 0
11.246146 7.8356681 -1.1991787 0
11.246741 7.8922281 -1.202057 0
11.207614 7.9209843 -1.2007067 0
11.183169 7.9600658 -1.2009405 0
11.172773 8.0092411 -1.2027011 0
11.104667 8.0169191 -1.1982564 0
11.08404 8.0586967 -1.1989393 0
11.056394 8.0954008 -1.1988782 0
11.045116 8.1441698 -1.2006096 0
11.01765 8.1810818 -1.2005987 0
10.975646 8.2071247 -1.1990134 0
10.949712 8.2451162 -1.1991935 0
10.948498 8.3018703 -1.2021022 0
10.923235 8.3405428 -1.202392 0
10.862161 8.3517084 -1.1987448 0
10.84393 8.3956928 -1.1998327 0
10.821733 8.4366913 -1.2004998 0
10.777322 8.4603167 -1.1987131 0
10.740806 8.4900093 -1.1978109 0
10.722085 8.5337772 -1.1989073 0
10.689518 8.5665569 -1.1984706 0
10.679514 8.6175013 -1.2005816 0
10.627458 8.6344881 -1.1979773 0
10.619591 8.6873674 -1.2003671 0
10.569408 8.7056313 -1.1979874 0
10.560712 8.7580624 -1.2003232 0
10.52868 8.7912426 -1.2000258 0
10.512113 8.8373957 -1.201508 0
10.467088 8.8596115 -1.1997503 0
10.411338 8.87251 -1.1967632 0
10.432528 8.9511213 -1.2026418 0
10.386999 8.9726963 -1.2008547 0
10.362772 9.0126152 -1.2015405 0
10.312119 9.0294666 -1.1991709 0
10.299444 9.0795565 -1.2012303 0
10.264827 9.110384 -1.2007487 0
10.216265 9.1287012 -1.1986417 0
10.17966 9.1575584 -1.1979424 0
10.174556 9.2148743 -1.200971 0
10.152177 9.2567539 -1.2019861 0
10.102677 9.2738438 -1.1998001 0
10.069551 9.3058376 -1.1995646 0
10.015749 9.3185711 -1.1968706 0
10.024023 9.3891678 -1.2016145 0
9.9575377 9.3897676 -1.1974119 0
9.9493484 9.4452658 -1.2002285 0
9.9197979 9.480648 -1.2004915 0
9.8639603 9.4907675 -1.1975783 0
9.8516607 9.5427494 -1.1999629 0
9.82547 9.58144 -1.2006788 0
9.7809229 9.6021881 -1.1991626 0
9.7592974 9.6454277 -1.2004695 0
9.7225447 9.6737576 -1.1999315 0
9.6909208 9.7071676 -1.2000387 0
9.6715498 9.7529459 -1.2016824 0
9.6307936 9.777195 -1.2006848 0
9.5821972 9.7933216 -1.1987131 0
9.5523472 9.8285198 -1.1990945 0
9.5140772 9.8550406 -1.1984316 0
9.5002575 9.9069853 -1.2008681 0
9.4498577 9.9207983 -1.1986952 0
9.4132605 9.9489574 -1.1982775 0
9.3888426 9.9900303 -1.1994263 0
9.3620605 10.028701 -1.2002937 0
9.3391171 10.071608 -1.2016746 0
9.3069754 10.104688 -1.2018915 0
9.2505846 10.111285 -1.1989805 0
9.2090673 10.133921 -1.1979965 0
9.1972637 10.189363 -1.2008984 0
9.159708 10.216416 -1.2004607 0
9.1464186 10.270668 -1.2032253 0
9.0761385 10.260812 -1.1984988 0
9.0479088 10.298269 -1.1993239 0
9.0156441 10.331199 -1.1996318 0
9.0125189 10.397783 -1.2038479 0
8.9526091 10.398907 -1.2004958 0
8.9109793 10.421013 -1.1995921 0
8.8701143 10.443913 -1.1987981 0
8.8417435 10.481532 -1.1997066 0
8.8102407 10.515522 -1.2002091 0
8.7822189 10.553756 -1.2012055 0
8.7500496 10.587091 -1.201654 0
8.6914759 10.588316 -1.1984786 0
8.675333 10.641201 -1.2011656 0
8.636754 10.666705 -1.2007689 0
8.5899725 10.681962 -1.1992376 0
8.5557222 10.712722 -1.1994636 0
8.4987154 10.71482 -1.1965014 0
8.4842052 10.770499 -1.1995357 0
8.4475765 10.798285 -1.1994691 0
8.4239616 10.842813 -1.2012711 0
8.3815489 10.863205 -1.2004102 0
8.3295631 10.870995 -1.1981782 0
8.3062878 10.916235 -1.2000883 0
8.2623243 10.93434 -1.1990263 0
8.2304859 10.96847 -1.1997362 0
8.1970577 11.000557 -1.200233 0
8.1530628 11.018429 -1.1991937 0
8.1108332 11.038569 -1.1984193 0
8.093049 11.092114 -1.2012798 0
8.0588808 11.123421 -1.2017373 0
8.0151911 11.141551 -1.2007859 0
7.9716659 11.159787 -1.199864 0
7.9439983 11.200261 -1.2013452 0
7.8981366 11.215097 -1.2000893 0
7.8670225 11.250856 -1.2010866 0
7.8168163 11.259253 -1.1991783 0
7.7923574 11.304743 -1.201234 0
7.7467084 11.319551 -1.2000407 0
7.7164216 11.356806 -1.2012409 0
7.6821852 11.388372 -1.2018485 0
7.6296825 11.392748 -1.1996039 0
7.5900998 11.416246 -1.1993918 0
7.5599084 11.453944 -1.2006826 0
7.4992499 11.445325 -1.1971368 0
7.465066 11.476911 -1.1978158 0
7.4405136 11.523511 -1.200069 0
7.3965755 11.540186 -1.199216 0
7.3712034 11.585921 -1.2013938 0
7.33006 11.606997 -1.2010241 0
7.2816353 11.616405 -1.1994646 0
7.243865 11.642713 -1.1996664 0
7.2098289 11.675097 -1.2005056 0
7.171598 11.70076 -1.2006652 0
7.1292329 11.719653 -1.2001444 0
7.1107092 11.777959 -1.203667 0
7.0612769 11.785206 -1.2019813 0
7.0073566 11.784653 -1.1995219 0
6.9736862 11.818047 -1.2005343 0
6.9266725 11.828809 -1.1992617 0
6.8919106 11.860461 -1.2001213 0
6.8523841 11.883985 -1.20017 0
6.8031979 11.890633 -1.198531 0
6.7774153 11.938252 -1.2010338 0
6.7254028 11.939698 -1.1989039 0
6.6895137 11.96966 -1.1996536 0
6.6545095 12.001337 -1.2005856 0
6.5996919 11.997146 -1.197946 0
6.5718594 12.04198 -1.2002158 0
6.5336084 12.067937 -1.2006129 0
6.4736609 12.053561 -1.1970165 0
6.4525976 12.111588 -1.2006238 0
6.4152298 12.139353 -1.2012372 0
6.3720374 12.15611 -1.2007746 0
6.3173475 12.150677 -1.1981388 0
6.2932305 12.204092 -1.2013186 0
6.2367449 12.194754 -1.1983342 0
6.2143512 12.252125 -1.2019176 0
6.1655579 12.257625 -1.2004226 0
6.1194944 12.268341 -1.199456 0
6.0850654 12.302414 -1.2007858 0
6.0408854 12.316838 -1.2002101 0
6.0045424 12.347278 -1.2012076 0
5.9513979 12.343048 -1.1988482 0
5.9185357 12.380829 -1.2005837 0
5.8800936 12.407148 -1.2012173 0
5.8337674 12.416801 -1.2002515 0
5.7912426 12.434443 -1.2000731 0
5.753715 12.462877 -1.2009487 0
5.6989322 12.453767 -1.1982229 0
5.6624947 12.484598 -1.199356 0
5.6224561 12.507633 -1.1997511 0
5.5768728 12.518298 -1.1989738 0
5.5361495 12.539824 -1.1992509 0
5.4904413 12.550009 -1.1984577 0
5.4537644 12.580877 -1.1996527 0
5.4221811 12.623838 -1.2020088 0
5.3760257 12.633018 -1.2011598 0
5.3303695 12.643215 -1.2004234 0
5.2866039 12.657795 -1.2001181 0
5.2517695 12.693902 -1.2018652 0
5.2052693 12.701897 -1.200963 0
5.1506062 12.689597 -1.1981605 0
5.1003561 12.687702 -1.1963602 0
5.0785451 12.756872 -1.2012701 0
5.0378714 12.779222 -1.2017773 0
4.9867616 12.774943 -1.199796 0
4.9497633 12.806757 -1.2012185 0
4.9064608 12.822403 -1.2011362 0
4.8618612 12.834608 -1.2007458 0
4.8121724 12.833158 -1.1990939 0
4.7754655 12.866321 -1.2006898 0
4.7369661 12.894961 -1.2018737 0
4.6869922 12.892305 -1.2001547 0
4.6484585 12.921063 -1.2013741 0
4.5999641 12.922118 -1.2000315 0
4.5487237 12.915069 -1.1979537 0
4.5163474 12.961676 -1.2008655 0
4.4752331 12.983619 -1.2015016 0
4.4253349 12.97995 -1.1997824 0
4.3816547 12.994312 -1.1997452 0
4.3438406 13.026257 -1.2013431 0
4.2987876 13.036641 -1.2009648 0
4.2560859 13.054147 -1.2012562 0
4.2008162 13.032734 -1.1979829 0
4.1670489 13.07798 -1.200851 0
4.1222148 13.088821 -1.2005707 0
4.0778408 13.10107 -1.2004334 0
4.0204082 13.070829 -1.1964206 0
3.9941685 13.142169 -1.201718 0
3.9407561 13.124425 -1.1988806 0
3.8969004 13.138137 -1.1989329 0
3.8491178 13.138462 -1.1977781 0
3.8115997 13.173947 -1.1998413 0
3.7629983 13.171216 -1.1984367 0
3.7214038 13.192931 -1.1992705 0
3.6735945 13.192568 -1.1981111 0
3.6339233 13.221479 -1.1996235 0
3.5926745 13.24502 -1.2006598 0
3.5506752 13.266067 -1.2014817 0
3.5046806 13.272232 -1.2009691 0
3.4570508 13.271965 -1.1998894 0
3.4074883 13.263844 -1.1981156 0
3.3688846 13.29843 -1.2002127 0
3.3241382 13.30909 -1.2001621 0
3.2736561 13.296438 -1.1980246 0
3.2288094 13.306317 -1.1979327 0
3.1873233 13.330225 -1.1991162 0
3.1464322 13.357054 -1.2005739 0
3.0982466 13.352943 -1.199264 0
3.0528102 13.360416 -1.1990091 0
3.0153472 13.403243 -1.2019385 0
2.9680367 13.402643 -1.2009856 0
2.923871 13.416133 -1.2013091 0
2.8782918 13.423151 -1.2010667 0
2.8315146 13.424402 -1.2003224 0
2.7893033 13.447387 -1.2015346 0
2.7366085 13.419432 -1.1982102 0
2.6971016 13.455977 -1.2006592 0
2.6481011 13.445295 -1.1989071 0
2.6075287 13.477471 -1.2009898 0
2.5682895 13.517522 -1.2037847 0
2.5149727 13.483272 -1.1999769 0
2.4690292 13.487681 -1.1996258 0
2.4276423 13.517313 -1.2015307 0
2.3817563 13.522245 -1.2012526 0
2.3328757 13.509715 -1.1994379 0
2.2882409 13.521442 -1.1997911 0
2.2412066 13.518866 -1.198889 0
2.1987588 13.544112 -1.2004673 0
2.150111 13.531115 -1.1986697 0
2.1050358 13.540204 -1.1988429 0
2.0594454 13.545997 -1.1987377 0
2.0203681 13.595566 -1.202518 0
1.9711841 13.57754 -1.2003324 0
1.9272444 13.59532 -1.2013261 0
1.8782454 13.577087 -1.1991519 0
1.8369192 13.614479 -1.2019037 0
1.7869114 13.58748 -1.1989845 0
1.7453583 13.624722 -1.2017478 0
1.6999751 13.632966 -1.2019653 0
1.651722 13.617691 -1.2001235 0
1.6063951 13.626036 -1.2003776 0
1.560447 13.62913 -1.2001826 0
1.5160193 13.645781 -1.2011944 0
1.4673407 13.623691 -1.1988101 0
1.4225605 13.637215 -1.1995738 0
1.3774363 13.647921 -1.2001024 0
1.3297331 13.632609 -1.1983573 0
1.2850171 13.647601 -1.1992897 0
1.2375959 13.633588 -1.1976869 0
1.1947799 13.670863 -1.2006028 0
1.1487457 13.672512 -1.2004026 0
1.0994909 13.634038 -1.1966944 0
1.0551827 13.655901 -1.1982961 0
1.0101131 13.669132 -1.1991532 0
0.96374428 13.664883 -1.1984901 0
0.91963273 13.693494 -1.2007223 0
0.87452281 13.709149 -1.2018312 0
0.82617098 13.672573 -1.1983751 0
0.78213668 13.707019 -1.2011577 0
0.73676467 13.720541 -1.2021194 0
0.68866509 13.681353 -1.1984769 0
0.64387429 13.706662 -1.2004981 0
0.59748471 13.698883 -1.1996347 0
0.55240834 13.722091 -1.201498 0
0.50567061 13.704164 -1.1997731 0
0.45990306 13.71123 -1.20025 0
0.41456014 13.733593 -1.2020792 0
0.36740136 13.693523 -1.1984575 0
0.32239768 13.73345 -1.2018504 0
0.27614853 13.72443 -1.2009733 0
0.2298249 13.70699 -1.199373 0
0.18397878 13.716043 -1.2001044 0
0.13786618 13.70423 -1.1990237 0
0.092039376 13.722754 -1.2006108 0
0.045978915 13.70804 -1.199303 0
1.8196541e-05 13.71466 -1.1998755 0
-0.046046786 13.739144 -1.2020243 0
-0.092065886 13.732141 -1.2014319 0
-0.13819326 13.740368 -1.2021854 0
-0.18420269 13.735453 -1.2018027 0
-0.23028561 13.736642 -1.2019675 0
-0.27582148 13.709985 -1.1997092 0
-0.32180402 13.709711 -1.1997728 0
-0.36738601 13.694306 -1.1985259 0
-0.41351303 13.700109 -1.1991483 0
-0.46072271 13.736754 -1.2024843 0
-0.5067057 13.733204 -1.2023153 0
-0.55157137 13.702206 -1.1997567 0
-0.59697676 13.68807 -1.1986876 0
-0.64378411 13.705518 -1.2003977 0
-0.68974924 13.703615 -1.2004269 0
-0.73503917 13.689087 -1.1993634 0
-0.78302592 13.723244 -1.2025793 0
-0.82634294 13.676021 -1.1986772 0
-0.87069017 13.649639 -1.196614 0
-0.9184351 13.676203 -1.199206 0
-0.96369618 13.664717 -1.1984754 0
-1.0102457 13.671419 -1.1993536 0
-1.0572131 13.68265 -1.2006431 0
-1.1022882 13.66918 -1.1997786 0
-1.1501749 13.689957 -1.201934 0
-1.1930639 13.651646 -1.1989148 0
-1.2406189 13.667294 -1.2006476 0
-1.2844036 13.641472 -1.1987509 0
-1.3301814 13.637579 -1.1987938 0
-1.3777602 13.651492 -1.2004162 0
-1.424305 13.65429 -1.2010753 0
-1.4705744 13.654054 -1.2014816 0
-1.5104376 13.595867 -1.1968004 0
-1.5627652 13.649699 -1.2019935 0
-1.6058077 13.621363 -1.1999656 0
-1.6492052 13.597243 -1.1983211 0
-1.6961272 13.602402 -1.1992701 0
-1.7432716 13.60872 -1.2003359 0
-1.7887324 13.601606 -1.2002306 0
-1.8321898 13.5797 -1.1988329 0
-1.878907 13.582135 -1.1995972 0
-1.9254825 13.58315 -1.2002504 0
-1.9716129 13.580748 -1.2006154 0
-2.0139616 13.552701 -1.1987262 0
-2.0639081 13.575592 -1.2013563 0
-2.1086049 13.563399 -1.2008961 0
-2.1477478 13.516474 -1.1973722 0
-2.2017281 13.56263 -1.2021081 0
-2.2433393 13.531953 -1.200049 0
-2.2919307 13.543466 -1.2017447 0
-2.3335791 13.514003 -1.1998179 0
-2.3804979 13.515311 -1.200636 0
-2.4242651 13.498714 -1.1998769 0
-2.4694684 13.490282 -1.1998566 0
-2.5135031 13.475592 -1.1992928 0
-2.5607605 13.478091 -1.2002727 0
-2.6079328 13.479752 -1.2011925 0
-2.6499252 13.454746 -1.1997492 0
-2.6948829 13.445093 -1.1996874 0
-2.7400577 13.436527 -1.199736 0
-2.7876701 13.439692 -1.2008464 0
-2.8269887 13.403121 -1.1984189 0
-2.8726423 13.396977 -1.198724 0
-2.9179971 13.389351 -1.1989104 0
-2.9677615 13.401569 -1.2008886 0
-3.0090265 13.375313 -1.1994332 0
-3.0565541 13.376964 -1.2004935 0
-3.0984962 13.35418 -1.1993743 0
-3.1472933 13.360869 -1.2009161 0
-3.190655 13.344315 -1.2003829 0
-3.2337084 13.326661 -1.1997634 0
-3.27509 13.302414 -1.1985624 0
-3.3229606 13.304525 -1.1997497 0
-3.36534 13.284588 -1.1989626 0
-3.4044123 13.252016 -1.1970463 0
-3.4542887 13.261505 -1.1989429 0
-3.5036538 13.268485 -1.2006292 0
-3.5464957 13.250592 -1.2000793 0
-3.5884006 13.229403 -1.1992433 0
-3.6328366 13.217663 -1.1992763 0
-3.6801834 13.216365 -1.2002715 0
-3.7303288 13.224706 -1.202158 0
-3.7787216 13.226384 -1.2034554 0
-3.8146102 13.184484 -1.2007999 0
-3.8490486 13.138355 -1.1977674 0
-3.9060507 13.169115 -1.2017589 0
-3.9404972 13.12369 -1.1988124 0
-3.9852176 13.112843 -1.1990354 0
-4.0432148 13.145101 -1.2032179 0
-4.0857201 13.126507 -1.202763 0
-4.1201034 13.082238 -1.1999658 0
-4.1691508 13.084697 -1.2014667 0
-4.2059703 13.048842 -1.1994627 0
-4.244379 13.018356 -1.1979616 0
-4.3044724 13.053998 -1.2025628 0
-4.3385038 13.010368 -1.1998768 0
-4.3907804 13.021489 -1.2022533 0
-4.4267774 12.984295 -1.2001828 0
-4.4571285 12.931205 -1.1966501 0
-4.5155373 12.959462 -1.2006594 0
-4.5552449 12.933695 -1.1996803 0
-4.6079092 12.944546 -1.202113 0
-4.6427345 12.905259 -1.1999035 0
-4.6909742 12.903365 -1.2011831 0
-4.728045 12.870782 -1.1996188 0
-4.7833982 12.887797 -1.2026929 0
-4.8118324 12.832355 -1.1990176 0
-4.8587384 12.826467 -1.199983 0
-4.9050417 12.818797 -1.2007972 0
-4.9443727 12.792911 -1.1999185 0
-4.9965849 12.800209 -1.2021676 0
-5.0295091 12.758108 -1.1997906 0
-5.0733156 12.743834 -1.2000412 0
-5.1217132 12.740928 -1.2013777 0
-5.1672597 12.730724 -1.2020425 0
-5.2095213 12.712369 -1.2019519 0
-5.2379551 12.660607 -1.1987115 0
-5.2752647 12.63074 -1.1975516 0
-5.3272896 12.636003 -1.1997373 0
-5.3700743 12.619125 -1.1998376 0
-5.4128184 12.602132 -1.1999407 0
-5.4587598 12.592493 -1.2007588 0
-5.4970765 12.565267 -1.1999134 0
-5.5298624 12.525673 -1.1978962 0
-5.5822191 12.530388 -1.2001303 0
-5.6265497 12.516829 -1.2006317 0
-5.6684484 12.497813 -1.200624 0
-5.7135711 12.485845 -1.2013078 0
-5.7556415 12.467137 -1.2013578 0
-5.7933183 12.438986 -1.20051 0
-5.8321023 12.413343 -1.1999156 0
-5.8710923 12.38824 -1.1993852 0
-5.9203148 12.384635 -1.2009512 0
-5.9653063 12.371978 -1.2016566 0
-5.9996696 12.33734 -1.2002394 0
-6.0443497 12.323984 -1.2009048 0
-6.0771766 12.286547 -1.1992356 0
-6.1390581 12.307644 -1.203297 0
-6.1614499 12.249537 -1.1996291 0
-6.2127485 12.249045 -1.201614 0
-6.2438169 12.208661 -1.1996993 0
-6.2750387 12.168893 -1.1978521 0
-6.3142467 12.144791 -1.1975569 0
-6.3637896 12.140453 -1.1992263 0
-6.4104505 12.130387 -1.2003483 0
-6.442091 12.091944 -1.1986748 0
-6.4866939 12.077906 -1.1994324 0
-6.5374188 12.075051 -1.2013189 0
-6.5641928 12.028008 -1.1988214 0
-6.6165028 12.027781 -1.2010032 0
-6.6465845 11.98712 -1.1991615 0
-6.6817279 11.955803 -1.198263 0
-6.7375216 11.961287 -1.20107 0
-6.7699261 11.925135 -1.1997123 0
-6.8219261 11.923439 -1.201836 0
-6.8541255 11.887077 -1.2004806 0
-6.8989625 11.87267 -1.2013549 0
-6.9235759 11.823592 -1.1987309 0
-6.9772305 11.824124 -1.2011499 0
-7.0274358 11.818492 -1.2029645 0
-7.0468631 11.761219 -1.1995331 0
-7.0951624 11.752278 -1.2010406 0
-7.1338902 11.727378 -1.2009336 0
-7.1717567 11.701089 -1.2006971 0
-7.1944551 11.65027 -1.1979508 0
-7.2430053 11.641399 -1.1995291 0
-7.2890105 11.62824 -1.2006844 0
-7.30232 11.56314 -1.1964839 0
-7.3454452 11.545503 -1.1972005 0
-7.3908138 11.531264 -1.1982869 0
-7.4473333 11.534141 -1.2011738 0
-7.4923954 11.518994 -1.2022059 0
-7.5137615 11.467539 -1.1994581 0
-7.5527468 11.44316 -1.19955 0
-7.5904121 11.416781 -1.199446 0
-7.627305 11.389262 -1.1992348 0
-7.6745391 11.377103 -1.200657 0
-7.7013178 11.334641 -1.1988943 0
-7.7254448 11.288545 -1.1967515 0
-7.7815442 11.28912 -1.1995716 0
-7.8187146 11.262051 -1.1994741 0
-7.867178 11.251143 -1.201115 0
-7.8919873 11.206429 -1.1991595 0
-7.9349546 11.187573 -1.199982 0
-7.9643903 11.149665 -1.1987734 0
-8.0174103 11.144698 -1.2011229 0
-8.0522509 11.114331 -1.200753 0
-8.0806246 11.075148 -1.19944 0
-8.1236629 11.056091 -1.2003192 0
-8.1588631 11.026329 -1.2000512 0
-8.203104 11.008731 -1.2011225 0
-8.230547 10.968611 -1.1997494 0
-8.2569141 10.927241 -1.1982455 0
-8.3048286 10.914377 -1.1998817 0
-8.3484049 10.895645 -1.2008927 0
-8.3799562 10.8612 -1.2001863 0
-8.4169159 10.833804 -1.2002705 0
-8.44561 10.79583 -1.199194 0
-8.4844389 10.770855 -1.1995728 0
-8.5244074 10.74727 -1.2001225 0
-8.5462437 10.700912 -1.1981388 0
-8.6069946 10.703187 -1.2016178 0
-8.6433907 10.67496 -1.2016957 0
-8.6798954 10.646855 -1.2018011 0
-8.7183771 10.621145 -1.2021918 0
-8.7431755 10.578832 -1.2007138 0
-8.7930403 10.566816 -1.2026894 0
-8.8025188 10.506361 -1.1991611 0
-8.8511448 10.492734 -1.200986 0
-8.8834362 10.459656 -1.2006023 0
-8.9277668 10.440701 -1.2018558 0
-8.9282045 10.370616 -1.1972271 0
-8.9859514 10.367188 -1.2003028 0
-9.0166626 10.33242 -1.1997709 0
-9.0538177 10.305049 -1.2001107 0
-9.0974817 10.284996 -1.2013209 0
-9.1167374 10.237393 -1.1993243 0
-9.1563845 10.212763 -1.2000285 0
-9.1922445 10.183856 -1.2002467 0
-9.235714 10.163298 -1.2014664 0
-9.2522507 10.11316 -1.1991999 0
-9.2919273 10.088404 -1.1999518 0
-9.32761 10.059252 -1.2001975 0
-9.3699703 10.037227 -1.2013111 0
-9.3994675 10.001389 -1.2007869 0
-9.4280968 9.9646912 -1.2001694 0
-9.4755535 9.9478273 -1.2019581 0
-9.4825687 9.8885918 -1.1986356 0
-9.5151415 9.8561954 -1.1985689 0
-9.5647058 9.8412886 -1.2006493 0
-9.5892353 9.8005657 -1.1995968 0
-9.6169748 9.7632179 -1.1989652 0
-9.6609573 9.7423162 -1.2003695 0
-9.6870041 9.7032957 -1.1995568 0
-9.7382689 9.6894541 -1.2018753 0
-9.7422552 9.6286354 -1.1983763 0
-9.8012247 9.6221695 -1.2016548 0
-9.8206892 9.576829 -1.2000977 0
-9.8514957 9.5426397 -1.1999458 0
-9.8772421 9.5035963 -1.1991938 0
-9.9118652 9.4731178 -1.1995345 0
-9.9377527 9.4343071 -1.1988326 0
-9.9747839 9.4060802 -1.1994888 0
-10.01596 9.3816643 -1.2006508 0
-10.051301 9.3516989 -1.201122 0
-10.074747 9.310689 -1.2001866 0
-10.113883 9.2841797 -1.2011338 0
-10.130637 9.2371626 -1.1994387 0
-10.168604 9.2095327 -1.2002712 0
-10.208285 9.1833591 -1.2013141 0
-10.223352 9.1350832 -1.199476 0
-10.254898 9.1016197 -1.19959 0
-10.282299 9.0644903 -1.1992334 0
-10.302494 9.0210876 -1.1980544 0
-10.358399 9.0088606 -1.2010363 0
-10.385376 8.9713421 -1.2006698 0
-10.414214 8.9354563 -1.2005334 0
-10.439965 8.8969536 -1.2000566 0
-10.474344 8.8658009 -1.2005847 0
-10.507611 8.8336592 -1.2009963 0
-10.542486 8.8028183 -1.2016021 0
-10.543862 8.7441359 -1.1984106 0
-10.582891 8.7167835 -1.1995182 0
-10.597272 8.6691561 -1.1978469 0
-10.665487 8.6654329 -1.2022667 0
-10.680525 8.6183634 -1.2006978 0
-10.690362 8.5672798 -1.1985677 0
-10.746961 8.5536222 -1.2016913 0
-10.752917 8.499629 -1.199164 0
-10.776505 8.4597216 -1.1986247 0
-10.812467 8.429513 -1.1994742 0
-10.860809 8.4088068 -1.2017027 0
-10.887748 8.3714275 -1.201571 0
-10.889419 8.3147678 -1.1986721 0
-10.929884 8.2878017 -1.2000608 0
-10.970172 8.2605686 -1.2014366 0
-11.011746 8.2341642 -1.2029594 0
-11.015031 8.179183 -1.2003157 0
-11.022883 8.127821 -1.1981951 0
-11.051811 8.0920906 -1.1983837 0
-11.093201 8.065402 -1.1999327 0
-11.126712 8.0328789 -1.2006375 0
-11.156136 7.9973583 -1.2009122 0
-11.15387 7.9392548 -1.1977962 0
-11.191216 7.9094405 -1.1989523 0
-11.226269 7.8779058 -1.1998711 0
-11.25257 7.8401885 -1.1998659 0
-11.26997 7.7963128 -1.1989273 0
-11.316606 7.7726035 -1.2011093 0
-11.331883 7.7273083 -1.1999743 0
-11.346766 7.681849 -1.1988161 0
-11.396745 7.6600866 -1.2013763 0
-11.414735 7.6167426 -1.2005739 0
-11.430317 7.571876 -1.199536 0
-11.449131 7.5292292 -1.1988543 0
-11.521264 7.5214524 -1.2037601 0
-11.498522 7.4517422 -1.1987668 0
-11.523563 7.4132266 -1.1987796 0
-11.545602 7.3727918 -1.1984938 0
-11.588126 7.3453665 -1.2003448 0
-11.613544 7.3070107 -1.2004333 0
-11.647358 7.27389 -1.2014009 0
-11.667277 7.2320681 -1.2009475 0
-11.669555 7.1794329 -1.1986974 0
-11.708545 7.1494164 -1.2002336 0
-11.738737 7.1139297 -1.2008767 0
-11.765005 7.076025 -1.2011302 0
-11.787842 7.0360489 -1.2010465 0
-11.805093 6.9927711 -1.2004086 0
-11.840513 6.9602299 -1.2016306 0
-11.835712 6.9041176 -1.1987875 0
-11.885283 6.8797283 -1.2014651 0
-11.892756 6.8309221 -1.1998986 0
-11.903352 6.7840343 -1.1986661 0
-11.932738 6.7478795 -1.1993402 0
-11.971528 6.7169414 -1.2009687 0
-11.99043 6.674788 -1.200613 0
-12.008386 6.632143 -1.2001777 0
-12.027682 6.5902705 -1.1998912 0
-12.06364 6.557478 -1.2012782 0
-12.071509 6.5094185 -1.1998818 0
-12.112607 6.4792542 -1.2018008 0
-12.094496 6.4175053 -1.1978621 0
-12.1399 6.3895278 -1.2002306 0
-12.150938 6.3434029 -1.1992123 0
-12.183334 6.3084249 -1.2003155 0
-12.210982 6.2709126 -1.2009611 0
-12.218278 6.2229781 -1.1996199 0
-12.251724 6.1883674 -1.2008598 0
-12.289854 6.1559958 -1.2025673 0
-12.265659 6.0925202 -1.1981944 0
-12.301578 6.0590258 -1.1997119 0
-12.319268 6.0164986 -1.199463 0
-12.353323 5.9819169 -1.2008193 0
-12.387307 5.947185 -1.2021778 0
-12.366515 5.8862643 -1.1982378 0
-12.394791 5.8488317 -1.1990707 0
-12.414159 5.8071609 -1.1990541 0
-12.440166 5.7685699 -1.1996913 0
-12.451549 5.7232018 -1.1989316 0
-12.467243 5.679862 -1.1986024 0
-12.507073 5.6474471 -1.2006046 0
-12.528708 5.6067209 -1.20087 0
-12.527537 5.5558586 -1.1989657 0
-12.550809 5.5158968 -1.1994162 0
-12.580889 5.4788613 -1.2005285 0
-12.560598 5.4199977 -1.1968515 0
-12.615872 5.3937469 -1.2003884 0
-12.616712 5.3441429 -1.1987566 0
-12.645803 5.30653 -1.1998235 0
-12.656844 5.2613249 -1.1991906 0
-12.685643 5.2234831 -1.2002531 0
-12.696167 5.1780996 -1.1995995 0
-12.711888 5.1348691 -1.1994514 0
-12.747216 5.099494 -1.2011648 0
-12.722224 5.0400801 -1.1972108 0
-12.751781 5.0023904 -1.1984072 0
-12.793068 4.9691582 -1.2007148 0
-12.799162 4.9222012 -1.199731 0
-12.836688 4.8872919 -1.2017058 0
-12.851562 4.8436828 -1.2015712 0
-12.842138 4.7910194 -1.1991816 0
-12.880613 4.756237 -1.2012784 0
-12.886442 4.709353 -1.2003427 0
-12.911534 4.6695113 -1.2012149 0
-12.888369 4.6123281 -1.1976142 0
-12.942185 4.582696 -1.2011805 0
-12.930503 4.5298276 -1.1986798 0
-12.953524 4.4891882 -1.199412 0
-12.995456 4.4549723 -1.2019048 0
-12.993626 4.4057155 -1.2003626 0
-13.025402 4.3678522 -1.2019384 0
-13.007925 4.3135285 -1.1989844 0
-13.043173 4.2767305 -1.2009048 0
-13.060941 4.2341108 -1.2012271 0
-13.034441 4.1772771 -1.197495 0
-13.092075 4.1473961 -1.2015057 0
-13.103978 4.1028733 -1.2013288 0
-13.102176 4.0541239 -1.1999106 0
-13.104648 4.006794 -1.1989 0
-13.125987 3.9652445 -1.1996292 0
-13.134726 3.9198759 -1.1992199 0
-13.146063 3.8753049 -1.1990621 0
-13.170244 3.8344858 -1.2000883 0
-13.187564 3.7916114 -1.2005013 0
-13.208968 3.7498634 -1.2012985 0
-13.192408 3.6974108 -1.1986582 0
-13.241305 3.6632769 -1.2019783 0
-13.236429 3.6141963 -1.200429 0
-13.268048 3.5750713 -1.2022027 0
-13.253361 3.5234942 -1.1997948 0
-13.267217 3.4795938 -1.1999862 0
-13.271718 3.4332573 -1.1993455 0
-13.321382 3.3984928 -1.2027971 0
-13.294664 3.3442414 -1.1993655 0
-13.314153 3.301719 -1.2001182 0
-13.334927 3.2594509 -1.2009989 0
-13.347658 3.2151754 -1.2011679 0
-13.335456 3.1649685 -1.1991082 0
-13.356479 3.1226912 -1.2000504 0
-13.363205 3.0770471 -1.199721 0
-13.381716 3.0341005 -1.2004628 0
-13.374302 2.9853082 -1.1988931 0
-13.375701 2.9385748 -1.1981286 0
-13.386376 2.8939064 -1.1982089 0
-13.404424 2.8507988 -1.1989621 0
-13.424822 2.8081234 -1.1999377 0
-13.446446 2.7656236 -1.201035 0
-13.443332 2.7180352 -1.199936 0
-13.445931 2.6716678 -1.1993618 0
-13.467523 2.6290522 -1.2004946 0
-13.472757 2.5832114 -1.2001826 0
-13.469752 2.5358434 -1.1991507 0
-13.496525 2.4940577 -1.2007829 0
-13.499599 2.4478471 -1.2003194 0
-13.510916 2.4031386 -1.2006025 0
-13.490892 2.3529413 -1.1981155 0
-13.521384 2.3115728 -1.2001284 0
-13.513724 2.2636564 -1.1987681 0
-13.518124 2.2178237 -1.1984921 0
-13.548856 2.1762416 -1.200563 0
-13.544676 2.1290107 -1.1995534 0
-13.53643 2.0812325 -1.1981984 0
-13.554334 2.0374894 -1.1991718 0
-13.550992 1.9905497 -1.1982789 0
-13.570677 1.9469821 -1.1994356 0
-13.570542 1.9005489 -1.1988537 0
-13.60864 1.8593838 -1.2016618 0
-13.599759 1.8117428 -1.2003345 0
-13.600076 1.7653978 -1.1998334 0
-13.635556 1.7235355 -1.2024469 0
-13.597063 1.6723727 -1.1985513 0
-13.603876 1.6269282 -1.1986643 0
-13.61789 1.5823113 -1.1994249 0
-13.63796 1.5383183 -1.2007315 0
-13.620862 1.4901576 -1.1987796 0
-13.674899 1.4496881 -1.2031008 0
-13.624659 1.3981838 -1.1982616 0
-13.657203 1.355267 -1.2007173 0
-13.659142 1.3092271 -1.2004952 0
-13.632669 1.2605766 -1.1977904 0
-13.670753 1.2178848 -1.200771 0
-13.670493 1.1716768 -1.2003963 0
-13.665502 1.1251075 -1.19962 0
-13.656916 1.0783137 -1.1985422 0
-13.673852 1.0335312 -1.1997176 0
-13.690543 0.98864019 -1.2008846 0
-13.681765 0.94190556 -1.1998308 0
-13.700813 0.89707339 -1.2012308 0
-13.690734 0.85032403 -1.2000903 0
-13.712983 0.80556089 -1.2017971 0
-13.701801 0.75881475 -1.2005874 0
-13.710723 0.71320671 -1.2011528 0
-13.706058 0.6668936 -1.2005415 0
-13.698456 0.62049389 -1.1996866 0
-13.705009 0.57475287 -1.200085 0
-13.713092 0.5290398 -1.2006308 0
-13.701425 0.48258874 -1.1994609 0
-13.734094 0.43763962 -1.2021856 0
-13.722759 0.39122656 -1.2010719 0
-13.716192 0.3450183 -1.2003891 0
-13.717918 0.29904264 -1.2004457 0
-13.721961 0.25310487 -1.2007184 0
-13.730874 0.20721918 -1.2014308 0
-13.691956 0.16071691 -1.1979716 0
-13.704709 0.11491252 -1.199047 0
-13.725332 0.069064803 -1.2008244 0
-13.725316 0.023045683 -1.2008095 0
-13.735923 3.6449503e-05 -1.2017357 0
-22.891935 -0.038437024 -1.1997155 0
-22.892351 -0.11519253 -1.1997507 0
-22.91246 -0.19211854 -1.2008315 0
-22.881306 -0.26858199 -1.1992393 0
-22.882462 -0.34533018 -1.1993538 0
-22.909082 -0.42256352 -1.2008165 0
-22.907263 -0.49936503 -1.2008022 0
-22.897846 -0.5759744 -1.2004031 0
-22.863798 -0.65183139 -1.1987259 0
-22.877459 -0.72899479 -1.1995636 0
-22.870256 -0.80553138 -1.1993208 0
-22.903536 -0.88359958 -1.2012146 0
-22.878672 -0.95947278 -1.2000725 0
-22.893192 -1.0369844 -1.2010098 0
-22.861666 -1.1123766 -1.1995448 0
-22.870428 -1.1896778 -1.2002071 0
-22.861612 -1.2660911 -1.1999605 0
-22.862345 -1.3430346 -1.2002286 0
-22.875723 -1.4207988 -1.2011741 0
-22.855898 -1.496511 -1.2003899 0
-22.834574 -1.5720203 -1.19954 0
-22.840345 -1.6493782 -1.200127 0
-22.84663 -1.726851 -1.2007548 0
-22.822533 -1.8020064 -1.1997991 0
-22.834566 -1.8800147 -1.2007563 0
-22.837416 -1.9573596 -1.2012445 0
-22.79314 -2.0305698 -1.199267 0
-22.798685 -2.1081336 -1.1999238 0
-22.820427 -2.187335 -1.2014474 0
-22.788675 -2.261425 -1.2001681 0
-22.756563 -2.3353143 -1.1988826 0
-22.815582 -2.4186997 -1.2024124 0
-22.751781 -2.489104 -1.199483 0
-22.779425 -2.5694463 -1.2013879 0
-22.763212 -2.6449389 -1.2009938 0
-22.736914 -2.7191756 -1.2000805 0
-22.744358 -2.7974455 -1.2009617 0
-22.711782 -2.8707714 -1.1997432 0
-22.704103 -2.9471729 -1.1998527 0
-22.70587 -3.0248475 -1.2004753 0
-22.677544 -3.0984919 -1.1995202 0
-22.658546 -3.1733203 -1.1990714 0
-22.667999 -3.2521729 -1.2001418 0
-22.666149 -3.3295052 -1.2006283 0
-22.661329 -3.4064541 -1.2009711 0
-22.623062 -3.4783063 -1.1995544 0
-22.627943 -3.5567579 -1.2004387 0
-22.590414 -3.6285129 -1.1990865 0
-22.589735 -3.7061393 -1.1997033 0
-22.589003 -3.7838378 -1.2003314 0
-22.559614 -3.8567195 -1.1994501 0
-22.569368 -3.9363143 -1.2006637 0
-22.531525 -4.0076022 -1.1993586 0
-22.53805 -4.0867662 -1.2004286 0
-22.552008 -4.1674438 -1.2019094 0
-22.518559 -4.2393899 -1.2008774 0
-22.470732 -4.3084464 -1.1990906 0
-22.456095 -4.3837495 -1.1990871 0
-22.468616 -4.4644494 -1.2005482 0
-22.459036 -4.5408721 -1.2008431 0
-22.417685 -4.6107998 -1.1994519 0
-22.410818 -4.6877599 -1.1999187 0
-22.421579 -4.7685313 -1.2013443 0
-22.355453 -4.8328681 -1.1986628 0
-22.361742 -4.9127631 -1.1998763 0
-22.332645 -4.9849205 -1.1992052 0
-22.357092 -5.0691304 -1.2014238 0
-22.295412 -5.1338005 -1.1990274 0
-22.298185 -5.2132263 -1.2001098 0
-22.270819 -5.2856417 -1.199584 0
-22.281733 -5.3672099 -1.2011344 0
-22.237572 -5.4355206 -1.1997294 0
-22.206369 -5.5068612 -1.1990355 0
-22.216806 -5.5885854 -1.2006041 0
-22.167583 -5.6552973 -1.198962 0
-22.138048 -5.7268858 -1.1983962 0
-22.139753 -5.8065944 -1.1995357 0
-22.155018 -5.890059 -1.2014259 0
-22.093369 -5.9530511 -1.1991585 0
-22.103138 -6.035244 -1.2007803 0
-22.088102 -6.1107903 -1.2010698 0
-22.043549 -6.178103 -1.1997668 0
-22.034988 -6.2554617 -1.2004355 0
-22.014111 -6.3293691 -1.2004476 0
-21.963188 -6.3945308 -1.198833 0
-21.94895 -6.4702926 -1.1992333 0
-21.928774 -6.5443373 -1.1993231 0
-21.920742 -6.6220627 -1.2000914 0
-21.906118 -6.697876 -1.2005134 0
-21.869709 -6.7670069 -1.1997548 0
-21.861889 -6.8449874 -1.2005781 0
-21.825506 -6.914031 -1.1998463 0
-21.812347 -6.9904203 -1.2004046 0
-21.796429 -7.0659909 -1.2008256 0
-21.770102 -7.1382065 -1.2006869 0
-21.726696 -7.204741 -1.1996186 0
-21.705591 -7.2786102 -1.1997941 0
-21.692554 -7.3552394 -1.2004298 0
-21.663548 -7.4264812 -1.2001958 0
-21.629719 -7.4960203 -1.1997073 0
-21.59988 -7.5668926 -1.1994526 0
-21.542439 -7.6279578 -1.1976764 0
-21.561216 -7.7160587 -1.2001519 0
-21.552565 -7.7945762 -1.2011182 0
-21.515173 -7.8627243 -1.2004968 0
-21.492916 -7.9363775 -1.2007331 0
-21.433182 -7.9960818 -1.1988869 0
-21.431547 -8.0774317 -1.2003036 0
-21.402781 -8.1486464 -1.2002158 0
-21.367134 -8.217205 -1.1997552 0
-21.364939 -8.2986937 -1.2011875 0
-21.3174 -8.3625927 -1.2000843 0
-21.303057 -8.4394922 -1.2008631 0
-21.298931 -8.520587 -1.2022341 0
-21.237082 -8.5785551 -1.2003598 0
-21.215761 -8.6527948 -1.2007877 0
-21.154041 -8.7104597 -1.1989406 0
-21.151836 -8.7926083 -1.2004797 0
-21.11101 -8.8587656 -1.1998416 0
-21.105686 -8.9398737 -1.2012359 0
-21.058632 -9.003335 -1.2002691 0
-21.044363 -9.0808096 -1.2011844 0
-20.989964 -9.1409359 -1.1998219 0
-20.96291 -9.2128916 -1.2000344 0
-20.932589 -9.2834291 -1.2000738 0
-20.905277 -9.355319 -1.2002995 0
-20.86084 -9.4195089 -1.1995547 0
-20.837776 -9.4933329 -1.200052 0
-20.793436 -9.5574474 -1.1993371 0
-20.749239 -9.6215296 -1.1986419 0
-20.749508 -9.706315 -1.2005306 0
-20.692631 -9.7644014 -1.1991272 0
-20.692123 -9.8491211 -1.2010047 0
-20.647009 -9.912694 -1.2003086 0
-20.619335 -9.9846125 -1.2006391 0
-20.555498 -10.038918 -1.1988752 0
-20.537855 -10.115726 -1.1998175 0
-20.502962 -10.184101 -1.1997671 0
-20.455206 -10.246026 -1.1989762 0
-20.452147 -10.330416 -1.2008202 0
-20.4165 -10.398474 -1.2007676 0
-20.379078 -10.465612 -1.2006235 0
-20.323803 -10.523488 -1.199439 0
-20.283504 -10.589013 -1.1991494 0
-20.240501 -10.653073 -1.1987119 0
-20.222834 -10.730514 -1.1997895 0
-20.175467 -10.792224 -1.1991193 0
-20.159166 -10.870592 -1.20031 0
-20.104002 -10.928008 -1.1992003 0
-20.099243 -11.012882 -1.2011123 0
-20.038864 -11.067317 -1.1997148 0
-19.997677 -11.132233 -1.1994767 0
-19.956593 -11.197172 -1.1992576 0
-19.925386 -11.267665 -1.1996456 0
-19.89138 -11.336622 -1.1998801 0
-19.843597 -11.397701 -1.1992961 0
-19.815414 -11.47004 -1.1999104 0
-19.786001 -11.541754 -1.2004658 0
-19.747101 -11.607973 -1.2004602 0
-19.693295 -11.665363 -1.1995602 0
-19.654436 -11.731544 -1.1995823 0
-19.617662 -11.798981 -1.1997457 0
-19.576263 -11.863641 -1.1996397 0
-19.536327 -11.92918 -1.1996367 0
-19.492977 -11.99262 -1.1994371 0
-19.463717 -12.064762 -1.2001189 0
-19.427341 -12.132565 -1.2003775 0
-19.381735 -12.194602 -1.2000791 0
-19.349464 -12.265047 -1.2006205 0
-19.298367 -12.323553 -1.200007 0
-19.232901 -12.372723 -1.198509 0
-19.196911 -12.440767 -1.1988587 0
-19.19136 -12.528738 -1.2011287 0
-19.119793 -12.573645 -1.1992813 0
-19.101225 -12.653376 -1.2007709 0
-19.051361 -12.712455 -1.200309 0
-18.991598 -12.764812 -1.1992334 0
-18.946131 -12.826679 -1.1990712 0
-18.904011 -12.890806 -1.1991341 0
-18.868269 -12.959326 -1.1996164 0
-18.832478 -13.027886 -1.2001113 0
-18.765619 -13.074878 -1.1986374 0
-18.736925 -13.148423 -1.1996138 0
-18.705864 -13.220449 -1.2004563 0
-18.651268 -13.275856 -1.1998023 0
-18.60272 -13.335498 -1.1995488 0
-18.585403 -13.417647 -1.2013264 0
-18.514633 -13.461216 -1.1996626 0
-18.450785 -13.509589 -1.1984537 0
-18.3944 -13.563273 -1.1977383 0
-18.390791 -13.656035 -1.2004778 0
-18.336912 -13.711645 -1.199955 0
-18.305853 -13.784355 -1.2009401 0
-18.236675 -13.828321 -1.1994368 0
-18.188429 -13.888028 -1.1993194 0
-18.148476 -13.954094 -1.1997632 0
-18.11655 -14.026448 -1.2007548 0
-18.075853 -14.092125 -1.2011822 0
-18.027185 -14.151616 -1.2010945 0
-17.957216 -14.194257 -1.1995968 0
-17.906256 -14.251782 -1.1993778 0
-17.871067 -14.321913 -1.2002305 0
-17.827036 -14.38505 -1.2005059 0
-17.766697 -14.434982 -1.1996949 0
-17.71026 -14.487975 -1.1991574 0
-17.694914 -14.574725 -1.2014202 0
-17.611536 -14.605432 -1.1990772 0
-17.571623 -14.672042 -1.1997023 0
-17.538721 -14.744653 -1.2008245 0
-17.487036 -14.801554 -1.2006768 0
-17.427439 -14.851688 -1.1999971 0
-17.386806 -14.917982 -1.2006366 0
-17.33919 -14.978351 -1.2008096 0
-17.27549 -15.024762 -1.19988 0
-17.226593 -15.083979 -1.1999898 0
-17.159332 -15.127027 -1.1988307 0
-17.128019 -15.201782 -1.2001973 0
-17.083435 -15.264914 -1.2006527 0
-17.042122 -15.331068 -1.2013551 0
-16.959927 -15.36032 -1.1991847 0
-16.91268 -15.421061 -1.1994929 0
-16.856949 -15.474071 -1.1992133 0
-16.830482 -15.554077 -1.2010336 0
-16.775696 -15.608053 -1.2008517 0
-16.708075 -15.649979 -1.1997606 0
-16.635399 -15.686946 -1.1983119 0
-16.605625 -15.764386 -1.1999677 0
-16.562628 -15.829485 -1.2006892 0
-16.496187 -15.872154 -1.1997237 0
-16.440323 -15.924899 -1.1995373 0
-16.413519 -16.005949 -1.2014904 0
-16.322653 -16.02446 -1.198765 0
-16.269855 -16.080107 -1.1988404 0
-16.215904 -16.134619 -1.1988443 0
-16.181585 -16.208799 -1.2003181 0
-16.121117 -16.256878 -1.1998692 0
-16.056021 -16.30018 -1.1990851 0
-16.017401 -16.370399 -1.2002933 0
-15.943849 -16.404898 -1.1988964 0
-15.899478 -16.469366 -1.1997054 0
-15.837131 -16.515242 -1.1991724 0
-15.799283 -16.58674 -1.2005109 0
-15.747355 -16.643606 -1.2007985 0
-15.707928 -16.713829 -1.2020584 0
-15.633712 -16.747023 -1.2006692 0
-15.556699 -16.776941 -1.1990678 0
-15.509828 -16.839283 -1.1998001 0
-15.453941 -16.891911 -1.1998514 0
-15.425385 -16.974625 -1.2020463 0
-15.334592 -16.98881 -1.199403 0
-15.280376 -17.043285 -1.1996253 0
-15.219046 -17.089815 -1.1993021 0
-15.153471 -17.131485 -1.1986542 0
-15.094147 -17.180147 -1.1985112 0
-15.05543 -17.252398 -1.2000233 0
-15.00458 -17.310944 -1.2005897 0
-14.927032 -17.338593 -1.1990294 0
-14.883872 -17.406151 -1.2002436 0
-14.830392 -17.461802 -1.2006454 0
-14.768939 -17.50808 -1.200416 0
-14.700723 -17.54624 -1.1996462 0
-14.64382 -17.597845 -1.199811 0
-14.586185 -17.648598 -1.1999301 0
-14.548023 -17.723099 -1.2016724 0
-14.46632 -17.744547 -1.1998312 0
-14.416602 -17.805124 -1.2006521 0
-14.335712 -17.827108 -1.1988866 0
-14.280613 -17.881023 -1.1992857 0
-14.224155 -17.93331 -1.1995872 0
-14.167542 -17.98546 -1.1998914 0
-14.095886 -18.018448 -1.1989325 0
-14.049412 -18.083651 -1.20013 0
-13.960244 -18.093771 -1.1976885 0
-13.918423 -18.165171 -1.1993189 0
-13.853543 -18.206612 -1.1989816 0
-13.80821 -18.273853 -1.2003541 0
-13.748016 -18.321583 -1.2004548 0
-13.680147 -18.359034 -1.1998967 0
-13.631962 -18.42297 -1.2010814 0
-13.550668 -18.442102 -1.19936 0
-13.502892 -18.506804 -1.2006167 0
-13.440256 -18.551268 -1.2005711 0
-13.3723 -18.588327 -1.2000612 0
-13.314235 -18.639124 -1.2004519 0
-13.249185 -18.680161 -1.200227 0
-13.185744 -18.723433 -1.2001601 0
-13.115195 -18.756527 -1.1994561 0
-13.057977 -18.808666 -1.1999837 0
-12.979898 -18.830664 -1.198604 0
-12.919538 -18.878237 -1.1988682 0
-12.881243 -18.958349 -1.2012063 0
-12.81051 -18.990911 -1.2005413 0
-12.738243 -19.02103 -1.1997386 0
-12.681149 -19.073788 -1.2003777 0
-12.615237 -19.113335 -1.2001978 0
-12.550823 -19.155127 -1.200173 0
-12.468338 -19.169132 -1.1984246 0
-12.405232 -19.212742 -1.1985439 0
-12.350089 -19.268803 -1.1994512 0
-12.285262 -19.309862 -1.1994363 0
-12.220016 -19.350256 -1.1993936 0
-12.156106 -19.392771 -1.199496 0
-12.094952 -19.439743 -1.1998863 0
-12.029237 -19.479425 -1.1998395 0
-11.953714 -19.503098 -1.1988221 0
-11.896033 -19.555851 -1.1996063 0
-11.82377 -19.584644 -1.1989341 0
-11.769763 -19.643744 -1.2001295 0
-11.715575 -19.702839 -1.2013333 0
-11.636208 -19.719566 -1.1999677 0
-11.577214 -19.770746 -1.2007133 0
-11.503618 -19.796986 -1.1999576 0
-11.442147 -19.844061 -1.200479 0
-11.365475 -19.864704 -1.1994158 0
-11.298343 -19.90188 -1.1993665 0
-11.227406 -19.932287 -1.1989236 0
-11.171464 -19.989412 -1.2001001 0
-11.106949 -20.031387 -1.2003776 0
-11.043283 -20.074982 -1.2007644 0
-10.977671 -20.115116 -1.2009567 0
-10.903474 -20.139448 -1.20022 0
-10.837106 -20.178158 -1.2003548 0
-10.762959 -20.202305 -1.1996379 0
-10.716262 -20.2782 -1.2020043 0
-10.623878 -20.267591 -1.1992573 0
-10.561879 -20.314667 -1.1999407 0
-10.490221 -20.343203 -1.1995419 0
-10.418489 -20.371481 -1.1991429 0
-10.358033 -20.421883 -1.2000587 0
-10.284918 -20.447378 -1.1995238 0
-10.229088 -20.507376 -1.2010248 0
-10.153936 -20.528746 -1.2002758 0
-10.078102 -20.548508 -1.1994488 0
-10.007874 -20.579559 -1.1992959 0
-9.9418755 -20.619337 -1.1996647 0
-9.8857355 -20.679852 -1.2012504 0
-9.803731 -20.686266 -1.1997069 0
-9.7345676 -20.719549 -1.1997375 0
-9.6708279 -20.76449 -1.2004555 0
-9.5999556 -20.794199 -1.2003056 0
-9.5221395 -20.808695 -1.1992927 0
-9.4615145 -20.860779 -1.2004595 0
-9.3871422 -20.882647 -1.1998999 0
-9.318697 -20.917646 -1.200109 0
-9.2560492 -20.965845 -1.201087 0
-9.1663971 -20.952633 -1.1985627 0
-9.1107006 -21.016939 -1.2004871 0
-9.0316935 -21.027601 -1.1993598 0
-8.9724522 -21.084345 -1.2008736 0
-8.8976393 -21.104654 -1.2003244 0
-8.8267107 -21.134085 -1.2003084 0
-8.7401323 -21.125683 -1.1981602 0
-8.6840792 -21.19105 -1.2002094 0
-8.6209764 -21.239744 -1.2013235 0
-8.5441475 -21.254681 -1.2005413 0
-8.4710808 -21.278797 -1.2002925 0
-8.3906679 -21.284193 -1.1990032 0
-8.3275309 -21.333397 -1.2001954 0
-8.255641 -21.36038 -1.2001494 0
-8.1827574 -21.384754 -1.1999706 0
-8.1134205 -21.418425 -1.2003268 0
-8.0364189 -21.431789 -1.1995591 0
-7.9567175 -21.437599 -1.1983843 0
-7.8892293 -21.476221 -1.1990581 0
-7.8293147 -21.535933 -1.2009194 0
-7.7543678 -21.554565 -1.2005019 0
-7.6783242 -21.569962 -1.1999187 0
-7.6108294 -21.609407 -1.2006868 0
-7.5387363 -21.635956 -1.2007508 0
-7.4681067 -21.66678 -1.2010652 0
-7.390799 -21.678143 -1.2003146 0
-7.3295364 -21.736792 -1.2021946 0
-7.2414989 -21.715912 -1.1996901 0
-7.1744757 -21.757738 -1.2006652 0
-7.0998783 -21.776743 -1.2003936 0
-7.0214138 -21.783634 -1.1994691 0
-6.9522595 -21.819361 -1.2001461 0
-6.8767533 -21.835211 -1.1997429 0
-6.8080673 -21.872801 -1.2005473 0
-6.7376118 -21.904993 -1.2010676 0
-6.6597767 -21.913134 -1.2002829 0
-6.5790119 -21.911171 -1.1989604 0
-6.5156708 -21.96736 -1.2008328 0
-6.4425535 -21.991034 -1.2009394 0
-6.3616776 -21.987944 -1.1995991 0
-6.2860179 -22.002489 -1.1992362 0
-6.2158351 -22.036285 -1.1999354 0
-6.1385965 -22.045078 -1.1992869 0
-6.0688996 -22.081001 -1.2001274 0
-5.9908543 -22.086561 -1.199331 0
-5.9267349 -22.143759 -1.2013513 0
-5.8445373 -22.133511 -1.1997254 0
-5.7734098 -22.16494 -1.2003729 0
-5.6996183 -22.186337 -1.2004901 0
-5.6240878 -22.200932 -1.2002528 0
-5.554462 -22.239048 -1.2012999 0
-5.470695 -22.220291 -1.1992891 0
-5.4014115 -22.260136 -1.2004554 0
-5.3279371 -22.283096 -1.2007235 0
-5.2494054 -22.28474 -1.199857 0
-5.1701207 -22.282656 -1.1988047 0
-5.0993519 -22.31724 -1.1997387 0
-5.0233507 -22.329113 -1.1994648 0
-4.949101 -22.348736 -1.1996208 0
-4.8770337 -22.378471 -1.2003325 0
-4.7953558 -22.363825 -1.1986778 0
-4.7264457 -22.408693 -1.2002265 0
-4.6499181 -22.417814 -1.1998732 0
-4.5744305 -22.431812 -1.1997949 0
-4.5015011 -22.458529 -1.2004098 0
-4.4216418 -22.45047 -1.19918 0
-4.3500233 -22.48418 -1.2001948 0
-4.2707248 -22.478172 -1.199103 0
-4.1947236 -22.489082 -1.198928 0
-4.1188755 -22.500711 -1.198805 0
-4.0452557 -22.524662 -1.1993518 0
-3.9678237 -22.527378 -1.1987813 0
-3.8984022 -22.576059 -1.2006694 0
-3.8214395 -22.581631 -1.2002776 0
-3.7432911 -22.579748 -1.1995038 0
-3.6698253 -22.606098 -1.2002431 0
-3.5977507 -22.641813 -1.2014922 0
-3.5186362 -22.633289 -1.200407 0
-3.4423585 -22.642508 -1.2002771 0
-3.3640442 -22.637915 -1.1994289 0
-3.2908609 -22.667913 -1.2004271 0
-3.2099063 -22.644009 -1.1985844 0
-3.1383851 -22.686577 -1.200274 0
-3.0610123 -22.687401 -1.1997678 0
-2.9872806 -22.715424 -1.2007133 0
-2.9073162 -22.695747 -1.1991513 0
-2.8319364 -22.711231 -1.1994609 0
-2.7569056 -22.729927 -1.1999534 0
-2.6816783 -22.747503 -1.2003999 0
-2.6041024 -22.745075 -1.1998042 0
-2.5286324 -22.76092 -1.2001861 0
-2.4539309 -22.784367 -1.2009819 0
-2.3750458 -22.768694 -1.1997293 0
-2.2992868 -22.78241 -1.200039 0
-2.2208772 -22.769365 -1.198953 0
-2.1460552 -22.792955 -1.1998096 0
-2.0703259 -22.807768 -1.2002171 0
-1.9951258 -22.829248 -1.2009887 0
-1.9201589 -22.854691 -1.2019818 0
-1.8401784 -22.819555 -1.1998026 0
-1.7643317 -22.834311 -1.2002606 0
-1.6851561 -22.804825 -1.1984071 0
-1.6121224 -22.859068 -1.2009667 0
-1.5341132 -22.844122 -1.1999046 0
-1.458011 -22.856953 -1.200315 0
-1.3820529 -22.873051 -1.2009102 0
-1.3043102 -22.859226 -1.199948 0
-1.2264549 -22.841024 -1.1987699 0
-1.1522795 -22.89295 -1.2012857 0
-1.0747303 -22.87993 -1.2004067 0
-0.99811763 -22.885824 -1.2005336 0
-0.92070776 -22.872339 -1.1996574 0
-0.84451491 -22.888819 -1.2003666 0
-0.76789421 -22.895277 -1.2005634 0
-0.68948221 -22.84325 -1.1977074 0
-0.61444384 -22.903381 -1.2007455 0
-0.53710347 -22.882044 -1.1995256 0
-0.46099311 -22.914127 -1.2011198 0
-0.3836934 -22.887486 -1.1996491 0
-0.3072319 -22.90938 -1.2007359 0
-0.23053059 -22.921343 -1.2013156 0
-0.15349382 -22.894461 -1.1998731 0
-0.076754354 -22.90147 -1.2002201 0
3.037124e-05 -22.890682 -1.199648 0
0.076729342 -22.875896 -1.19888 0
0.15360989 -22.902706 -1.2003052 0
0.23037991 -22.900318 -1.2002138 0
0.30691889 -22.881512 -1.1992753 0
0.38378501 -22.889326 -1.1997457 0
0.46090394 -22.906672 -1.200729 0
0.53756952 -22.899309 -1.2004309 0
0.61387312 -22.879845 -1.1995115 0
0.69108635 -22.894384 -1.2003886 0
0.76725668 -22.874456 -1.1994718 0
0.84482169 -22.895485 -1.2007164 0
0.92038149 -22.862722 -1.1991533 0
0.99636304 -22.8442 -1.1983502 0
1.0738809 -22.860554 -1.1993903 0
1.1503201 -22.852814 -1.1991798 0
1.228707 -22.881832 -1.2009119 0
1.304129 -22.854984 -1.1997255 0
1.3810095 -22.854776 -1.1999509 0
1.4563401 -22.829805 -1.1988895 0
1.5360407 -22.871918 -1.2013646 0
1.6107855 -22.839247 -1.1999257 0
1.6879174 -22.841368 -1.2003275 0
1.7630091 -22.816406 -1.1993197 0
1.8412126 -22.831625 -1.2004374 0
1.9173315 -22.820312 -1.200174 0
1.9933878 -22.808664 -1.199906 0
2.070318 -22.807011 -1.2001776 0
2.1470411 -22.802776 -1.2003268 0
2.2227058 -22.787491 -1.1999077 0
2.2996855 -22.785753 -1.2002155 0
2.376754 -22.784485 -1.2005616 0
2.4523945 -22.769531 -1.2002002 0
2.5272629 -22.748043 -1.1995075 0
2.6040475 -22.744061 -1.1997511 0
2.6787469 -22.722118 -1.1990607 0
2.7555106 -22.717922 -1.1993201 0
2.8368959 -22.750513 -1.2015359 0
2.9081819 -22.702026 -1.1994834 0
2.9836369 -22.68725 -1.1992245 0
3.0609276 -22.686321 -1.1997111 0
3.1349633 -22.6614 -1.1989423 0
3.2142754 -22.674397 -1.2001933 0
3.2863116 -22.636154 -1.1987456 0
3.3613493 -22.619366 -1.1984466 0
3.4412417 -22.634758 -1.1998668 0
3.5139728 -22.602898 -1.1987957 0
3.5954025 -22.626648 -1.2006879 0
3.6717179 -22.617378 -1.2008425 0
3.7457461 -22.594187 -1.2002712 0
3.8252585 -22.603832 -1.2014582 0
3.8936801 -22.548355 -1.1991966 0
3.9682195 -22.529274 -1.1988827 0
4.0439024 -22.516785 -1.1989328 0
4.1275353 -22.54768 -1.201308 0
4.2048893 -22.543251 -1.2018164 0
4.272738 -22.488443 -1.1996516 0
4.3524032 -22.496164 -1.2008351 0
4.4257674 -22.471104 -1.2002827 0
4.4980617 -22.441059 -1.1994767 0
4.5715942 -22.417601 -1.1990354 0
4.6461048 -22.399132 -1.198874 0
4.7266526 -22.409378 -1.200264 0
4.7994881 -22.382807 -1.1996958 0
4.876792 -22.377079 -1.2002585 0
4.9568939 -22.383644 -1.2014954 0
