# .PCD v0.7 - Point Cloud Data file format
VERSION 0.7
FIELDS x y z intensity
SIZE 4 4 4 4
TYPE F F F F
COUNT 1 1 1 1
WIDTH 1408
HEIGHT 1
VIEWPOINT 0 0 0 1 0 0 0
POINTS 1408
DATA ascii
-64.329796 -24.245544 -1.199984 0
-64.240799 -24.458296 -1.1998467 0
-64.178955 -24.68144 -1.2002306 0
-64.102318 -24.898994 -1.2003518 0
-63.990421 -25.102774 -1.1998259 0
-63.914783 -25.3207 -1.1999927 0
-63.791302 -25.51956 -1.1992739 0
-63.719059 -25.738821 -1.1995316 0
-63.662487 -25.964584 -1.2000985 0
-63.565491 -26.173941 -1.1999177 0
-63.490856 -26.392519 -1.2001724 0
-63.396126 -26.602776 -1.2000611 0
-63.283401 -26.805365 -1.1996218 0
-63.223339 -27.030287 -1.2001945 0
-63.141388 -27.24601 -1.2003661 0
-63.026073 -27.447275 -1.1999166 0
-62.957825 -27.669041 -1.2003767 0
-62.852257 -27.874453 -1.2001392 0
-62.757389 -28.084555 -1.2001189 0
-62.657616 -28.292437 -1.2000182 0
-62.560188 -28.501347 -1.1999757 0
-62.455704 -28.706997 -1.199811 0
-62.363983 -28.918503 -1.1999049 0
-62.251862 -29.120504 -1.1996194 0
-62.173527 -29.338331 -1.1999987 0
-62.063553 -29.541265 -1.1997812 0
-61.959743 -29.747066 -1.1996956 0
-61.870705 -29.959988 -1.1999098 0
-61.801353 -30.182619 -1.2005208 0
-61.666058 -30.373034 -1.199864 0
-61.598724 -30.596926 -1.2005432 0
-61.456928 -30.783815 -1.1997844 0
-61.317406 -30.971531 -1.1990812 0
-61.276009 -31.208921 -1.2003111 0
-61.148586 -31.40267 -1.1998708 0
-61.044624 -31.608377 -1.1999036 0
-60.931988 -31.809572 -1.1997792 0
-60.801258 -32.001194 -1.199311 0
-60.755741 -32.237831 -1.2005385 0
-60.62854 -32.431313 -1.2001669 0
-60.494019 -32.620686 -1.1996623 0
-60.393444 -32.828289 -1.1998438 0
-60.321991 -33.051937 -1.2006191 0
-60.192734 -33.244003 -1.2002581 0
-60.075447 -33.442577 -1.2001486 0
-59.95462 -33.639118 -1.1999812 0
-59.841576 -33.839989 -1.1999826 0
-59.730713 -34.042107 -1.2000417 0
-59.620438 -34.244595 -1.2001262 0
-59.480145 -34.429745 -1.1996191 0
-59.390083 -34.643974 -1.2001386 0
-59.270222 -34.840919 -1.2000703 0
-59.162045 -35.044758 -1.2002523 0
-59.0256 -35.231812 -1.1998739 0
-58.895058 -35.422245 -1.1996278 0
-58.787781 -35.626675 -1.1998689 0
-58.681423 -35.831776 -1.2001435 0
-58.554012 -36.024048 -1.2000012 0
-58.419056 -36.211582 -1.1997168 0
-58.306934 -36.413254 -1.1999147 0
-58.175858 -36.603092 -1.1997361 0
-58.067635 -36.807339 -1.2000425 0
-57.935261 -36.996304 -1.1998636 0
-57.816196 -37.193752 -1.1999737 0
-57.688217 -37.385479 -1.1999123 0
-57.596519 -37.600864 -1.2006204 0
-57.45575 -37.784309 -1.2003201 0
-57.338524 -37.983215 -1.2005249 0
-57.182907 -38.156597 -1.1999385 0
-57.066689 -38.356197 -1.2001916 0
-56.926739 -38.539848 -1.1999592 0
-56.794674 -38.728775 -1.1999058 0
-56.665695 -38.919796 -1.199931 0
-56.533543 -39.108635 -1.1999024 0
-56.39917 -39.295921 -1.1998401 0
-56.283047 -39.495987 -1.2001802 0
-56.139172 -39.676598 -1.1999421 0
-56.006012 -39.864731 -1.199946 0
-55.903893 -40.075119 -1.2006302 0
-55.693672 -40.20779 -1.1990038 0
-55.623268 -40.441353 -1.2004006 0
-55.467949 -40.613403 -1.1999805 0
-55.305981 -40.780357 -1.1994278 0
-55.203026 -40.990864 -1.2001688 0
-55.037907 -41.155251 -1.1995722 0
-54.920883 -41.355568 -1.200037 0
-54.781166 -41.538906 -1.2000206 0
-54.636417 -41.718399 -1.1999071 0
-54.49065 -41.897053 -1.199784 0
-54.375183 -42.099113 -1.2003428 0
-54.223148 -42.272938 -1.2001086 0
-54.059708 -42.437698 -1.1996337 0
-53.930477 -42.629272 -1.199931 0
-53.814625 -42.831642 -1.2005417 0
-53.663815 -43.006302 -1.2003874 0
-53.488491 -43.161106 -1.1996958 0
-53.379765 -43.369682 -1.2005119 0
-53.222439 -43.53891 -1.20025 0
-53.074799 -43.715984 -1.2002192 0
-52.916054 -43.883839 -1.1999499 0
-52.780396 -44.070843 -1.2002176 0
-52.618908 -44.236267 -1.1999114 0
-52.482468 -44.422741 -1.2001897 0
-52.325394 -44.591778 -1.2000099 0
-52.193401 -44.782242 -1.2004195 0
-52.02879 -44.944744 -1.2000927 0
-51.870384 -45.11248 -1.199921 0
-51.73373 -45.299175 -1.2002665 0
-51.559006 -45.452492 -1.1997416 0
-51.417824 -45.635315 -1.2000101 0
-51.253235 -45.797359 -1.1997457 0
-51.103935 -45.973026 -1.1998522 0
-50.959789 -46.153419 -1.2000943 0
-50.806057 -46.325207 -1.2001251 0
-50.649574 -46.49448 -1.2001042 0
-50.479847 -46.651508 -1.199782 0
-50.331017 -46.82782 -1.1999696 0
-50.172611 -46.995258 -1.1999429 0
-50.025524 -47.173363 -1.200201 0
-49.834415 -47.309814 -1.199415 0
-49.718086 -47.517323 -1.2004428 0
-49.527786 -47.654205 -1.199699 0
-49.397747 -47.849068 -1.2004285 0
-49.227074 -48.004704 -1.2001855 0
-49.046646 -48.150631 -1.1997159 0
-48.903225 -48.332886 -1.2001648 0
-48.73418 -48.489895 -1.1999993 0
-48.566124 -48.647804 -1.1998707 0
-48.38398 -48.791439 -1.1994056 0
-48.260933 -48.994823 -1.2004207 0
-48.087784 -49.14756 -1.2002059 0
-47.902981 -49.288189 -1.1997113 0
-47.746464 -49.457855 -1.1999377 0
-47.584145 -49.621593 -1.2000327 0
-47.418339 -49.781731 -1.2000538 0
-47.260437 -49.950233 -1.2002894 0
-47.085323 -50.100563 -1.2001014 0
-46.923172 -50.264675 -1.2002572 0
-46.748268 -50.415127 -1.2001003 0
-46.57291 -50.564999 -1.1999441 0
-46.402206 -50.719872 -1.1999207 0
-46.230534 -50.873672 -1.1998855 0
-46.065777 -51.035114 -1.2000436 0
-45.916447 -51.21386 -1.2006199 0
-45.718075 -51.337875 -1.199927 0
-45.548672 -51.49424 -1.2000054 0
-45.357121 -51.625443 -1.1995124 0
-45.195538 -51.790707 -1.1998247 0
-45.010925 -51.929588 -1.1995392 0
-44.865444 -52.113754 -1.2003118 0
-44.674938 -52.245731 -1.1998948 0
-44.516224 -52.414898 -1.2003453 0
-44.329948 -52.551659 -1.2000668 0
-44.137589 -52.680996 -1.1996342 0
-43.977222 -52.84853 -1.2000848 0
-43.791439 -52.985584 -1.1998562 0
-43.623222 -53.143902 -1.2001225 0
-43.438126 -53.281681 -1.1999382 0
-43.250328 -53.416019 -1.1996911 0
-43.089577 -53.583839 -1.2002088 0
-42.897995 -53.713383 -1.199882 0
-42.732174 -53.875202 -1.2002896 0
-42.558979 -54.02792 -1.2005061 0
-42.352139 -54.137768 -1.199785 0
-42.182415 -54.294949 -1.2001272 0
-42.001858 -54.438301 -1.2001764 0
-41.807522 -54.563709 -1.1998441 0
-41.632095 -54.713757 -1.2000675 0
-41.454029 -54.860466 -1.20023 0
-41.253841 -54.977795 -1.1997641 0
-41.083706 -55.135166 -1.2001857 0
-40.918995 -55.300144 -1.2007836 0
-40.699615 -55.391106 -1.199789 0
-40.515587 -55.529881 -1.1998458 0
-40.327923 -55.663677 -1.1998084 0
-40.140366 -55.797604 -1.1997875 0
-39.977432 -55.965992 -1.2005193 0
-39.772533 -56.075699 -1.2000055 0
-39.584145 -56.208511 -1.2000008 0
-39.387085 -56.32893 -1.1997455 0
-39.214558 -56.484516 -1.2002522 0
-39.027401 -56.619228 -1.2003274 0
-38.826065 -56.733269 -1.1999787 0
-38.643032 -56.874023 -1.2002087 0
-38.438335 -56.982822 -1.1997782 0
-38.247204 -57.11158 -1.1997824 0
-38.057777 -57.242916 -1.1998541 0
-37.875301 -57.384834 -1.2001603 0
-37.676025 -57.501335 -1.1999481 0
-37.480755 -57.62384 -1.1998755 0
-37.285873 -57.74691 -1.1998281 0
-37.109222 -57.898392 -1.2003837 0
-36.896011 -57.992813 -1.1997699 0
-36.702415 -58.117851 -1.1998041 0
-36.509716 -58.244358 -1.1998819 0
-36.315331 -58.368206 -1.1999182 0
-36.126629 -58.501301 -1.2001574 0
-35.920006 -58.605328 -1.1998141 0
-35.73967 -58.752327 -1.2003636 0
-35.531521 -58.853664 -1.1999934 0
-35.334106 -58.972649 -1.1999971 0
-35.126434 -59.07439 -1.1996641 0
-34.942577 -59.216244 -1.200159 0
-34.738312 -59.323627 -1.199968 0
-34.53397 -59.43074 -1.1997858 0
-34.350796 -59.574421 -1.2003546 0
-34.135788 -59.662918 -1.1998249 0
-33.942997 -59.790134 -1.2000878 0
-33.744999 -59.908321 -1.2001824 0
-33.546253 -60.025253 -1.2002649 0
-33.339245 -60.127346 -1.2000644 0
-33.128002 -60.221596 -1.1997219 0
-32.927185 -60.334675 -1.1997687 0
-32.717892 -60.432144 -1.1995187 0
-32.525524 -60.560928 -1.1999036 0
-32.33271 -60.68919 -1.2002903 0
-32.121124 -60.782261 -1.1999942 0
-31.919626 -60.894337 -1.2000873 0
-31.717573 -61.005424 -1.2001741 0
-31.516136 -61.117786 -1.200299 0
-31.312069 -61.225117 -1.2003384 0
-31.115845 -61.347954 -1.2006944 0
-30.901407 -61.434887 -1.2003614 0
-30.697504 -61.542656 -1.2004493 0
-30.477232 -61.61742 -1.1999077 0
-30.272289 -61.722969 -1.1999798 0
-30.06085 -61.815228 -1.1998073 0
-29.87051 -61.951099 -1.2004938 0
-29.651611 -62.027847 -1.2000479 0
-29.444069 -62.128166 -1.2000719 0
-29.236757 -62.229 -1.2001195 0
-29.033705 -62.339031 -1.2003573 0
-28.811983 -62.408844 -1.1998348 0
-28.600763 -62.501133 -1.1997588 0
-28.401691 -62.62014 -1.2002085 0
-28.179262 -62.687618 -1.1996843 0
-27.961321 -62.764679 -1.1993581 0
-27.761158 -62.881702 -1.199809 0
-27.54953 -62.972965 -1.1997811 0
-27.338774 -63.066212 -1.1998045 0
-27.121012 -63.143181 -1.1995322 0
-26.934195 -63.292606 -1.2006484 0
-26.715246 -63.366928 -1.2003524 0
-26.496815 -63.442192 -1.2000886 0
-26.274822 -63.508598 -1.1996716 0
-26.068401 -63.612591 -1.1999781 0
-25.856703 -63.703892 -1.2000583 0
-25.632771 -63.764851 -1.199581 0
-25.428074 -63.873646 -1.2000171 0
-25.216272 -63.964878 -1.2001359 0
-24.997952 -64.039543 -1.1999575 0
-24.790285 -64.141586 -1.2003055 0
-24.572353 -64.217194 -1.2001717 0
-24.355101 -64.294449 -1.2000828 0
-24.13908 -64.374901 -1.2000669 0
-23.924856 -64.460182 -1.2001547 0
-23.697981 -64.511131 -1.1996171 0
-23.488842 -64.610268 -1.1999896 0
-23.270555 -64.68441 -1.1999106 0
-23.062262 -64.786537 -1.2003641 0
-22.836145 -64.8386 -1.1999034 0
-22.625187 -64.933632 -1.2002513 0
-22.396908 -64.978836 -1.1996921 0
-22.189877 -65.085701 -1.2002847 0
-21.972075 -65.161339 -1.2003144 0
-21.752647 -65.232155 -1.2002686 0
-21.523703 -65.274055 -1.199705 0
-21.310621 -65.363922 -1.2000368 0
-21.086159 -65.418907 -1.1997415 0
-20.870155 -65.500069 -1.19994 0
-20.658628 -65.595711 -1.2004164 0
-20.422462 -65.612816 -1.1994697 0
-20.21439 -65.720032 -1.2001839 0
-19.988918 -65.770943 -1.1998831 0
-19.77474 -65.859085 -1.2002747 0
-19.550985 -65.915474 -1.200101 0
-19.332472 -65.989525 -1.2002623 0
-19.106653 -66.038551 -1.1999822 0
-18.890907 -66.122459 -1.2003492 0
-18.661884 -66.159828 -1.1998849 0
-18.451128 -66.262146 -1.2006118 0
-18.216661 -66.279251 -1.1998084 0
-18.000893 -66.36412 -1.2002455 0
-17.77652 -66.417511 -1.2001263 0
-17.554003 -66.477753 -1.2001446 0
-17.326349 -66.518318 -1.1998215 0
-17.099453 -66.56134 -1.1995566 0
-16.884914 -66.652733 -1.2001767 0
-16.663568 -66.717873 -1.2003369 0
-16.441793 -66.781532 -1.2004837 0
-16.210386 -66.805756 -1.1999353 0
-15.988543 -66.869072 -1.200103 0
-15.759108 -66.900459 -1.1997113 0
-15.539286 -66.972626 -1.2000643 0
-15.314382 -67.023163 -1.2000432 0
-15.085207 -67.054703 -1.1996955 0
-14.864983 -67.126045 -1.2000734 0
-14.638831 -67.170883 -1.1999909 0
-14.409599 -67.201225 -1.1996629 0
-14.184062 -67.248474 -1.1996509 0
-13.963511 -67.319763 -1.2000806 0
-13.742443 -67.389351 -1.200493 0
-13.508719 -67.396622 -1.199809 0
-13.285346 -67.455093 -1.2000501 0
-13.062921 -67.518967 -1.2004006 0
-12.832495 -67.541466 -1.2000289 0
-12.603271 -67.569656 -1.1997721 0
-12.38096 -67.635056 -1.2001897 0
-12.152115 -67.665016 -1.1999915 0
-11.918521 -67.66758 -1.1993215 0
-11.692533 -67.712692 -1.1994195 0
-11.471259 -67.785904 -1.2000284 0
-11.242931 -67.818016 -1.1999227 0
-11.015196 -67.853531 -1.199891 0
-10.785378 -67.875893 -1.1996402 0
-10.562647 -67.943207 -1.2001973 0
-10.330694 -67.951324 -1.1997221 0
-10.10319 -67.988152 -1.1997675 0
-9.878746 -68.046196 -1.2002004 0
-9.6515169 -68.085793 -1.2003213 0
-9.4208813 -68.10112 -1.2000281 0
-9.1922607 -68.130569 -1.1999971 0
-8.9628077 -68.15361 -1.1998669 0
-8.7353258 -68.191666 -1.2000145 0
-8.507266 -68.225571 -1.2001024 0
-8.281229 -68.276451 -1.2005023 0
-8.0510902 -68.293877 -1.2003273 0
-7.8212724 -68.31353 -1.2002051 0
-7.5910001 -68.328697 -1.2000176 0
-7.3631091 -68.365318 -1.2002205 0
-7.1347699 -68.398422 -1.200375 0
-6.9002681 -68.371086 -1.1994824 0
-6.6723804 -68.408051 -1.1997317 0
-6.4470911 -68.473663 -1.2004966 0
-6.2136478 -68.452728 -1.1997576 0
-5.9850583 -68.484093 -1.1999488 0
-5.7557955 -68.508362 -1.2000291 0
-5.5247955 -68.511497 -1.1997529 0
-5.2964864 -68.548119 -1.2000765 0
-5.0661688 -68.55928 -1.1999677 0
-4.8341584 -68.545891 -1.1994429 0
-4.6056776 -68.582077 -1.1997992 0
-4.3754601 -68.593231 -1.199731 0
-4.1474948 -68.641273 -1.2003212 0
-3.9177501 -68.662148 -1.2004498 0
-3.6846838 -68.622131 -1.1995275 0
-3.4560287 -68.662758 -1.2000284 0
-3.2257545 -68.67308 -1.200013 0
-2.9961782 -68.699326 -1.2002892 0
-2.7662003 -68.7183 -1.200452 0
-2.5350294 -68.706696 -1.2000941 0
-2.3038588 -68.691078 -1.1996797 0
-2.0740085 -68.71402 -1.1999521 0
-1.8437351 -68.725189 -1.2000325 0
-1.6131197 -68.723213 -1.1998968 0
-1.3828814 -68.737518 -1.2000588 0
-1.1520799 -68.722099 -1.1997154 0
-0.92166394 -68.725777 -1.199719 0
-0.69146568 -68.751488 -1.2001206 0
-0.46091604 -68.748199 -1.2000295 0
-0.23040263 -68.746056 -1.1999718 0
9.1223017e-05 -68.754417 -1.2001112 0
0.23056762 -68.74086 -1.1998811 0
0.46086407 -68.713249 -1.1994195 0
0.69156629 -68.743355 -1.1999786 0
0.92224115 -68.755203 -1.2002327 0
1.1527514 -68.751266 -1.2002248 0
1.3831633 -68.742462 -1.2001452 0
1.6135837 -68.735199 -1.2001061 0
1.8429883 -68.690552 -1.1994277 0
2.0748308 -68.735214 -1.2003223 0
2.304065 -68.691788 -1.1996921 0
2.5353181 -68.709572 -1.2001444 0
2.7656083 -68.699051 -1.2001159 0
2.9959357 -68.689575 -1.2001191 0
3.2238774 -68.629234 -1.199247 0
3.4555302 -68.649231 -1.199792 0
3.6851652 -68.627693 -1.1996249 0
3.9151268 -68.612968 -1.1995902 0
4.1461778 -68.61644 -1.1998873 0
4.3764329 -68.605614 -1.1999477 0
4.607336 -68.604042 -1.2001837 0
4.8352208 -68.558357 -1.1996614 0
5.0664845 -68.561081 -1.1999995 0
5.2984314 -68.570923 -1.2004759 0
5.5243778 -68.504051 -1.1996228 0
5.7552423 -68.499596 -1.1998758 0
5.9865842 -68.499458 -1.2002183 0
6.2148061 -68.463463 -1.199946 0
6.4447222 -68.446556 -1.2000216 0
6.6718469 -68.400703 -1.1996031 0
6.902832 -68.394676 -1.1998966 0
7.1351609 -68.400414 -1.2004102 0
7.360322 -68.337738 -1.1997367 0
7.5932012 -68.346855 -1.2003369 0
7.8207765 -68.307594 -1.2001011 0
8.0471392 -68.258797 -1.1997112 0
8.2747507 -68.221519 -1.1995368 0
8.5068941 -68.221115 -1.2000245 0
8.7369852 -68.203186 -1.2002176 0
8.9603806 -68.133759 -1.1995178 0
9.1927462 -68.132797 -1.2000368 0
9.4240046 -68.122368 -1.2004029 0
9.6484241 -68.062675 -1.1999143 0
9.8747511 -68.017403 -1.1996931 0
10.105191 -68.000374 -1.1999836 0
10.332251 -67.96035 -1.1998818 0
10.560382 -67.927452 -1.1999195 0
10.790354 -67.906036 -1.2001734 0
11.0168 -67.862274 -1.2000461 0
11.243629 -67.821098 -1.1999779 0
11.468706 -67.769722 -1.1997424 0
11.695063 -67.726265 -1.1996605 0
11.924269 -67.699158 -1.1998818 0
12.155329 -67.681877 -1.200291 0
12.377545 -67.615395 -1.1998414 0
12.604674 -67.57618 -1.1998886 0
12.831011 -67.532684 -1.1998734 0
13.06318 -67.519348 -1.2004079 0
13.281829 -67.436295 -1.1997163 0
13.511079 -67.407463 -1.2000026 0
13.738138 -67.367325 -1.2001013 0
13.962038 -67.31176 -1.1999387 0
14.1875 -67.263893 -1.1999265 0
14.415361 -67.227226 -1.2001278 0
14.639128 -67.171387 -1.2000005 0
14.86471 -67.12397 -1.200037 0
15.088266 -67.067467 -1.1999246 0
15.31656 -67.031876 -1.2001998 0
15.540188 -66.975708 -1.2001203 0
15.763856 -66.919823 -1.2000593 0
15.986876 -66.86132 -1.1999646 0
16.210247 -66.804405 -1.1999118 0
16.434353 -66.750549 -1.1999274 0
16.661661 -66.709488 -1.2001867 0
16.886686 -66.658989 -1.2002902 0
17.104322 -66.579559 -1.1998858 0
17.328974 -66.527664 -1.1999909 0
17.549593 -66.460342 -1.1998311 0
17.784559 -66.446838 -1.2006571 0
18.002064 -66.367744 -1.2003118 0
18.217573 -66.281876 -1.1998569 0
18.44635 -66.244308 -1.2002895 0
18.665077 -66.170479 -1.200079 0
18.884916 -66.10083 -1.1999575 0
19.106409 -66.037056 -1.1999559 0
19.330036 -65.98056 -1.2001002 0
19.551237 -65.91568 -1.2001057 0
19.770315 -65.843712 -1.1999955 0
19.994085 -65.787323 -1.2001828 0
20.210144 -65.705605 -1.1999215 0
20.432283 -65.643753 -1.2000363 0
20.649647 -65.566589 -1.1998844 0
20.868914 -65.495575 -1.1998587 0
21.08724 -65.421669 -1.1997932 0
21.313662 -65.372658 -1.2001983 0
21.525078 -65.277641 -1.1997721 0
21.747295 -65.21553 -1.1999638 0
21.972389 -65.161705 -1.2003222 0
22.190203 -65.086082 -1.2002931 0
22.396231 -64.976311 -1.1996466 0
22.623739 -64.928925 -1.2001655 0
22.830662 -64.822487 -1.1996062 0
23.056692 -64.770355 -1.2000653 0
23.265491 -64.6698 -1.1996408 0
23.49032 -64.6138 -1.2000563 0
23.706505 -64.533806 -1.20004 0
23.915508 -64.434471 -1.1996772 0
24.143379 -64.385841 -1.2002722 0
24.35993 -64.306679 -1.2003123 0
24.569038 -64.208015 -1.2000015 0
24.79108 -64.143143 -1.2003357 0
24.997192 -64.037094 -1.1999129 0
25.210924 -63.950813 -1.1998733 0
25.425552 -63.866817 -1.19989 0
25.642302 -63.788074 -1.2000191 0
25.858397 -63.707581 -1.2001292 0
26.073589 -63.624763 -1.2002091 0
26.287327 -63.538345 -1.2002348 0
26.508768 -63.470345 -1.2006224 0
26.71566 -63.367439 -1.2003635 0
26.919157 -63.256802 -1.1999706 0
27.124006 -63.149689 -1.1996571 0
27.342573 -63.07452 -1.1999639 0
27.562399 -63.001923 -1.2003342 0
27.767748 -62.896179 -1.2000866 0
27.980366 -62.80698 -1.2001679 0
28.187439 -62.705364 -1.2000253 0
28.398237 -62.612087 -1.2000556 0
28.602551 -62.504601 -1.1998268 0
28.807693 -62.39912 -1.1996493 0
29.027424 -62.325111 -1.2000909 0
29.239841 -62.235134 -1.2002393 0
29.445372 -62.130489 -1.2001183 0
29.650488 -62.025074 -1.1999958 0
29.857157 -61.922985 -1.1999506 0
30.077408 -61.848858 -1.2004615 0
30.268785 -61.715412 -1.1998345 0
30.47101 -61.604427 -1.1996562 0
30.684044 -61.515266 -1.1999166 0
30.901323 -61.434315 -1.2003518 0
31.104788 -61.325752 -1.2002615 0
31.289154 -61.179913 -1.1994537 0
31.511978 -61.109325 -1.2001345 0
31.721996 -61.013538 -1.2003353 0
31.911037 -60.87756 -1.1997583 0
32.115711 -60.771629 -1.1997861 0
32.321507 -60.667774 -1.1998684 0
32.533607 -60.575588 -1.2001958 0
32.723373 -60.441883 -1.1997137 0
32.921509 -60.323895 -1.1995559 0
33.13343 -60.231087 -1.1999128 0
33.331036 -60.112167 -1.1997633 0
33.545029 -60.022686 -1.2002153 0
33.740734 -59.900383 -1.2000251 0
33.939198 -59.78307 -1.1999478 0
34.137589 -59.665695 -1.1998825 0
34.346138 -59.565979 -1.2001863 0
34.541573 -59.443455 -1.2000444 0
34.738659 -59.323856 -1.1999745 0
34.928734 -59.192429 -1.1996781 0
35.140957 -59.098457 -1.2001548 0
35.331699 -58.968281 -1.19991 0
35.519684 -58.83371 -1.1995884 0
35.734428 -58.743359 -1.2001823 0
35.906872 -58.583549 -1.1993703 0
36.127205 -58.501888 -1.2001715 0
36.323246 -58.380589 -1.2001747 0
36.500671 -58.229584 -1.1995795 0
36.715626 -58.138428 -1.2002308 0
36.910095 -58.014606 -1.2002227 0
37.107239 -57.894962 -1.2003146 0
37.297226 -57.764156 -1.2001885 0
37.488682 -57.635696 -1.2001244 0
37.656219 -57.470768 -1.1993123 0
37.869579 -57.375835 -1.1999742 0
38.062794 -57.25013 -1.2000074 0
38.267738 -57.141918 -1.2004218 0
38.437569 -56.981361 -1.1997495 0
38.64666 -56.879036 -1.2003165 0
38.81414 -56.715527 -1.1996055 0
39.015945 -56.602287 -1.1999705 0
39.210236 -56.477974 -1.2001154 0
39.390732 -56.333828 -1.1998521 0
39.588741 -56.214725 -1.2001357 0
39.77832 -56.083546 -1.2001756 0
39.959339 -55.940346 -1.1999716 0
40.148689 -55.808861 -1.2000319 0
40.34457 -55.68634 -1.2002993 0
40.522697 -55.539314 -1.2000519 0
40.701027 -55.392719 -1.1998264 0
40.880219 -55.247429 -1.1996413 0
41.068005 -55.113789 -1.1997226 0
41.268948 -54.997627 -1.2001992 0
41.45697 -54.864056 -1.2003109 0
41.616589 -54.693077 -1.1996163 0
41.799694 -54.553192 -1.1996152 0
41.985447 -54.416733 -1.1997033 0
42.183647 -54.296234 -1.2001581 0
42.346634 -54.130436 -1.199625 0
42.547981 -54.013664 -1.2001919 0
42.710304 -53.847336 -1.1996713 0
42.892582 -53.70631 -1.1997266 0
43.070217 -53.559471 -1.1996654 0
43.257912 -53.425095 -1.1998974 0
43.434315 -53.276718 -1.199829 0
43.624039 -53.144608 -1.200141 0
43.808899 -53.006424 -1.2003307 0
43.96138 -52.829205 -1.1996486 0
44.136993 -52.680004 -1.1996143 0
44.314705 -52.533302 -1.1996503 0
44.499828 -52.395309 -1.1998994 0
44.681976 -52.253681 -1.20008 0
44.847122 -52.092194 -1.1998179 0
45.022774 -51.942978 -1.1998512 0
45.182735 -51.775761 -1.1994811 0
45.366043 -51.635323 -1.1997447 0
45.549175 -51.49453 -1.2000151 0
45.718925 -51.338558 -1.1999457 0
45.906292 -51.202259 -1.2003508 0
46.069942 -51.039459 -1.2001486 0
46.236664 -50.880146 -1.2000411 0
46.40929 -50.727345 -1.2001003 0
46.587387 -50.580444 -1.2003136 0
46.737366 -50.403103 -1.1998171 0
46.904922 -50.244858 -1.199787 0
47.066097 -50.079838 -1.199608 0
47.265484 -49.955307 -1.2004142 0
47.401714 -49.764011 -1.1996298 0
47.588547 -49.625919 -1.2001405 0
47.757336 -49.468853 -1.2002076 0
47.914368 -49.299644 -1.1999933 0
48.074558 -49.133781 -1.1998726 0
48.249508 -48.982964 -1.2001333 0
48.439438 -48.847107 -1.2007772 0
48.556793 -48.638199 -1.1996371 0
48.739254 -48.494682 -1.200121 0
48.890591 -48.320141 -1.1998515 0
49.061222 -48.164684 -1.2000692 0
49.228748 -48.006081 -1.2002232 0
49.382042 -47.833603 -1.2000437 0
49.549591 -47.674934 -1.2002242 0
49.710541 -47.509857 -1.2002575 0
49.884678 -47.357277 -1.2006216 0
50.015114 -47.163292 -1.1999483 0
50.153477 -46.977085 -1.1994822 0
50.329914 -46.826542 -1.1999403 0
50.496815 -46.666943 -1.2001823 0
50.658863 -46.502762 -1.2003214 0
50.799049 -46.318569 -1.1999567 0
50.963936 -46.156929 -1.2001891 0
51.139244 -46.004547 -1.2006785 0
51.278278 -45.819492 -1.2003291 0
51.426781 -45.643021 -1.2002163 0
51.579075 -45.469944 -1.2002058 0
51.725662 -45.29187 -1.2000765 0
51.862953 -45.105774 -1.1997463 0
52.030525 -44.946003 -1.2001299 0
52.184414 -44.774292 -1.2002101 0
52.331081 -44.596386 -1.2001376 0
52.4818 -44.421936 -1.2001717 0
52.628929 -44.244453 -1.2001371 0
52.781807 -44.071785 -1.200247 0
52.920841 -43.887573 -1.2000558 0
53.087879 -43.726524 -1.2005123 0
53.21373 -43.531548 -1.200051 0
53.335518 -43.3335 -1.1995143 0
53.497616 -43.168236 -1.1998979 0
53.645889 -42.991703 -1.1999838 0
53.7761 -42.800747 -1.1996797 0
53.936775 -42.634018 -1.2000685 0
54.066322 -42.442661 -1.199778 0
54.223358 -42.272869 -1.2001108 0
54.354073 -42.082539 -1.1998743 0
54.517239 -41.917267 -1.200367 0
54.630939 -41.713985 -1.1997843 0
54.81144 -41.561634 -1.2006813 0
54.912781 -41.349239 -1.1998576 0
55.061222 -41.172459 -1.200078 0
55.19455 -40.984344 -1.1999822 0
55.341858 -40.806583 -1.2002035 0
55.480175 -40.622128 -1.2002426 0
55.599274 -40.423679 -1.1998804 0
55.746216 -40.245499 -1.2001327 0
55.86581 -40.047596 -1.19981 0
55.992134 -39.85463 -1.1996465 0
56.127937 -39.668434 -1.1996996 0
56.278072 -39.492271 -1.2000718 0
56.41925 -39.309689 -1.200265 0
56.52877 -39.105114 -1.1997989 0
56.684036 -38.932171 -1.2003171 0
56.805882 -38.736195 -1.2001404 0
56.933052 -38.543903 -1.2000901 0
57.06562 -38.355259 -1.2001671 0
57.1805 -38.154774 -1.1998858 0
57.297668 -37.955929 -1.1996673 0
57.44577 -37.777527 -1.2001096 0
57.579056 -37.589245 -1.2002543 0
57.684372 -37.382771 -1.1998303 0
57.827087 -37.200542 -1.2001977 0
57.966824 -37.016243 -1.2005153 0
58.046455 -36.793697 -1.1996028 0
58.208855 -36.623638 -1.2004147 0
58.319584 -36.42094 -1.2001731 0
58.452274 -36.23196 -1.200397 0
58.558334 -36.026493 -1.2000878 0
58.686916 -35.834915 -1.2002538 0
58.810486 -35.640221 -1.2003305 0
58.915592 -35.434383 -1.200044 0
59.031883 -35.235348 -1.1999997 0
59.14497 -35.034435 -1.199904 0
59.285789 -34.849857 -1.2003837 0
59.395596 -34.646976 -1.2002481 0
59.494427 -34.437801 -1.1999053 0
59.601486 -34.233498 -1.1997428 0
59.713898 -34.032314 -1.199702 0
59.849197 -33.84409 -1.2001338 0
59.95517 -33.639217 -1.1999904 0
60.061687 -33.434708 -1.1998719 0
60.187656 -33.24099 -1.2001551 0
60.297794 -33.038471 -1.2001358 0
60.4067 -32.835289 -1.2001054 0
60.506386 -32.627144 -1.1999058 0
60.624882 -32.429146 -1.2000928 0
60.725498 -32.221577 -1.1999391 0
60.837719 -32.02018 -1.2000285 0
60.97525 -31.831953 -1.2006295 0
61.0653 -31.618876 -1.2003083 0
61.161621 -31.409157 -1.2001249 0
61.26231 -31.20174 -1.2000412 0
61.364677 -30.995203 -1.200004 0
61.472046 -30.791185 -1.200078 0
61.552891 -30.573956 -1.1996483 0
61.677185 -30.378309 -1.200079 0
61.752998 -30.1588 -1.1995798 0
61.885864 -29.967125 -1.2002022 0
61.978848 -29.756037 -1.2000639 0
62.067307 -29.54285 -1.1998522 0
62.151012 -29.327505 -1.1995627 0
62.285671 -29.136118 -1.2002695 0
62.392467 -28.931509 -1.2004515 0
62.467266 -28.712112 -1.2000318 0
62.557278 -28.499821 -1.1999184 0
62.643532 -28.285877 -1.1997471 0
5.1504421 -2.3048575 -0.098492555 0
5.1369624 -2.2781837 -0.098088168 0
5.1181812 -2.2493496 -0.097584993 0
5.1227994 -2.2309158 -0.097529881 0
5.1202426 -2.209409 -0.097339623 0
5.1158805 -2.1872098 -0.097116739 0
5.1430807 -2.1784723 -0.097493887 0
5.1218104 -2.1492379 -0.096953541 0
5.1352568 -2.1346593 -0.097072043 0
5.1611195 -2.1251438 -0.097425692 0
5.1284342 -2.091603 -0.096675776 0
5.158432 -2.0836928 -0.097109012 0
5.2174163 -2.087199 -0.098087125 0
5.2332678 -2.0732133 -0.098253898 0
5.2943578 -2.076905 -0.099269554 0
5.389668 -2.0934696 -0.10092445 0
5.4231615 -2.0855803 -0.10142012 0
5.4900913 -2.0902171 -0.10254017 0
64.321884 -24.242367 -1.1998352 0
64.405418 -24.027546 -1.1998839 0
64.492821 -23.814133 -1.2000179 0
64.596451 -23.606592 -1.2004668 0
64.643982 -23.378576 -1.1998867 0
64.715157 -23.159258 -1.1997597 0
64.802574 -22.945738 -1.1999474 0
64.879585 -22.728491 -1.1999555 0
64.94178 -22.506105 -1.1997035 0
65.036018 -22.294806 -1.2000568 0
65.118889 -22.079504 -1.2002131 0
65.192902 -21.861166 -1.2002195 0
65.247292 -21.636316 -1.1998787 0
65.310951 -21.41464 -1.1997222 0
65.384789 -21.196323 -1.1997663 0
65.467499 -20.980831 -1.1999865 0
65.568802 -20.771137 -1.2005601 0
65.625397 -20.547211 -1.2003281 0
65.664207 -20.317873 -1.1997854 0
65.741226 -20.10043 -1.1999544 0
65.786545 -19.873344 -1.1995587 0
65.901764 -19.667271 -1.2004504 0
65.930374 -19.43531 -1.1997778 0
66.001961 -19.216125 -1.1999013 0
66.055222 -18.991623 -1.1997052 0
66.161026 -18.78211 -1.2004764 0
66.184525 -18.549219 -1.1997676 0
66.262505 -18.331682 -1.2000602 0
66.315498 -18.107203 -1.1999137 0
66.395973 -17.890184 -1.2002778 0
66.452988 -17.66678 -1.200231 0
66.493698 -17.439117 -1.1999035 0
66.56028 -17.218273 -1.2000564 0
66.603218 -16.991333 -1.1997967 0
66.666924 -16.769718 -1.1999247 0
66.735512 -16.549263 -1.2001538 0
66.797241 -16.327036 -1.2002728 0
66.826317 -16.096893 -1.1998187 0
66.905136 -15.878734 -1.2002712 0
1.9473475 -0.45527658 -0.034907632 0
1.9507892 -0.44918844 -0.034942131 0
1.9398867 -0.43983439 -0.034720238 0
1.9639004 -0.4383612 -0.035123535 0
1.9588261 -0.43033889 -0.03500678 0
1.9607567 -0.4238767 -0.035015687 0
1.9767791 -0.42040792 -0.03527645 0
1.9618244 -0.41035718 -0.034984827 0
1.9545768 -0.40200591 -0.034831353 0
1.9111592 -0.38640177 -0.034034353 0
1.9549053 -0.38842866 -0.034790006 0
1.9639255 -0.3833808 -0.034927458 0
1.9470122 -0.37330681 -0.03460421 0
1.9970593 -0.375965 -0.035471093 0
1.9335152 -0.35729396 -0.034320977 0
1.9449087 -0.35265991 -0.034502033 0
1.9537828 -0.34750703 -0.034638591 0
1.9558201 -0.34110847 -0.034654241 0
1.919046 -0.32806873 -0.033982977 0
1.9329394 -0.32377747 -0.03420959 0
1.9429379 -0.3187589 -0.034367438 0
1.9418343 -0.31189564 -0.034329228 0
1.9539511 -0.30712518 -0.034525037 0
1.9366453 -0.29775485 -0.034201425 0
1.9414624 -0.29183564 -0.034269024 0
1.9635743 -0.28843054 -0.034642059 0
1.9780804 -0.28378943 -0.034880996 0
1.9820266 -0.27757666 -0.034933977 0
1.9745682 -0.26978508 -0.034786381 0
1.9613843 -0.26128787 -0.034538489 0
1.9619516 -0.2546716 -0.034533247 0
1.9951165 -0.25217754 -0.03510192 0
1.9597746 -0.24103747 -0.034465708 0
1.9830883 -0.23715812 -0.034861535 0
1.9458891 -0.22609456 -0.034194075 0
1.9677601 -0.22195174 -0.034565128 0
1.9430192 -0.21256611 -0.034117829 0
1.9697535 -0.20881002 -0.034574773 0
1.9794219 -0.20312607 -0.034732331 0
1.964416 -0.19493277 -0.034457367 0
1.9734644 -0.18915103 -0.034604762 0
1.9697769 -0.18213473 -0.034529202 0
1.9861367 -0.17693341 -0.034805384 0
1.9642237 -0.16834533 -0.034411296 0
1.9672562 -0.16196281 -0.034454711 0
1.9422904 -0.15335289 -0.034008265 0
1.9891065 -0.1503403 -0.034818962 0
1.970898 -0.14231992 -0.034491677 0
1.9866037 -0.13676018 -0.034758314 0
1.989427 -0.13025427 -0.034799878 0
1.9857767 -0.12333022 -0.034728594 0
1.939622 -0.11393675 -0.03391454 0
1.9792591 -0.1096074 -0.034600981 0
1.9553335 -0.10170766 -0.034176562 0
1.9708885 -0.095891982 -0.03444263 0
1.9445473 -0.088076271 -0.03397695 0
1.977363 -0.082920268 -0.034545284 0
1.9918406 -0.076838277 -0.034793515 0
1.9681132 -0.069315247 -0.034374792 0
1.9715612 -0.062818952 -0.034431141 0
1.9740908 -0.056274749 -0.034471832 0
1.9558206 -0.049191687 -0.034149721 0
1.9965185 -0.043517642 -0.034857586 0
1.9668548 -0.036273889 -0.034337364 0
1.9812186 -0.029894257 -0.034586184 0
1.9662967 -0.023075277 -0.034324147 0
1.9730591 -0.016538655 -0.034441032 0
1.978808 -0.0099519575 -0.034540609 0
1.9621375 -0.0032893475 -0.034249235 0
1.9683774 0.0032998081 -0.034358151 0
1.9844952 0.0099805593 -0.03463988 0
1.9852006 0.016640428 -0.034652974 0
1.9737393 0.02316262 -0.034454066 0
1.9365847 0.029220784 -0.033807009 0
1.9844732 0.03659882 -0.03464495 0
2.0112674 0.043839123 -0.035115093 0
1.9649494 0.049421292 -0.034309115 0
1.9878031 0.05666564 -0.034711275 0
1.9755535 0.062946156 -0.034500863 0
1.9644367 0.069185756 -0.034310579 0
2.0029089 0.077265255 -0.034986857 0
1.9827091 0.083144456 -0.034638681 0
1.9939212 0.090312608 -0.034839652 0
2.0008759 0.097351007 -0.034966681 0
2.0020347 0.10413685 -0.034992836 0
1.9705193 0.10912341 -0.034448192 0
1.9893475 0.11685771 -0.034783997 0
1.9732692 0.12255343 -0.034509856 0
1.9749066 0.12930356 -0.03454588 0
1.9998473 0.13767189 -0.034990031 0
1.9974067 0.14423412 -0.034955591 0
2.0106487 0.15196849 -0.035196055 0
1.9943955 0.15746683 -0.034920588 0
1.9905474 0.16388035 -0.034862638 0
1.9824843 0.16991036 -0.034731202 0
1.9844378 0.17678207 -0.034775615 0
1.9882342 0.18384138 -0.034852747 0
1.9927557 0.19100004 -0.034943037 0
1.985877 0.19706239 -0.034833807 0
1.9966214 0.20489107 -0.035034124 0
2.0115426 0.21324 -0.03530829 0
1.9701157 0.21553047 -0.034593619 0
1.9708108 0.22229585 -0.034618717 0
1.9859911 0.23075406 -0.034898765 0
2.0484469 0.24497439 -0.0360105 0
1.9957316 0.24545991 -0.035098065 0
2.0180984 0.25508237 -0.03550626 0
2.0101254 0.26092479 -0.035381179 0
1.9985059 0.26623306 -0.035192173 0
2.0267529 0.27691504 -0.03570573 0
2.0041966 0.28068152 -0.035324734 0
2.0073996 0.28799576 -0.035398003 0
1.9977908 0.29345661 -0.035245717 0
2.0020733 0.3009465 -0.035338871 0
1.9923418 0.30631807 -0.035185032 0
2.0194397 0.31741875 -0.035682175 0
2.0112877 0.32305118 -0.035557076 0
1.9948629 0.32727772 -0.035285909 0
2.0005431 0.33510143 -0.035406053 0
2.0109468 0.34377953 -0.035610382 0
2.0106986 0.35067964 -0.035626609 0
2.0250921 0.36019039 -0.035902835 0
2.0162563 0.36559701 -0.035767719 0
2.0097263 0.37137699 -0.035673764 0
2.0173771 0.37979004 -0.035831973 0
2.0274334 0.3887262 -0.036033534 0
67.486916 13.174221 -1.200222 0
67.454758 13.40288 -1.2004424 0
67.412979 13.629683 -1.2005055 0
67.352661 13.852701 -1.2002518 0
67.291626 14.07547 -1.1999983 0
67.284477 14.309604 -1.2007196 0
67.183762 14.523798 -1.1997846 0
67.149071 14.75213 -1.2000417 0
67.117882 14.981348 -1.2003752 0
67.047371 15.201784 -1.2000189 0
66.969559 15.420402 -1.1995448 0
66.935738 15.64912 -1.1998721 0
66.887825 15.874624 -1.1999606 0
66.825287 16.096645 -1.1998001 0
66.791855 16.32572 -1.200176 0
66.743805 16.551319 -1.2003028 0
66.663185 16.76878 -1.1998575 0
66.624435 16.996748 -1.200179 0
66.575066 17.222099 -1.2003231 0
66.507393 17.442709 -1.2001506 0
66.456932 17.667828 -1.2003021 0
66.365448 17.881958 -1.199726 0
66.311195 18.106028 -1.1998359 0
66.260674 18.331175 -1.2000271 0
66.209618 18.556253 -1.2002226 0
66.133865 18.774399 -1.1999836 0
66.059029 18.992718 -1.1997745 0
66.030968 19.224573 -1.2004287 0
65.962433 19.444761 -1.2003613 0
65.886131 19.662605 -1.2001656 0
65.832542 19.887238 -1.2003974 0
65.765427 20.10783 -1.2003962 0
65.690552 20.326023 -1.2002667 0
65.607651 20.541655 -1.2000036 0
65.536575 20.760927 -1.19997 0
65.477478 20.984028 -1.2001693 0
65.402542 21.202078 -1.2000921 0
65.335014 21.422529 -1.2001642 0
65.244919 21.635529 -1.1998349 0
65.18779 21.859453 -1.2001256 0
65.097954 22.072405 -1.1998273 0
4.7537656 1.6296244 -0.087717369 0
4.7164583 1.6345272 -0.0871296 0
4.6402235 1.6255542 -0.08582148 0
4.5940046 1.6266764 -0.085067049 0
4.5542827 1.6298161 -0.084432229 0
4.5217519 1.6352972 -0.083930306 0
4.4446387 1.6242807 -0.082599595 0
4.4477854 1.6423557 -0.082759947 0
4.428916 1.6522832 -0.082511462 0
4.4650064 1.6828227 -0.083288483 0
4.4597082 1.697924 -0.083295368 0
4.4384427 1.706888 -0.083004616 0
4.4518805 1.7292116 -0.083363868 0
4.4772115 1.7563494 -0.083948001 0
4.4387898 1.7584726 -0.08333768 0
4.4594483 1.7839781 -0.083837368 0
4.4620748 1.8024068 -0.08399988 0
4.4207511 1.8029784 -0.08333528 0
4.4594417 1.8362207 -0.084180221 0
63.471184 26.384144 -1.1997993 0
63.414402 26.610245 -1.2004057 0
63.322292 26.821638 -1.2003577 0
63.225712 27.031105 -1.2002381 0
63.11079 27.232609 -1.1997831 0
63.035297 27.451094 -1.2000909 0
62.921703 27.652967 -1.1996866 0
62.849552 27.873055 -1.2000861 0
62.747227 28.079807 -1.1999232 0
62.674023 28.299644 -1.200331 0
62.559265 28.500727 -1.1999565 0
62.477005 28.716589 -1.2002188 0
62.367874 28.920105 -1.1999782 0
62.272835 29.130114 -1.2000221 0
62.165459 29.334324 -1.1998415 0
62.072842 29.545483 -1.1999592 0
62.00153 29.766926 -1.2005031 0
61.855282 29.952316 -1.1996092 0
61.750542 30.157598 -1.199532 0
61.673615 30.376553 -1.2000095 0
61.550991 30.573013 -1.1996113 0
61.46344 30.786875 -1.19991 0
61.36937 30.997572 -1.2000957 0
61.259045 31.200077 -1.1999772 0
61.155766 31.406151 -1.2000101 0
61.05735 31.614759 -1.200152 0
60.940624 31.813877 -1.1999476 0
60.837284 32.019951 -1.20002 0
60.738277 32.228359 -1.2001917 0
60.610798 32.421612 -1.199814 0
60.503555 32.625618 -1.1998497 0
60.395947 32.829445 -1.1998918 0
60.29715 33.03812 -1.200123 0
60.186989 33.240623 -1.2001419 0
60.065746 33.436966 -1.199953 0
59.966595 33.64563 -1.200219 0
59.814178 33.824287 -1.1994315 0
59.742836 34.048809 -1.2002834 0
59.613392 34.240337 -1.1999824 0
59.5075 34.445366 -1.200169 0
59.371803 34.633099 -1.1997674 0
59.228745 34.816326 -1.1992286 0
59.157215 35.041687 -1.2001524 0
59.010941 35.222847 -1.199574 0
58.920197 35.437153 -1.2001379 0
58.790131 35.627884 -1.1999151 0
58.674541 35.827358 -1.2000008 0
58.533707 36.011341 -1.1995831 0
58.437378 36.222725 -1.2000911 0
58.298027 36.407478 -1.1997294 0
58.185577 36.608994 -1.1999346 0
58.07761 36.813446 -1.2002467 0
57.966156 37.015816 -1.2005014 0
57.818897 37.195274 -1.2000277 0
57.672451 37.375042 -1.1995822 0
57.567959 37.582005 -1.2000231 0
57.446262 37.777851 -1.2001199 0
57.305874 37.961369 -1.1998392 0
57.178997 38.15377 -1.1998544 0
57.051498 38.345768 -1.19987 0
56.939827 38.548489 -1.2002329 0
56.823589 38.748268 -1.2005144 0
56.67382 38.925156 -1.2001008 0
56.540161 39.112991 -1.2000407 0
56.386993 39.287216 -1.1995789 0
56.289429 39.50024 -1.200314 0
56.162655 39.692974 -1.2004418 0
56.006584 39.864914 -1.1999561 0
55.874958 40.054153 -1.2000065 0
55.736618 40.238575 -1.1999261 0
55.62151 40.439846 -1.2003603 0
55.483425 40.624508 -1.200313 0
55.332058 40.799358 -1.199991 0
55.199318 40.987885 -1.2000859 0
55.06411 41.174618 -1.200141 0
54.914543 41.350567 -1.1998961 0
54.767578 41.528374 -1.1997205 0
54.656342 41.733383 -1.2003422 0
54.502907 41.906246 -1.2000514 0
54.367107 42.092632 -1.2001621 0
54.217552 42.268345 -1.1999823 0
54.052502 42.431812 -1.1994714 0
53.952847 42.646721 -1.2004262 0
53.790646 42.812325 -1.2000042 0
53.650478 42.99538 -1.2000865 0
53.510021 43.178246 -1.2001762 0
53.338879 43.336227 -1.1995898 0
53.214302 43.532017 -1.2000639 0
53.067829 43.710007 -1.2000589 0
52.915333 43.883007 -1.1999309 0
52.757458 44.051453 -1.1996933 0
52.597534 44.21806 -1.1994213 0
52.458344 44.402084 -1.1996353 0
52.338306 44.602543 -1.2003033 0
52.168877 44.76096 -1.1998527 0
51.999352 44.919075 -1.1994109 0
51.882854 45.123081 -1.2002066 0
51.729141 45.294914 -1.2001572 0
51.5858 45.475872 -1.2003623 0
51.446114 45.660179 -1.2006675 0
51.246983 45.791531 -1.1995965 0
51.089321 45.959637 -1.1995063 0
50.932957 46.128872 -1.1994596 0
50.809834 46.3284 -1.2002113 0
50.648163 46.492939 -1.2000679 0
50.496021 46.66621 -1.2001635 0
50.33482 46.831108 -1.2000573 0
50.170547 46.993073 -1.1998905 0
50.022491 47.17025 -1.2001253 0
49.852005 47.32626 -1.1998352 0
49.708401 47.507812 -1.2002059 0
49.538784 47.664532 -1.1999624 0
49.383415 47.83493 -1.2000771 0
49.23098 48.008255 -1.2002776 0
49.04015 48.143997 -1.1995537 0
48.874146 48.30389 -1.199448 0
48.729763 48.485241 -1.1998874 0
48.594803 48.67627 -1.2005761 0
48.406742 48.814137 -1.1999667 0
48.226192 48.959293 -1.1995534 0
48.089218 49.148766 -1.2002385 0
47.929382 49.315098 -1.2003692 0
47.743095 49.454102 -1.1998497 0
47.589535 49.626949 -1.2001654 0
47.405285 49.767761 -1.1997201 0
47.232887 49.920853 -1.1995863 0
47.081913 50.096668 -1.2000111 0
46.92522 50.266602 -1.2003062 0
46.734642 50.400162 -1.1997471 0
46.560589 50.55135 -1.1996232 0
46.394283 50.710941 -1.1997123 0
46.246639 50.891121 -1.2002999 0
46.072445 51.042229 -1.2002138 0
45.881748 51.174885 -1.1997091 0
45.714691 51.333801 -1.1998346 0
45.545311 51.490162 -1.1999133 0
45.385273 51.657211 -1.2002532 0
45.217361 51.815437 -1.2004004 0
45.03476 51.956806 -1.2001706 0
44.855232 52.101616 -1.200035 0
44.683975 52.25602 -1.2001338 0
44.496044 52.39085 -1.1997974 0
44.337784 52.560665 -1.2002751 0
44.153698 52.69994 -1.2000682 0
43.983547 52.855843 -1.2002535 0
43.789646 52.983128 -1.1998032 0
43.603317 53.119366 -1.199571 0
43.444702 53.289463 -1.200116 0
43.268021 53.43758 -1.2001779 0
43.070103 53.55933 -1.1996623 0
42.910873 53.729214 -1.2002382 0
42.729443 53.871468 -1.2002088 0
42.558071 54.026474 -1.2004765 0
42.382549 54.17635 -1.2006425 0
42.181438 54.293396 -1.2000954 0
41.994583 54.42857 -1.1999643 0
41.826027 54.587559 -1.200371 0
41.624855 54.703945 -1.1998546 0
41.439919 54.841488 -1.1998172 0
41.25695 54.981636 -1.1998503 0
41.079609 55.12936 -1.2000617 0
40.891426 55.262573 -1.1999702 0
40.711056 55.406368 -1.2001219 0
40.52607 55.543938 -1.2001519 0
40.335377 55.673653 -1.2000257 0
40.13335 55.787537 -1.1995733 0
39.964993 55.948257 -1.2001413 0
39.781719 56.088333 -1.2002782 0
39.582142 56.205353 -1.1999356 0
39.418438 56.373451 -1.200696 0
39.211639 56.479992 -1.2001582 0
39.010586 56.594509 -1.1998056 0
38.847771 56.764664 -1.2006449 0
38.642315 56.872643 -1.2001816 0
38.440289 56.98539 -1.1998343 0
38.26437 57.13689 -1.2003162 0
38.07045 57.261646 -1.2002488 0
37.867786 57.373116 -1.1999173 0
37.681133 57.508797 -1.2001059 0
37.489895 57.637562 -1.2001632 0
37.292023 57.7561 -1.2000211 0
37.094276 57.874733 -1.1998953 0
36.909164 58.013142 -1.2001925 0
36.706314 58.123684 -1.1999265 0
36.513504 58.250053 -1.2000012 0
36.325695 58.384521 -1.2002555 0
36.121716 58.492996 -1.1999891 0
35.931435 58.623627 -1.2001907 0
35.735619 58.745316 -1.2002223 0
35.535446 58.859818 -1.2001207 0
35.339943 58.98204 -1.2001901 0
35.136971 59.091755 -1.2000186 0
34.917427 59.173264 -1.1992897 0
34.74353 59.332176 -1.2001429 0
34.534382 59.43108 -1.1997945 0
34.336281 59.548885 -1.199842 0
34.147266 59.68261 -1.2002227 0
33.952061 59.805729 -1.2004027 0
33.750156 59.917103 -1.2003602 0
33.533882 60.002739 -1.1998166 0
33.341637 60.131283 -1.2001448 0
33.1297 60.2243 -1.1997776 0
32.930515 60.340393 -1.1998841 0
32.723591 60.442284 -1.1997217 0
32.528732 60.566513 -1.200016 0
32.328541 60.680977 -1.2001295 0
32.118629 60.777153 -1.199895 0
31.922472 60.899372 -1.2001882 0
31.721926 61.013401 -1.2003326 0
31.512537 61.110409 -1.2001557 0
31.309727 61.220139 -1.2002424 0
31.091192 61.298943 -1.1997368 0
30.88497 61.401798 -1.1997164 0
30.689077 61.525352 -1.2001134 0
30.489021 61.640842 -1.2003654 0
30.274464 61.726986 -1.2000595 0
30.055185 61.803165 -1.1995747 0
29.863804 61.936771 -1.2002177 0
29.651348 62.026875 -1.2000306 0
29.43837 62.115711 -1.1998329 0
29.218851 62.190456 -1.1993777 0
29.027359 62.324974 -1.2000881 0
28.821463 62.428944 -1.2002227 0
28.599432 62.497787 -1.1996959 0
28.394804 62.604519 -1.1999105 0
28.176561 62.681164 -1.1995622 0
27.969231 62.781986 -1.1996902 0
27.753185 62.863194 -1.1994572 0
27.551594 62.977226 -1.1998637 0
27.348553 63.08831 -1.2002263 0
27.127333 63.157433 -1.1998043 0
26.924339 63.268978 -1.2002016 0
26.708794 63.351151 -1.200055 0
26.504616 63.4604 -1.2004343 0
26.284498 63.531509 -1.2001057 0
26.076874 63.632782 -1.2003604 0
25.861053 63.714127 -1.2002525 0
25.630985 63.759922 -1.1994895 0
25.423145 63.860771 -1.1997765 0
25.212366 63.954468 -1.1999419 0
24.99922 64.04229 -1.2000102 0
24.775261 64.102203 -1.1995697 0
24.571646 64.214828 -1.2001288 0
24.352617 64.287376 -1.199952 0
24.134506 64.362183 -1.1998311 0
23.913477 64.428993 -1.1995753 0
23.707603 64.536797 -1.2000957 0
23.493818 64.623428 -1.200235 0
23.270279 64.683105 -1.1998876 0
23.058313 64.77491 -1.2001497 0
22.841116 64.852165 -1.2001555 0
22.623215 64.927422 -1.2001377 0
22.417154 65.03701 -1.2007674 0
22.183317 65.065895 -1.1999207 0
21.961082 65.128166 -1.1997044 0
21.741034 65.196754 -1.1996183 0
21.525047 65.27755 -1.1997703 0
21.311222 65.365181 -1.2000608 0
21.090117 65.430588 -1.1999568 0
20.866743 65.488762 -1.1997339 0
20.649218 65.565224 -1.1998595 0
20.432583 65.644722 -1.2000539 0
20.20759 65.697304 -1.1997699 0
19.989653 65.772736 -1.1999167 0
19.775152 65.859825 -1.2002891 0
19.55192 65.917976 -1.2001475 0
19.315645 65.931442 -1.1992067 0
19.109541 66.047882 -1.2001526 0
18.88261 66.092758 -1.199811 0
18.66692 66.17701 -1.2001975 0
18.44412 66.236298 -1.2001444 0
18.215786 66.275383 -1.1997392 0
17.992937 66.334099 -1.1997033 0
17.778051 66.422523 -1.2002178 0
17.558357 66.493523 -1.2004303 0
17.325966 66.516121 -1.1997826 0
17.103436 66.576103 -1.1998236 0
16.878454 66.626495 -1.199705 0
16.658144 66.695404 -1.1999334 0
16.43734 66.762688 -1.2001456 0
16.214331 66.821236 -1.2002141 0
15.980238 66.833557 -1.1994663 0
15.766886 66.932686 -1.2002898 0
15.542578 66.986008 -1.2003049 0
15.316833 67.033073 -1.2002212 0
15.089766 67.074135 -1.2000438 0
14.858939 67.097908 -1.1995711 0
14.638703 67.169441 -1.1999658 0
14.414024 67.220993 -1.2000166 0
14.189276 67.272316 -1.2000768 0
13.960436 67.304039 -1.199801 0
13.740274 67.377808 -1.2002879 0
13.513053 67.417313 -1.2001779 0
13.284731 67.451027 -1.1999784 0
13.056899 67.486885 -1.1998308 0
12.833346 67.544975 -1.2000918 0
12.609106 67.599937 -1.2003105 0
12.381879 67.639069 -1.2002614 0
12.153089 67.669403 -1.2000698 0
11.926334 67.710892 -1.2000897 0
11.70049 67.757698 -1.2002172 0
11.471231 67.784645 -1.2000066 0
11.244499 67.826355 -1.2000709 0
11.016132 67.858162 -1.1999733 0
10.789115 67.898239 -1.2000357 0
10.56289 67.943588 -1.2002045 0
10.337641 67.995804 -1.2005078 0
10.108912 68.025414 -1.2004254 0
9.8732748 68.00724 -1.1995138 0
9.6484423 68.062805 -1.1999166 0
9.4177084 68.076859 -1.1996008 0
9.1921272 68.12822 -1.1999561 0
8.9655809 68.173302 -1.2002139 0
8.7335081 68.176048 -1.1997401 0
8.5062332 68.215813 -1.1999313 0
8.2796259 68.261719 -1.2002437 0
8.0514088 68.295013 -1.2003477 0
7.8172679 68.276955 -1.1995628 0
7.5915909 68.332359 -1.2000823 0
7.3612409 68.346268 -1.1998864 0
7.1326256 68.376106 -1.1999837 0
6.9043159 68.409378 -1.2001545 0
6.6751189 68.434242 -1.2001914 0
6.4407849 68.404739 -1.1992885 0
6.2141223 68.455933 -1.199814 0
5.9842143 68.472343 -1.1997433 0
5.7577581 68.529541 -1.2004004 0
5.5267787 68.533821 -1.2001441 0
5.2992702 68.581779 -1.200666 0
5.0682249 68.584625 -1.2004117 0
4.8378735 68.59597 -1.2003194 0
4.6063986 68.590088 -1.1999395 0
4.3769121 68.613129 -1.2000792 0
4.1448379 68.594269 -1.1994995 0
3.9176435 68.657074 -1.2003613 0
3.6850779 68.626076 -1.1995965 0
3.4562933 68.664391 -1.200057 0
3.2264442 68.683876 -1.2002017 0
2.9950025 68.668182 -1.1997453 0
2.7661166 68.711678 -1.2003365 0
2.5343015 68.682022 -1.1996633 0
2.304318 68.699333 -1.1998239 0
2.074707 68.731117 -1.2002507 0
1.8432868 68.701675 -1.199622 0
1.6125785 68.692383 -1.1993586 0
1.3827057 68.719719 -1.1997482 0
1.1522217 68.719673 -1.1996732 0
0.92209816 68.744545 -1.2000467 0
0.6916154 68.74823 -1.2000638 0
0.46115795 68.757072 -1.2001843 0
0.23060395 68.751686 -1.2000701 0
9.1201313e-05 68.738068 -1.1998256 0
-0.23045786 68.762535 -1.2002594 0
-0.46095696 68.754311 -1.2001361 0
-0.6915673 68.761597 -1.200297 0
-0.92159587 68.720695 -1.1996303 0
-1.152601 68.753174 -1.200258 0
-1.3828348 68.735199 -1.2000184 0
-1.6135548 68.741753 -1.2002205 0
-1.8439976 68.73497 -1.2002033 0
-2.0739763 68.712952 -1.1999335 0
-2.3048615 68.720978 -1.2002019 0
-2.5345232 68.692978 -1.1998545 0
-2.7643852 68.673203 -1.1996642 0
-2.9958775 68.692429 -1.2001688 0
-3.2263687 68.686157 -1.2002414 0
-3.4562764 68.667686 -1.2001144 0
-3.6854811 68.636978 -1.199787 0
-3.9173939 68.655907 -1.2003406 0
-4.1454821 68.607956 -1.1997386 0
-4.3773208 68.622398 -1.2002411 0
-4.6049728 68.571579 -1.1996155 0
-4.837153 68.588348 -1.2001859 0
-5.0663295 68.561455 -1.2000058 0
-5.2943063 68.519905 -1.1995825 0
-5.5267072 68.535202 -1.200168 0
-5.7553353 68.502884 -1.1999332 0
-5.9832563 68.463478 -1.1995876 0
-6.2141366 68.458107 -1.1998518 0
-6.4422855 68.422623 -1.1996018 0
-6.6746087 68.430893 -1.2001324 0
-6.9017682 68.385948 -1.1997432 0
-7.1326294 68.377907 -1.2000148 0
-7.3625989 68.36058 -1.2001374 0
-7.5887189 68.308159 -1.199657 0
-7.8177114 68.282425 -1.1996586 0
-8.0460825 68.251389 -1.1995806 0
-8.2813921 68.277794 -1.200526 0
-8.5080681 68.232002 -1.2002156 0
-8.7357168 68.194725 -1.2000684 0
-8.9614 68.142906 -1.1996784 0
-9.1932974 68.13826 -1.2001325 0
-9.4214373 68.105148 -1.2000989 0
-9.6488962 68.067307 -1.1999954 0
-9.8796415 68.052361 -1.2003093 0
-10.108297 68.022522 -1.2003739 0
-10.334625 67.977188 -1.2001786 0
-10.559476 67.922813 -1.199837 0
-10.787943 67.892029 -1.1999253 0
-11.013983 67.846062 -1.1997589 0
-11.245492 67.833458 -1.2001959 0
-11.47764 67.823608 -1.2006959 0
-11.699763 67.754562 -1.2001612 0
-11.93129 67.740067 -1.2006063 0
-12.154481 67.678185 -1.2002251 0
-12.37801 67.618942 -1.1999037 0
-12.604083 67.574005 -1.1998495 0
-12.831409 67.535759 -1.1999274 0
-13.058622 67.49675 -1.2000057 0
-13.292124 67.48951 -1.2006624 0
-13.506806 67.387077 -1.199639 0
-13.737732 67.366249 -1.2000815 0
-13.960001 67.302841 -1.1997789 0
-14.185092 67.253357 -1.1997379 0
-14.414445 67.223824 -1.2000664 0
-14.638806 67.170769 -1.1999888 0
-14.869298 67.145531 -1.2004218 0
-15.090637 67.078835 -1.2001272 0
-15.309494 67.001778 -1.1996602 0
-15.538732 66.970238 -1.2000215 0
-15.764259 66.922333 -1.2001035 0
-15.984085 66.850433 -1.1997684 0
-16.214294 66.821861 -1.2002246 0
-16.437054 66.762283 -1.2001376 0
-16.662937 66.715347 -1.2002915 0
-16.871563 66.600037 -1.1992278 0
-17.111378 66.607758 -1.2003931 0
-17.324629 66.511711 -1.1997023 0
-17.55793 66.49263 -1.2004131 0
-17.782978 66.441643 -1.2005624 0
-18.003899 66.375206 -1.2004459 0
-18.2129 66.265572 -1.1995606 0
-18.433472 66.198738 -1.199463 0
-18.664307 66.168419 -1.2000407 0
-18.885864 66.104813 -1.2000288 0
-19.110157 66.050667 -1.2002023 0
-19.329229 65.978455 -1.2000611 0
-19.546173 65.899246 -1.1998056 0
-19.76339 65.821281 -1.1995858 0
-19.986137 65.761803 -1.1997162 0
-20.205925 65.692505 -1.1996813 0
-20.4314 65.641533 -1.1999946 0
-20.645889 65.55526 -1.1996762 0
-20.869583 65.498268 -1.1999071 0
-21.087749 65.423836 -1.199832 0
-21.311218 65.365753 -1.2000704 0
-21.53297 65.302155 -1.2002215 0
-21.740953 65.197083 -1.1996233 0
-21.960903 65.128212 -1.1997042 0
-22.180931 65.059456 -1.1998008 0
-22.405279 65.00312 -1.2001406 0
-22.619637 64.917702 -1.1999569 0
-22.836864 64.840645 -1.1999412 0
-23.047653 64.745506 -1.1996038 0
-23.270344 64.683823 -1.1998998 0
-23.488493 64.609306 -1.1999717 0
-23.714851 64.55706 -1.2004713 0
-23.910311 64.42099 -1.199425 0
-24.133741 64.360664 -1.1998016 0
-24.356178 64.297295 -1.2001358 0
-24.571669 64.215401 -1.2001382 0
