# .PCD v0.7 - Point Cloud Data file format
VERSION 0.7
FIELDS x y z intensity
SIZE 4 4 4 4
TYPE F F F F
COUNT 1 1 1 1
WIDTH 1403
HEIGHT 1
VIEWPOINT 0 0 0 1 0 0 0
POINTS 1403
DATA ascii
-1.6925533 9.6094961 -1.1980581 0
-1.7214373 9.5852518 -1.1957483 0
-1.7601006 9.6151276 -1.2002048 0
-1.7953244 9.6252346 -1.202211 0
-1.8232397 9.5962858 -1.199352 0
-1.8562609 9.5945482 -1.1999059 0
-1.8885821 9.589098 -1.2000095 0
-1.9217877 9.5880299 -1.2006754 0
-1.9466617 9.5459204 -1.1962129 0
-1.982308 9.5569448 -1.1984205 0
-2.0175393 9.5654154 -1.2003241 0
-2.0477965 9.5501909 -1.1992686 0
-2.0791557 9.5402927 -1.1988941 0
-2.1118045 9.5363092 -1.1992767 0
-2.1403522 9.5140009 -1.1973668 0
-2.1751626 9.5195665 -1.1989785 0
-2.2120807 9.5338259 -1.2017019 0
-2.242434 9.5195665 -1.2008454 0
-2.2799988 9.5356665 -1.2038338 0
-2.3031626 9.491724 -1.1992544 0
-2.3351483 9.4846582 -1.1993443 0
-2.3653045 9.4702454 -1.1985178 0
-2.4046926 9.4924583 -1.2023425 0
-2.4293859 9.4566288 -1.1988293 0
-2.4589942 9.4404278 -1.1978139 0
-2.4944618 9.4466333 -1.1996557 0
-2.5211742 9.419735 -1.1973065 0
-2.560925 9.4413958 -1.2011443 0
-2.5843954 9.4030294 -1.197359 0
-2.6176353 9.4005156 -1.1981498 0
-2.6543865 9.4102907 -1.2005233 0
-2.6865594 9.4035673 -1.2008079 0
-2.715657 9.386158 -1.1997406 0
-2.7566102 9.4094219 -1.2038889 0
-2.7820365 9.3795404 -1.2012523 0
-2.8113055 9.362956 -1.2003288 0
-2.8466218 9.3664398 -1.2019923 0
-2.8759491 9.3501444 -1.2011318 0
-2.8935347 9.2962818 -1.195452 0
-2.9309497 9.3064127 -1.1980118 0
-2.9569962 9.2804031 -1.1959331 0
-2.9978452 9.3006859 -1.1998354 0
-3.0301528 9.2940826 -1.2002875 0
-3.0635376 9.2906656 -1.2011659 0
-3.08847 9.2617483 -1.1987593 0
-3.127774 9.2758627 -1.2019367 0
-3.1525147 9.2467222 -1.1995237 0
-3.1872764 9.2470579 -1.2009467 0
-3.2155485 9.2285318 -1.1999341 0
-3.2438545 9.2102671 -1.1989667 0
-3.279351 9.2123585 -1.2006634 0
-3.3071151 9.1926804 -1.1995373 0
-3.3323972 9.1663561 -1.1975535 0
-3.3707042 9.1758003 -1.2002571 0
-3.402576 9.1674814 -1.2006544 0
-3.4294872 9.1458702 -1.1993233 0
-3.4593971 9.1323795 -1.1990684 0
-3.4954689 9.1350298 -1.2009484 0
-3.5303199 9.1342363 -1.2023934 0
-3.5384862 9.0648642 -1.1948166 0
-3.5797913 9.0806808 -1.1984766 0
-3.6088991 9.0653162 -1.1980391 0
-3.6450922 9.0676413 -1.1999547 0
-3.6813214 9.0697756 -1.2018638 0
-3.7183805 9.0736599 -1.2040237 0
-3.7405128 9.0411549 -1.201368 0
-3.7691791 9.0246696 -1.2008499 0
-3.7935729 8.9981222 -1.1990031 0
-3.823163 8.9840422 -1.1988283 0
-3.8610032 8.989193 -1.2012362 0
-3.8826816 8.9567299 -1.198631 0
-3.9087994 8.9347687 -1.1974392 0
-3.9599183 8.9695978 -1.2038796 0
-3.9679008 8.9067326 -1.1972209 0
-4.0059962 8.9117441 -1.1996932 0
-4.0231905 8.8703442 -1.1959291 0
-4.0642323 8.8815517 -1.1992705 0
-4.0998502 8.8805733 -1.2009878 0
-4.1203251 8.846858 -1.1982898 0
-4.1527524 8.8389292 -1.199095 0
-4.1927605 8.8468933 -1.2020757 0
-4.217494 8.822525 -1.2006793 0
-4.2390213 8.7916822 -1.1984093 0
-4.2825747 8.8064156 -1.2023681 0
-4.3058987 8.7794104 -1.2006454 0
-4.3225875 8.7392025 -1.197122 0
-4.355629 8.7322073 -1.1981575 0
-4.3872156 8.7221956 -1.1987953 0
-4.4140692 8.7027712 -1.198153 0
-4.439817 8.681263 -1.1972346 0
-4.4799552 8.6877699 -1.2001967 0
-4.4946208 8.6449318 -1.1963538 0
-4.5411496 8.663331 -1.2010003 0
-4.5724783 8.6524239 -1.2016068 0
-4.6032858 8.6404667 -1.202083 0
-4.6316609 8.6239252 -1.2019353 0
-4.6668954 8.6200695 -1.2035719 0
-4.677166 8.5702829 -1.1988033 0
-4.7205048 8.5811491 -1.2025304 0
-4.7433834 8.5546951 -1.2010452 0
-4.756906 8.5116644 -1.1972364 0
-4.7982125 8.518384 -1.2004375 0
-4.8367848 8.5199318 -1.2029344 0
-4.845129 8.4683714 -1.1979413 0
-4.8790684 8.4617453 -1.1993114 0
-4.9125576 8.454195 -1.200569 0
-4.9411001 8.4380608 -1.2006236 0
-4.9667807 8.4170694 -1.1999996 0
-5.01161 8.4283476 -1.2039963 0
-5.0192938 8.3772049 -1.1990879 0
-5.0418744 8.3512554 -1.1977863 0
-5.077414 8.3467445 -1.1995744 0
-5.1149855 8.3453608 -1.2018335 0
-5.1302471 8.3076153 -1.198868 0
-5.1714416 8.3118563 -1.2019753 0
-5.1862116 8.2736206 -1.198954 0
-5.2130814 8.2548542 -1.1987606 0
-5.2509646 8.253418 -1.201102 0
-5.2723112 8.2259426 -1.1996694 0
-5.30022 8.2087746 -1.1997504 0
-5.3256216 8.1877432 -1.1992795 0
-5.3517237 8.1678267 -1.1989838 0
-5.3731489 8.1408529 -1.1976621 0
-5.4042172 8.1285133 -1.1985056 0
-5.4484572 8.1357584 -1.2022607 0
-5.4612517 8.0960207 -1.1990875 0
-5.4936624 8.0854597 -1.2002448 0
-5.5180478 8.0630608 -1.1996592 0
-5.5355453 8.0307245 -1.1976029 0
-5.5620947 8.0116224 -1.1975285 0
-5.6057997 8.0170622 -1.2011442 0
-5.6260848 7.9889026 -1.1997447 0
-5.6559362 7.9743624 -1.2004023 0
-5.6886554 7.9637733 -1.2016726 0
-5.7047157 7.9299088 -1.199442 0
-5.7310157 7.9103851 -1.1993886 0
-5.7577696 7.8914876 -1.1994437 0
-5.7905769 7.8808231 -1.2007669 0
-5.8304648 7.8796053 -1.2035531 0
-5.8286653 7.8221865 -1.1977611 0
-5.864768 7.8158064 -1.1997883 0
-5.8904228 7.7954144 -1.199683 0
-5.9282904 7.7910814 -1.2020683 0
-5.9463706 7.7607093 -1.2004516 0
-5.9690495 7.7364416 -1.1997868 0
-5.9958377 7.7175217 -1.1999635 0
-6.0095778 7.6819057 -1.1975518 0
-6.054523 7.6861167 -1.2013662 0
-6.0810833 7.6668129 -1.201529 0
-6.0863199 7.6207952 -1.1975085 0
-6.1316094 7.6249337 -1.2013825 0
-6.1481671 7.5932512 -1.1996318 0
-6.1745725 7.5737987 -1.1998224 0
-6.204124 7.5581613 -1.2006338 0
-6.2350183 7.5440788 -1.2017108 0
-6.2365937 7.4946709 -1.1971647 0
-6.265142 7.4778428 -1.1978252 0
-6.306284 7.4758873 -1.2008921 0
-6.3242402 7.4463725 -1.1995504 0
-6.3580737 7.4355383 -1.2012324 0
-6.3766017 7.4067841 -1.2000344 0
-6.3889585 7.3710098 -1.1977021 0
-6.4320536 7.3706522 -1.2011414 0
-6.443058 7.3334842 -1.198598 0
-6.4728999 7.3178215 -1.1995785 0
-6.4979129 7.2966557 -1.1996734 0
-6.5297217 7.2830606 -1.2010311 0
-6.5425963 7.2483778 -1.1989223 0
-6.5670438 7.2266011 -1.1989555 0
-6.5952964 7.2089801 -1.199694 0
-6.6168518 7.1840281 -1.1992269 0
-6.6453834 7.166636 -1.2000362 0
-6.6482844 7.1217237 -1.1962415 0
-6.6831913 7.1111679 -1.1982255 0
-6.7045588 7.0861449 -1.1977901 0
-6.7401676 7.0761065 -1.1999065 0
-6.7563729 7.0456662 -1.1985792 0
-6.7847667 7.0279546 -1.1994293 0
-6.8225636 7.0198517 -1.2019436 0
-6.8319421 6.9825068 -1.1994647 0
-6.852571 6.9567761 -1.1989846 0
-6.8735499 6.9314351 -1.1985823 0
-6.8944392 6.9060345 -1.1981806 0
-6.9341283 6.8993702 -1.2010512 0
-6.9448061 6.8638115 -1.1989079 0
-6.9784837 6.850996 -1.2007495 0
-6.9975262 6.8237686 -1.2000827 0
-7.0173335 6.7973318 -1.1995643 0
-7.0360622 6.7698956 -1.198879 0
-7.0705824 6.7576036 -1.2008936 0
-7.0870967 6.7280655 -1.1998605 0
-7.0955844 6.6910353 -1.1974925 0
-7.1376195 6.685605 -1.2007968 0
-7.1510692 6.6533322 -1.1992999 0
-7.1474438 6.6053896 -1.194971 0
-7.2020254 6.6111994 -1.2003837 0
-7.2107949 6.5748367 -1.1981645 0
-7.2374597 6.5548453 -1.1989366 0
-7.2583928 6.5296397 -1.1987709 0
-7.2823482 6.5071468 -1.1991173 0
-7.2968922 6.4762745 -1.1979299 0
-7.3232565 6.4559093 -1.1986979 0
-7.3488493 6.4348121 -1.1993488 0
-7.3690553 6.4089818 -1.1991328 0
-7.3893971 6.3832846 -1.1989535 0
-7.4197173 6.3661613 -1.2004031 0
-7.4386773 6.3392515 -1.2000251 0
-7.4654102 6.3189483 -1.2009132 0
-7.4760313 6.2850361 -1.1992252 0
-7.4988995 6.2614689 -1.199519 0
-7.5423732 6.2549696 -1.2031118 0
-7.5369835 6.2079678 -1.198925 0
-7.5789552 6.200006 -1.2022882 0
-7.6172776 6.1888418 -1.2050689 0
-7.6173501 6.1466169 -1.2018133 0
-7.6173534 6.1045642 -1.1985779 0
-7.6373115 6.078619 -1.1985047 0
-7.6825962 6.0726976 -1.2024091 0
-7.7097383 6.0522628 -1.2034744 0
-7.7026148 6.0050397 -1.1992129 0
-7.7219882 5.9786258 -1.1991016 0
-7.7348008 5.9471736 -1.1979882 0
-7.7625375 5.9271936 -1.1991993 0
-7.7973523 5.9124975 -1.2015085 0
-7.8062949 5.8781605 -1.1998428 0
-7.830245 5.8551593 -1.2004999 0
-7.8384151 5.820395 -1.1987538 0
-7.8782902 5.8091269 -1.2018666 0
-7.8661513 5.7595634 -1.197062 0
-7.9043698 5.7469363 -1.1999391 0
-7.908649 5.7096133 -1.1976759 0
-7.9336209 5.6872749 -1.1985632 0
-7.9572601 5.6639285 -1.1992588 0
-7.9928579 5.6489863 -1.2017626 0
-7.9972587 5.6119847 -1.1995884 0
-8.0300665 5.5949206 -1.201689 0
-8.0329065 5.5569844 -1.199319 0
-8.0649452 5.5392604 -1.2013229 0
-8.089323 5.5161781 -1.2021924 0
-8.0955648 5.4807611 -1.2003824 0
-8.1192265 5.4571705 -1.201171 0
-8.1443596 5.4345098 -1.2021868 0
-8.1346874 5.3887253 -1.1980854 0
-8.1364975 5.3507605 -1.1957033 0
-8.2071972 5.357923 -1.2034461 0
-8.1824074 5.3026981 -1.1971974 0
-8.207243 5.2798038 -1.1982344 0
-8.2168818 5.2471371 -1.1970664 0
-8.2543287 5.232172 -1.1999594 0
-8.2738838 5.2057629 -1.200258 0
-8.2744322 5.1674647 -1.1978176 0
-8.3263035 5.1611352 -1.2028148 0
-8.3037395 5.1086903 -1.1970741 0
-8.3405533 5.0928698 -1.1999128 0
-8.349638 5.0600624 -1.1987723 0
-8.3787928 5.0393987 -1.2005255 0
-8.3809357 5.0025001 -1.1984227 0
-8.4085541 4.9808245 -1.1999772 0
-8.4585323 4.9721937 -1.2047236 0
-8.448904 4.928493 -1.200992 0
-8.4189262 4.8732476 -1.1944014 0
-8.4665556 4.8629928 -1.1988388 0
-8.5255413 4.8589311 -1.2048775 0
-8.5429382 4.8309717 -1.2050402 0
-8.5164356 4.7783709 -1.1990353 0
-8.5444326 4.7564826 -1.2007248 0
-8.5535641 4.7240701 -1.1997755 0
-8.586236 4.7046151 -1.202139 0
-8.5886965 4.6685901 -1.2002852 0
-8.6193237 4.6478682 -1.2023808 0
-8.6092834 4.6052623 -1.1988195 0
-8.6419878 4.5855575 -1.201226 0
-8.6425419 4.5487819 -1.1991762 0
-8.6726294 4.5275502 -1.2012379 0
-8.689662 4.4994311 -1.2015008 0
-8.6889133 4.4621649 -1.199322 0
-8.7248383 4.4437094 -1.2022175 0
-8.7033033 4.3960543 -1.1972125 0
-8.7269945 4.3713574 -1.1984485 0
-8.7599096 4.3511667 -1.2009585 0
-8.762393 4.3158336 -1.1993083 0
-8.7529421 4.2747722 -1.1960464 0
-8.7984858 4.2605386 -1.2003111 0
-8.8090057 4.2292314 -1.1998049 0
-8.8272238 4.2016182 -1.2003608 0
-8.8321342 4.1676917 -1.1991216 0
-8.8450127 4.1375666 -1.1989799 0
-8.8818245 4.1185479 -1.2020913 0
-8.8992014 4.0904088 -1.2025802 0
-8.8965044 4.0530949 -1.2003727 0
-8.9049177 4.0209289 -1.199682 0
-8.9089327 3.986836 -1.1984154 0
-8.9542933 3.9711545 -1.2027194 0
-8.9436989 3.9306245 -1.1995195 0
-8.9433041 3.894727 -1.1977085 0
-8.9970741 3.8823087 -1.2031595 0
-8.9886045 3.842957 -1.2002971 0
-9.0132656 3.8178079 -1.2018741 0
-9.0034399 3.7780933 -1.198868 0
-9.0250263 3.7516139 -1.2000607 0
-9.0211115 3.7145631 -1.1978774 0
-9.0416098 3.6875975 -1.1989508 0
-9.0921392 3.6726995 -1.2040117 0
-9.0621605 3.6252956 -1.1984253 0
-9.0931215 3.6023622 -1.2009158 0
-9.116457 3.5762906 -1.2024072 0
-9.1268902 3.5451198 -1.2022089 0
-9.1265106 3.5098019 -1.2006022 0
-9.1298723 3.4760015 -1.1995044 0
-9.1459332 3.4470515 -1.2000893 0
-9.1518726 3.4142909 -1.1993599 0
-9.1926775 3.3944466 -1.2032092 0
-9.1811457 3.3552518 -1.2002206 0
-9.227478 3.3371568 -1.204808 0
-9.2124395 3.2968326 -1.2013944 0
-9.1925325 3.2549818 -1.1973684 0
-9.23351 3.2346931 -1.2012866 0
-9.2303629 3.1988852 -1.1994749 0
-9.2493763 3.1707788 -1.2005575 0
-9.2597141 3.139668 -1.2005262 0
-9.2846117 3.1134405 -1.202394 0
-9.2813082 3.0777538 -1.200623 0
-9.2506628 3.0332034 -1.1953366 0
-9.3093491 3.0179155 -1.2016056 0
-9.3088875 2.9833119 -1.2002481 0
-9.3351746 2.9572594 -1.2023523 0
-9.3046713 2.9133053 -1.1971587 0
-9.3426237 2.8908293 -1.200788 0
-9.3661318 2.8637292 -1.2025687 0
-9.3529596 2.8254466 -1.1996543 0
-9.3740301 2.7975485 -1.201147 0
-9.3805895 2.7652876 -1.2007928 0
-9.3863478 2.7328134 -1.2003503 0
-9.3892851 2.6995525 -1.1995616 0
-9.4203167 2.6743119 -1.2023739 0
-9.3963623 2.6335003 -1.1981827 0
-9.3968706 2.5996938 -1.1971294 0
-9.4285555 2.5744593 -1.2000595 0
-9.4434767 2.5445416 -1.200866 0
-9.4620047 2.515537 -1.2021428 0
-9.4453478 2.4772317 -1.1989646 0
-9.4696493 2.4497013 -1.2010001 0
-9.4664392 2.4150367 -1.1995592 0
-9.499403 2.3895524 -1.2027142 0
-9.4994011 2.3557153 -1.2017074 0
-9.4949789 2.3208539 -1.2001567 0
-9.4720402 2.2816191 -1.1962837 0
-9.5316973 2.2622042 -1.2028534 0
-9.5107985 2.2235866 -1.1992685 0
-9.5242319 2.1930749 -1.2000285 0
-9.5329647 2.1614547 -1.2002089 0
-9.5491467 2.1314867 -1.2013398 0
-9.5591145 2.1000898 -1.2017012 0
-9.5317183 2.060595 -1.197382 0
-9.5555401 2.0322337 -1.1995118 0
-9.5725737 2.0023332 -1.2008004 0
-9.5896769 1.972375 -1.2021096 0
-9.5853367 1.938008 -1.2007444 0
-9.5949659 1.906492 -1.201143 0
-9.5792046 1.8699971 -1.1983783 0
-9.5933638 1.8393923 -1.1993713 0
-9.6148558 1.8101126 -1.2012929 0
-9.6321611 1.7799519 -1.2027026 0
-9.6162682 1.743693 -1.1999815 0
-9.6063814 1.7086529 -1.1980261 0
-9.6117992 1.6763901 -1.1979941 0
-9.6392155 1.6478895 -1.2007158 0
-9.6282558 1.6128095 -1.1986703 0
-9.6659021 1.5858167 -1.2026883 0
-9.6553688 1.5508627 -1.200724 0
-9.6492386 1.5167091 -1.1993226 0
-9.6530399 1.4841594 -1.1991698 0
-9.6717958 1.4538658 -1.2008874 0
-9.6683407 1.4202142 -1.1998605 0
-9.6729631 1.387778 -1.19985 0
-9.6664438 1.3537816 -1.1984715 0
-9.6945019 1.3245851 -1.2013929 0
-9.6721907 1.2885171 -1.1980859 0
-9.6774607 1.2562113 -1.1982102 0
-9.6835566 1.2240025 -1.1984501 0
-9.7052145 1.1936942 -1.2006284 0
-9.7032795 1.1604441 -1.1999009 0
-9.6865349 1.1255131 -1.1973569 0
-9.7047052 1.0946597 -1.1991426 0
-9.71978 1.0633692 -1.2005581 0
-9.7310419 1.0315963 -1.2015151 0
-9.6905708 0.99446166 -1.1960996 0
-9.7073107 0.96330106 -1.1977603 0
-9.7525797 0.93478352 -1.2029525 0
-9.7411833 0.90074116 -1.2011675 0
-9.7250137 0.8663711 -1.1988087 0
-9.7487736 0.83555222 -1.2013855 0
-9.7539339 0.80306047 -1.2016829 0
-9.7270966 0.76802564 -1.1980526 0
-9.7540884 0.7372579 -1.2010659 0
-9.7601137 0.70481062 -1.2015101 0
-9.7663002 0.67234981 -1.2019874 0
-9.7468443 0.63818365 -1.1993228 0
-9.7436686 0.60517395 -1.1986756 0
-9.7825069 0.57466739 -1.2032098 0
-9.753129 0.54013473 -1.1993669 0
-9.7560272 0.50749069 -1.1995074 0
-9.738946 0.47386646 -1.1972052 0
-9.7268753 0.4405947 -1.195533 0
-9.7756987 0.40996769 -1.2013581 0
-9.7795048 0.37728527 -1.2016637 0
-9.7888174 0.34477967 -1.2026591 0
-9.7765312 0.31153113 -1.2010146 0
-9.7684879 0.27849296 -1.199905 0
-9.7500134 0.2452527 -1.197528 0
-9.7651463 0.21287453 -1.1992923 0
-9.7700586 0.1802111 -1.1998147 0
-9.757761 0.14725904 -1.1982371 0
-9.7725439 0.11471065 -1.1999984 0
-9.8027773 0.082195252 -1.2036703 0
-9.7518873 0.049070738 -1.1973945 0
-9.770916 0.016405992 -1.1997175 0
-9.7788553 2.594907e-05 -1.2006906 0
-13.728575 -0.023051154 -1.2010945 0
-13.733532 -0.069106065 -1.2015418 0
-13.722236 -0.11505949 -1.2005805 0
-13.74101 -0.16129272 -1.2022636 0
-13.710202 -0.20690721 -1.199622 0
-13.720067 -0.25306994 -1.2005527 0
-13.720197 -0.29909232 -1.2006451 0
-13.722588 -0.34517917 -1.2009488 0
-13.699766 -0.39057106 -1.1990595 0
-13.704508 -0.43669686 -1.1995958 0
-13.704228 -0.48268747 -1.1997063 0
-13.720035 -0.52930766 -1.2012386 0
-13.716691 -0.57524282 -1.201108 0
-13.707247 -0.62089211 -1.2004566 0
-13.692908 -0.66625381 -1.1993897 0
-13.711408 -0.71324229 -1.2012128 0
-13.673475 -0.75724602 -1.1981053 0
-13.698571 -0.80471426 -1.200534 0
-13.704059 -0.85115165 -1.2012583 0
-13.660458 -0.89443105 -1.1976925 0
-13.69886 -0.94308251 -1.2013299 0
-13.676368 -0.98761648 -1.1996411 0
-13.688037 -1.0346034 -1.2009622 0
-13.678168 -1.0799917 -1.2004073 0
-13.676258 -1.1259931 -1.2005643 0
-13.636449 -1.1687589 -1.1974069 0
-13.65167 -1.2161846 -1.1990947 0
-13.675344 -1.2645227 -1.2015399 0
-13.650521 -1.3084008 -1.1997375 0
-13.631897 -1.3527558 -1.1984925 0
-13.632116 -1.3989493 -1.1989175 0
-13.638863 -1.4458678 -1.1999303 0
-13.628512 -1.4909946 -1.1994528 0
-13.619035 -1.5361835 -1.1990653 0
-13.611099 -1.5815222 -1.1988267 0
-13.63025 -1.6300824 -1.2009881 0
-13.61446 -1.6745124 -1.2000848 0
-13.597202 -1.7186877 -1.1990647 0
-13.584954 -1.7634348 -1.1984992 0
-13.618668 -1.8142618 -1.2020035 0
-13.580391 -1.8555242 -1.1991675 0
-13.583172 -1.9023176 -1.1999695 0
-13.596036 -1.9506204 -1.201677 0
-13.544987 -1.9896677 -1.1977479 0
-13.561362 -2.0385461 -1.1997936 0
-13.534188 -2.0808878 -1.198 0
-13.546677 -2.1293252 -1.1997306 0
-13.534072 -2.173867 -1.1992531 0
-13.555113 -2.2238922 -1.2017714 0
-13.520704 -2.2648256 -1.1993873 0
-13.503281 -2.3084776 -1.1985215 0
-13.519778 -2.3579793 -1.2006809 0
-13.493122 -2.3999736 -1.1990213 0
-13.506386 -2.4490781 -1.200923 0
-13.459755 -2.487263 -1.1975116 0
-13.485991 -2.5389004 -1.2005963 0
-13.454304 -2.5796731 -1.1985385 0
-13.492272 -2.6338837 -1.2027009 0
-13.458055 -2.6740766 -1.2004431 0
-13.455323 -2.7204597 -1.2010064 0
-13.449127 -2.7661748 -1.2012744 0
-13.438337 -2.8109505 -1.2011458 0
-13.401665 -2.8502119 -1.1987152 0
-13.405091 -2.8979521 -1.1998841 0
-13.395625 -2.9429522 -1.1999133 0
-13.398066 -2.9906125 -1.2010233 0
-13.386468 -3.0351779 -1.2008891 0
-13.321759 -3.0675037 -1.1960001 0
-13.347878 -3.1206801 -1.1992775 0
-13.333231 -3.1644404 -1.1989081 0
-13.337876 -3.2128191 -1.2002877 0
-13.344754 -3.261853 -1.201884 0
-13.300426 -3.298315 -1.1988809 0
-13.331156 -3.3534207 -1.2026576 0
-13.289964 -3.3904774 -1.1999602 0
-13.304018 -3.441613 -1.2022643 0
-13.273126 -3.4811435 -1.2005206 0
-13.253905 -3.5236392 -1.1998441 0
-13.226191 -3.5637927 -1.19841 0
-13.232684 -3.6131735 -1.2000893 0
-13.214091 -3.6557481 -1.199508 0
-13.184735 -3.6952605 -1.1979611 0
-13.209221 -3.7499352 -1.2013216 0
-13.210877 -3.7983146 -1.2026236 0
-13.173855 -3.8355372 -1.2004173 0
-13.14399 -3.8746939 -1.1988729 0
-13.152269 -3.9251115 -1.2008218 0
-13.134929 -3.9679458 -1.2004464 0
-13.094719 -4.0037584 -1.1979916 0
-13.117576 -4.0588889 -1.201321 0
-13.065212 -4.0907359 -1.1977749 0
-13.078374 -4.1430554 -1.2002482 0
-13.084082 -4.1931858 -1.2020555 0
-13.019921 -4.2208128 -1.1974545 0
-13.044518 -4.2771716 -1.2010287 0
-13.002653 -4.3117805 -1.1984985 0
-12.990935 -4.3562946 -1.198758 0
-13.012844 -4.4122319 -1.2021379 0
-12.974599 -4.4478226 -1.1999757 0
-12.964211 -4.4928923 -1.2004015 0
-12.917913 -4.5254173 -1.1975129 0
-12.925006 -4.5766129 -1.199586 0
-12.933431 -4.6284542 -1.2018014 0
-12.892621 -4.6626711 -1.1994553 0
-12.889158 -4.7103453 -1.2005956 0
-12.848234 -4.7442808 -1.1982586 0
-12.84577 -4.7923737 -1.1995206 0
-12.85076 -4.84338 -1.2014961 0
-12.798806 -4.872869 -1.1981595 0
-12.818974 -4.9298205 -1.2015882 0
-12.800428 -4.9720168 -1.2014056 0
-12.784512 -5.0152302 -1.2014831 0
-12.743833 -5.0486407 -1.1992443 0
-12.732485 -5.0936007 -1.1997768 0
-12.719232 -5.1378355 -1.2001444 0
-12.716463 -5.186377 -1.2015171 0
-12.708571 -5.232924 -1.2024225 0
-12.653678 -5.2600083 -1.1988906 0
-12.642616 -5.3051929 -1.1995211 0
-12.629161 -5.3494163 -1.1999395 0
-12.606333 -5.389668 -1.1994808 0
-12.586383 -5.4311242 -1.1993084 0
-12.579408 -5.4782166 -1.2003871 0
-12.577727 -5.5277271 -1.2019886 0
-12.541336 -5.5619779 -1.2002863 0
-12.524742 -5.6049461 -1.2004899 0
-12.491504 -5.6404171 -1.19911 0
-12.464742 -5.6787219 -1.1983619 0
-12.473725 -5.7333951 -1.201067 0
-12.452622 -5.7743454 -1.2008924 0
-12.425447 -5.8124418 -1.2001444 0
-12.425206 -5.863184 -1.2020131 0
-12.37716 -5.8913317 -1.1992693 0
-12.375319 -5.9414291 -1.2010142 0
-12.323707 -5.9675756 -1.1979405 0
-12.34268 -6.0279326 -1.2017425 0
-12.30612 -6.0612626 -1.2001548 0
-12.267524 -6.0934463 -1.1983764 0
-12.264316 -6.1432037 -1.2000685 0
-12.255816 -6.190434 -1.2012608 0
-12.208872 -6.2181878 -1.1986964 0
-12.191669 -6.2609944 -1.1990618 0
-12.154021 -6.2932467 -1.1974275 0
-12.15558 -6.3458261 -1.1996704 0
-12.128456 -6.3835039 -1.1990991 0
-12.110557 -6.4260278 -1.1994529 0
-12.082003 -6.4628835 -1.1987642 0
-12.074896 -6.5112448 -1.2002184 0
-12.02793 -6.5380673 -1.1977223 0
-12.024022 -6.5882645 -1.199526 0
-12.005339 -6.6304603 -1.1998731 0
-11.993219 -6.6763406 -1.2008923 0
-11.973533 -6.7180657 -1.2011697 0
-11.955672 -6.760849 -1.2016454 0
-11.927372 -6.7977238 -1.2010849 0
-11.907913 -6.8396287 -1.2014279 0
-11.864834 -6.8678918 -1.199398 0
-11.835958 -6.9042602 -1.1988122 0
-11.825095 -6.9511666 -1.2000659 0
-11.796512 -6.9876881 -1.199536 0
-11.773939 -7.027751 -1.19963 0
-11.753181 -7.0689144 -1.1999232 0
-11.73597 -7.1122532 -1.2005937 0
-11.729668 -7.1623144 -1.2023989 0
-11.695366 -7.1953125 -1.2013489 0
-11.638728 -7.2143712 -1.1980089 0
-11.633248 -7.2650785 -1.1999454 0
-11.613649 -7.3070774 -1.2004442 0
-11.584737 -7.3432178 -1.1999937 0
-11.55775 -7.380549 -1.1997548 0
-11.533448 -7.4195857 -1.1998079 0
-11.517704 -7.4641738 -1.2007667 0
-11.517405 -7.5189333 -1.2033569 0
-11.467601 -7.5413752 -1.2007884 0
-11.425259 -7.5685244 -1.199005 0
-11.420424 -7.6205378 -1.2011722 0
-11.384877 -7.6521106 -1.2001253 0
-11.353251 -7.6862402 -1.1995013 0
-11.333049 -7.7281027 -1.2000977 0
-11.294255 -7.7572522 -1.1987371 0
-11.299167 -7.8165097 -1.2020332 0
-11.228159 -7.8231802 -1.1972629 0
-11.216677 -7.8711748 -1.1988459 0
-11.196112 -7.9129 -1.1994767 0
-11.19488 -7.9684463 -1.2022003 0
-11.15658 -7.9976773 -1.2009602 0
-11.131077 -8.0360298 -1.2011085 0
-11.08499 -8.059432 -1.1990443 0
-11.078188 -8.1114035 -1.2012438 0
-11.036187 -8.1376305 -1.1996412 0
-11.022141 -8.1844625 -1.2010905 0
-10.9632 -8.1978636 -1.1976562 0
-10.955074 -8.2491999 -1.1997832 0
-10.948394 -8.301837 -1.2020931 0
-10.904836 -8.326539 -1.2003691 0
-10.869012 -8.3570223 -1.1995034 0
-10.835596 -8.389286 -1.198913 0
-10.804293 -8.4231405 -1.1985675 0
-10.787621 -8.4684486 -1.1998612 0
-10.764884 -8.5090876 -1.2004986 0
-10.73696 -8.5456629 -1.2005731 0
-10.730527 -8.5994682 -1.203071 0
-10.689768 -8.6258221 -1.2017369 0
-10.641186 -8.645689 -1.1995273 0
-10.615216 -8.683836 -1.1998752 0
-10.577621 -8.7124434 -1.198921 0
-10.562389 -8.7595005 -1.2005165 0
-10.524595 -8.7878799 -1.199563 0
-10.520331 -8.8443527 -1.20245 0
-10.460218 -8.8538437 -1.1989655 0
-10.439126 -8.8962383 -1.1999601 0
-10.394138 -8.918232 -1.1982192 0
-10.361527 -8.9507408 -1.1979127 0
-10.348907 -9.0006056 -1.1999357 0
-10.313273 -9.0305262 -1.1993079 0
-10.295415 -9.0760536 -1.2007632 0
-10.249354 -9.0966997 -1.1989416 0
-10.249529 -9.158473 -1.2025472 0
-10.201798 -9.1775236 -1.2005507 0
-10.14922 -9.1919785 -1.1979834 0
-10.154917 -9.2593012 -1.2023133 0
-10.100195 -9.271615 -1.1995083 0
-10.076236 -9.3120651 -1.200364 0
-10.044813 -9.3456621 -1.2003467 0
-10.013713 -9.3795595 -1.2003815 0
-9.9760695 -9.4072924 -1.1996433 0
-9.9508896 -9.4467793 -1.2004174 0
-9.9232759 -9.4840231 -1.2009155 0
-9.8933353 -9.5190821 -1.2011478 0
-9.8522234 -9.5433445 -1.2000344 0
-9.8277168 -9.5836821 -1.2009566 0
-9.777668 -9.5990429 -1.1987667 0
-9.7423649 -9.6287432 -1.1983896 0
-9.7382269 -9.6894121 -1.2018701 0
-9.6821518 -9.6984358 -1.1989559 0
-9.6463137 -9.7275486 -1.1985501 0
-9.6141672 -9.7603674 -1.1986152 0
-9.5895491 -9.8008871 -1.199636 0
-9.5724096 -9.8492146 -1.2016163 0
-9.5409222 -9.8829002 -1.2018164 0
-9.4735775 -9.8792152 -1.197499 0
-9.4657164 -9.937499 -1.2007102 0
-9.4365635 -9.9736395 -1.2012472 0
-9.4064426 -10.00881 -1.2016779 0
-9.3446417 -10.010095 -1.1980637 0
-9.3438015 -10.076714 -1.2022809 0
-9.2801065 -10.075568 -1.1984252 0
-9.2701511 -10.132727 -1.20152 0
-9.2101688 -10.135187 -1.1981434 0
-9.1856995 -10.176606 -1.1993921 0
-9.141758 -10.196449 -1.1981117 0
-9.123374 -10.244846 -1.2001973 0
-9.0918541 -10.278634 -1.2005777 0
-9.0618391 -10.314178 -1.2011739 0
-9.0195141 -10.335688 -1.2001504 0
-8.9964657 -10.379318 -1.2017072 0
-8.9519396 -10.398185 -1.2004099 0
-8.9122276 -10.422529 -1.1997639 0
-8.8945951 -10.472795 -1.2021104 0
-8.8256874 -10.462555 -1.1975318 0
-8.8073635 -10.512144 -1.199821 0
-8.7853765 -10.557607 -1.2016412 0
-8.7361498 -10.570331 -1.1997489 0
-8.7053051 -10.60522 -1.2003893 0
-8.6729937 -10.638389 -1.2008455 0
-8.6221094 -10.648677 -1.1987369 0
-8.5877934 -10.679309 -1.1989372 0
-8.5654287 -10.724933 -1.2008283 0
-8.5116453 -10.731178 -1.1983256 0
-8.4936628 -10.782565 -1.200877 0
-8.4480095 -10.798898 -1.1995347 0
-8.4013872 -10.813816 -1.1980561 0
-8.3841028 -10.866575 -1.2007802 0
-8.3449183 -10.891095 -1.2003912 0
-8.3079672 -10.918503 -1.2003351 0
-8.2602091 -10.931601 -1.1987237 0
-8.2445564 -10.987281 -1.2017914 0
-8.2000685 -11.004659 -1.2006781 0
-8.1516304 -11.016554 -1.1989874 0
-8.1398888 -11.078176 -1.2027168 0
-8.072648 -11.064215 -1.198256 0
-8.0408497 -11.098594 -1.1990527 0
-8.012229 -11.137496 -1.2003466 0
-7.9787369 -11.169749 -1.2009329 0
-7.9402928 -11.1951 -1.2007893 0
-7.8853827 -11.19705 -1.198156 0
-7.856782 -11.236276 -1.1995279 0
-7.8086424 -11.247542 -1.1979289 0
-7.7914453 -11.303484 -1.201098 0
-7.7472439 -11.320397 -1.2001283 0
-7.7062626 -11.34192 -1.1996641 0
-7.6661592 -11.364679 -1.1993461 0
-7.6262321 -11.387661 -1.1990662 0
-7.5991197 -11.429878 -1.2008219 0
-7.5588078 -11.452343 -1.2005128 0
-7.5270615 -11.487837 -1.2015812 0
-7.4861274 -11.509358 -1.2012001 0
-7.4463773 -11.53266 -1.2010195 0
-7.3814106 -11.516593 -1.1967623 0
-7.3704772 -11.584848 -1.2012805 0
-7.3191657 -11.589815 -1.199244 0
-7.2822762 -11.617496 -1.1995752 0
-7.2414613 -11.638917 -1.1992733 0
-7.2109256 -11.676941 -1.2006934 0
-7.162487 -11.685965 -1.1991451 0
-7.1414289 -11.739772 -1.2022028 0
-7.0938997 -11.750187 -1.2008269 0
-7.05478 -11.774433 -1.2008808 0
-6.9976654 -11.768426 -1.1978683 0
-6.9829082 -11.833747 -1.2021273 0
-6.9282122 -11.83151 -1.1995336 0
-6.8833203 -11.845751 -1.1986309 0
-6.8658175 -11.907355 -1.2025284 0
-6.8143263 -11.910156 -1.2004973 0
-6.7734656 -11.931369 -1.2003396 0
-6.7555976 -11.993378 -1.2042923 0
-6.6781297 -11.949364 -1.1976178 0
-6.6538849 -12.000285 -1.2004787 0
-6.6230536 -12.039689 -1.2021922 0
-6.5745864 -12.047053 -1.2007197 0
-6.5360403 -12.072505 -1.2010655 0
-6.4875512 -12.079502 -1.1995909 0
-6.4467158 -12.100624 -1.1995353 0
-6.4144588 -12.137972 -1.2010988 0
-6.3625388 -12.138067 -1.1989906 0
-6.3148918 -12.146031 -1.1976792 0
-6.2848759 -12.187969 -1.1997299 0
-6.2553506 -12.231213 -1.2019154 0
-6.2088985 -12.241455 -1.2008694 0
-6.1686549 -12.263862 -1.2010318 0
-6.1203308 -12.2701 -1.1996263 0
-6.0806432 -12.293555 -1.1999196 0
-6.0445013 -12.324292 -1.2009349 0
-6.0002112 -12.338454 -1.2003478 0
-5.9567308 -12.354192 -1.1999291 0
-5.9186683 -12.38119 -1.2006172 0
-5.864429 -12.37418 -1.1980239 0
-5.8427892 -12.436089 -1.2021143 0
-5.7938104 -12.440042 -1.2006121 0
-5.7395425 -12.432265 -1.1979976 0
-5.7032175 -12.463219 -1.1991309 0
-5.6627183 -12.48518 -1.1994104 0
-5.6276565 -12.51929 -1.2008679 0
-5.583931 -12.53423 -1.2004982 0
-5.5415735 -12.5522 -1.2004331 0
-5.4812493 -12.52909 -1.1964587 0
-5.4611969 -12.598115 -1.2012949 0
-5.4204774 -12.619964 -1.2016386 0
-5.3708 -12.620831 -1.1999997 0
-5.3323851 -12.648089 -1.2008849 0
-5.2771382 -12.635226 -1.1979769 0
-5.2444186 -12.67623 -1.2001907 0
-5.2015228 -12.69285 -1.2001064 0
-5.1631231 -12.720532 -1.2010802 0
-5.1076932 -12.706052 -1.1980892 0
-5.0672331 -12.728556 -1.1986024 0
-5.0256643 -12.748355 -1.1988734 0
-4.9858594 -12.772732 -1.1995871 0
-4.9384761 -12.777654 -1.1984875 0
-4.8980293 -12.800471 -1.1990806 0
-4.855505 -12.817931 -1.1991844 0
-4.8132291 -12.836079 -1.1993656 0
-4.7773218 -12.871428 -1.2011652 0
-4.7234869 -12.858374 -1.1984622 0
-4.6887169 -12.897157 -1.200605 0
-4.6468043 -12.916573 -1.2009554 0
-4.5932069 -12.903244 -1.1982776 0
-4.5490532 -12.916114 -1.1980497 0
-4.5135012 -12.953618 -1.2001179 0
-4.4685216 -12.964259 -1.1997091 0
-4.4305058 -12.99523 -1.2011936 0
-4.3832736 -12.999228 -1.2001979 0
-4.3417835 -13.020204 -1.2007838 0
-4.2990546 -13.037567 -1.2010491 0
-4.2492876 -13.033411 -1.199347 0
-4.2133117 -13.071619 -1.2015562 0
-4.1585011 -13.051273 -1.1983976 0
-4.1157999 -13.068574 -1.1987123 0
-4.0820107 -13.11459 -1.2016711 0
-4.0320711 -13.108872 -1.1999017 0
-3.9793975 -13.093692 -1.1972842 0
-3.9363308 -13.109813 -1.1975448 0
-3.9004858 -13.150353 -1.2000467 0
-3.855607 -13.160742 -1.1998082 0
-3.8075447 -13.160063 -1.1985759 0
-3.7732644 -13.207282 -1.2017175 0
-3.7203619 -13.189371 -1.198946 0
-3.6859922 -13.237226 -1.202166 0
-3.6374454 -13.234432 -1.2007979 0
-3.5824249 -13.207373 -1.1972462 0
-3.5401943 -13.227048 -1.197947 0
-3.5007308 -13.257416 -1.1996275 0
-3.4587622 -13.278679 -1.2004956 0
-3.4121621 -13.282184 -1.1997713 0
-3.369792 -13.302162 -1.2005486 0
-3.3232372 -13.305633 -1.1998496 0
-3.2788572 -13.317716 -1.199941 0
-3.2338943 -13.327428 -1.1998324 0
-3.1891656 -13.338086 -1.1998225 0
-3.1444619 -13.348849 -1.1998357 0
-3.094059 -13.335056 -1.1976568 0
-3.05128 -13.353882 -1.198422 0
-3.0032721 -13.349734 -1.1971394 0
-2.9669535 -13.397921 -1.2005616 0
-2.9201972 -13.399446 -1.1998143 0
-2.8766863 -13.415836 -1.2004116 0
-2.8327038 -13.430217 -1.2008417 0
-2.7903821 -13.452767 -1.2020147 0
-2.7414792 -13.443499 -1.2003585 0
-2.6987548 -13.464411 -1.201411 0
-2.6529968 -13.470341 -1.2011398 0
-2.6093054 -13.486846 -1.2018247 0
-2.5612295 -13.480559 -1.2004924 0
-2.513649 -13.476374 -1.1993624 0
-2.4699361 -13.492837 -1.2000839 0
-2.4302061 -13.531795 -1.2028173 0
-2.3769798 -13.495337 -1.1988616 0
-2.3325827 -13.508232 -1.1993055 0
-2.2920029 -13.543892 -1.2017826 0
-2.240428 -13.514392 -1.1984917 0
-2.1981122 -13.540357 -1.2001339 0
-2.1542203 -13.557209 -1.2009808 0
-2.1052332 -13.541711 -1.1989758 0
-2.0582182 -13.538166 -1.1980442 0
-2.0156219 -13.563875 -1.1997145 0
-1.9726009 -13.587553 -1.2012171 0
-1.9266939 -13.591696 -1.2010055 0
-1.8787981 -13.581348 -1.1995277 0
-1.8354694 -13.604007 -1.2009788 0
-1.7918236 -13.625111 -1.2023047 0
-1.7423011 -13.601144 -1.1996676 0
-1.6976538 -13.614644 -1.2003496 0
-1.6500425 -13.604146 -1.1989294 0
-1.605754 -13.620908 -1.1999255 0
-1.560459 -13.629555 -1.2002196 0
-1.5120083 -13.610005 -1.1980449 0
-1.4644952 -13.59761 -1.1965147 0
-1.4220564 -13.632734 -1.1991793 0
-1.3775345 -13.649257 -1.2002196 0
-1.3311057 -13.647056 -1.1996269 0
-1.2859806 -13.658221 -1.2002226 0
-1.2376754 -13.634866 -1.1977988 0
-1.1945324 -13.66845 -1.2003906 0
-1.1522861 -13.715086 -1.2041402 0
-1.1028928 -13.676676 -1.2004366 0
-1.056707 -13.6761 -1.2000682 0
-1.0119655 -13.694693 -1.2013953 0
-0.96508646 -13.68443 -1.2002044 0
-0.91782343 -13.667095 -1.1984074 0
-0.87342566 -13.692523 -1.2003734 0
-0.82736528 -13.692941 -1.2001601 0
-0.7815302 -13.697029 -1.2002821 0
-0.73507899 -13.689828 -1.1994283 0
-0.68983352 -13.70529 -1.2005736 0
-0.64265096 -13.681395 -1.198285 0
-0.59848773 -13.722716 -1.2017215 0
-0.55131316 -13.695791 -1.199195 0
-0.50611371 -13.717159 -1.2009107 0
-0.45943552 -13.698376 -1.1991247 0
-0.41448423 -13.732286 -1.2019647 0
-0.36804801 -13.718982 -1.2006855 0
-0.32165584 -13.703399 -1.1992204 0
-0.27580288 -13.709061 -1.1996282 0
-0.22971191 -13.70242 -1.1989731 0
-0.18342027 -13.67711 -1.196698 0
-0.13802248 -13.723388 -1.2006998 0
-0.092016496 -13.724774 -1.2007873 0
-0.045922011 -13.701915 -1.1987672 0
1.8222427e-05 -13.73417 -1.2015824 0
0.046057545 -13.731483 -1.201354 0
0.091892384 -13.700839 -1.1986933 0
0.13825516 -13.742895 -1.2024066 0
0.18389747 -13.70998 -1.199574 0
0.22994643 -13.714239 -1.2000073 0
0.27634588 -13.734238 -1.2018316 0
0.32212904 -13.722007 -1.2008489 0
0.36787146 -13.711045 -1.1999909 0
0.41430962 -13.725293 -1.2013527 0
0.4604063 -13.726233 -1.2015634 0
0.50568068 -13.704436 -1.1997969 0
0.55216342 -13.716007 -1.2009653 0
0.59663963 -13.679506 -1.1979377 0
0.64285982 -13.685066 -1.1986066 0
0.68925643 -13.693101 -1.199506 0
0.73531747 -13.69359 -1.1997582 0
0.78143317 -13.69469 -1.2000773 0
0.82671827 -13.68163 -1.199169 0
0.87126631 -13.6581 -1.197356 0
0.92092365 -13.712716 -1.2024078 0
0.96423477 -13.671837 -1.1991 0
1.0116533 -13.689974 -1.2009816 0
1.0567578 -13.676285 -1.2000848 0
1.1031799 -13.679784 -1.2007096 0
1.1488763 -13.674066 -1.200539 0
1.1936884 -13.658375 -1.199506 0
1.2429152 -13.692185 -1.2028346 0
1.2865957 -13.664367 -1.200763 0
1.3298339 -13.633642 -1.1984481 0
1.377358 -13.647145 -1.2000343 0
1.4198459 -13.611193 -1.1972847 0
1.4670622 -13.621104 -1.1985825 0
1.5145609 -13.632653 -1.2000389 0
1.5610353 -13.634268 -1.200635 0
1.6071554 -13.632485 -1.2009457 0
1.6469072 -13.577995 -1.1966252 0
1.6986077 -13.622 -1.2009985 0
1.7457575 -13.627838 -1.2020226 0
1.7890786 -13.603958 -1.2004386 0
1.8323922 -13.580928 -1.1989417 0
1.8779662 -13.575068 -1.1989737 0
1.9233482 -13.567835 -1.1988975 0
1.9738752 -13.596077 -1.2019711 0
2.0151353 -13.560352 -1.1994034 0
2.0602403 -13.551225 -1.1992003 0
2.1067421 -13.551179 -1.1998147 0
2.149009 -13.52418 -1.1980554 0
2.202471 -13.566978 -1.2024941 0
2.2455654 -13.545158 -1.2012206 0
2.287936 -13.519642 -1.1996313 0
2.3348153 -13.520947 -1.2004352 0
2.379333 -13.508489 -1.2000304 0
2.4306157 -13.533869 -1.2030023 0
2.464812 -13.464643 -1.1975769 0
2.5148315 -13.482514 -1.1999096 0
2.5567124 -13.45659 -1.1983584 0
2.602978 -13.453951 -1.1988939 0
2.6593509 -13.502415 -1.2040004 0
2.696619 -13.453569 -1.2004443 0
2.7418873 -13.445316 -1.2005215 0
2.7819123 -13.411755 -1.1983509 0
2.8298042 -13.416292 -1.1995972 0
2.8772149 -13.418129 -1.2006173 0
2.9176614 -13.38764 -1.1987578 0
2.9579241 -13.356977 -1.1968936 0
3.0121105 -13.388856 -1.2006483 0
3.0527461 -13.360135 -1.1989839 0
3.0943067 -13.335964 -1.197739 0
3.1423552 -13.339747 -1.1990184 0
3.1889756 -13.337135 -1.1997378 0
3.2364113 -13.337646 -1.2007532 0
3.2780881 -13.314439 -1.1996466 0
3.3245807 -13.310862 -1.2003219 0
3.3672609 -13.292022 -1.1996343 0
3.4157715 -13.296087 -1.2010281 0
3.4618514 -13.290395 -1.2015555 0
3.4986002 -13.249205 -1.1988854 0
3.5461667 -13.249222 -1.1999562 0
3.5887151 -13.230423 -1.1993365 0
3.6324005 -13.21594 -1.1991209 0
3.6782012 -13.209111 -1.1996136 0
3.7233205 -13.199726 -1.1998881 0
3.7647038 -13.177185 -1.1989799 0
3.8150806 -13.185979 -1.200937 0
3.8552761 -13.159483 -1.1996944 0
3.89938 -13.146498 -1.1996958 0
3.9454741 -13.140138 -1.2003158 0
3.9787548 -13.091453 -1.1970805 0
4.0319519 -13.108361 -1.1998559 0
4.0741625 -13.089252 -1.1993505 0
4.1167727 -13.071541 -1.1989856 0
4.1603007 -13.056802 -1.1989063 0
4.2066097 -13.050708 -1.1996351 0
4.2539864 -13.047707 -1.2006634 0
4.2921791 -13.016601 -1.1991186 0
4.3340507 -12.996899 -1.1986356 0
4.3899508 -13.018915 -1.2020167 0
4.4231453 -12.973528 -1.1991887 0
4.4651885 -12.954478 -1.198805 0
4.5116839 -12.948293 -1.1996256 0
4.5650854 -12.961525 -1.2022629 0
4.6056533 -12.9381 -1.2015157 0
4.6331515 -12.878514 -1.197418 0
4.690166 -12.901035 -1.2009673 0
4.7260718 -12.865304 -1.1991094 0
4.7773633 -12.871433 -1.2011669 0
4.8150973 -12.840957 -1.1998227 0
4.8534789 -12.81248 -1.1986756 0
4.8967028 -12.796902 -1.1987474 0
4.9464111 -12.798084 -1.200405 0
4.9956408 -12.797689 -1.2019322 0
5.0269146 -12.751428 -1.1991636 0
5.0663271 -12.726181 -1.1983801 0
5.1159658 -12.726534 -1.2000217 0
5.1552181 -12.70096 -1.1992334 0
5.2079883 -12.708532 -1.2015903 0
5.24895 -12.687087 -1.2012199 0
5.2786632 -12.638783 -1.1983154 0
5.3284893 -12.638757 -1.2 0
5.37323 -12.626449 -1.2005352 0
5.4046912 -12.583118 -1.1981316 0
5.4642048 -12.604961 -1.2019491 0
5.4978728 -12.566997 -1.2000799 0
5.5379477 -12.543896 -1.1996404 0
5.5837302 -12.53369 -1.200448 0
5.6226072 -12.50797 -1.1997834 0
5.6710572 -12.503478 -1.2011696 0
5.7015862 -12.459566 -1.1987809 0
5.7440515 -12.441946 -1.1989318 0
5.7867346 -12.424764 -1.199139 0
5.8301835 -12.409173 -1.199514 0
5.871716 -12.389471 -1.1995059 0
5.9100051 -12.362985 -1.1988533 0
5.9663854 -12.374132 -1.2018673 0
6.0079784 -12.354343 -1.201895 0
6.0277519 -12.29006 -1.1976006 0
6.0782104 -12.288555 -1.1994331 0
6.1228943 -12.275157 -1.2001224 0
6.1707006 -12.267849 -1.2014239 0
6.2031951 -12.230129 -1.19976 0
6.2546058 -12.229676 -1.201766 0
6.2862477 -12.190551 -1.1999856 0
6.3318629 -12.178596 -1.2008919 0
6.3619356 -12.136838 -1.1988709 0
6.4042873 -12.118647 -1.1991882 0
6.450635 -12.107903 -1.2002585 0
6.484786 -12.074276 -1.1990737 0
6.5323534 -12.065619 -1.2003822 0
6.5755935 -12.048821 -1.2008977 0
6.6152234 -12.025379 -1.2007651 0
6.6637044 -12.01792 -1.2022445 0
6.6891012 -11.968922 -1.1995796 0
6.7417135 -11.968655 -1.2018116 0
6.7704544 -11.925991 -1.1998003 0
6.7949147 -11.876155 -1.1970718 0
6.844079 -11.869581 -1.1987154 0
6.8961539 -11.867764 -1.2008601 0
6.9254065 -11.826646 -1.1990424 0
6.9601636 -11.795131 -1.1982064 0
7.0158191 -11.798884 -1.2009705 0
7.0481329 -11.763268 -1.1997439 0
7.1003404 -11.760784 -1.2019119 0
7.1341152 -11.727678 -1.2009664 0
7.1652088 -11.690336 -1.1995957 0
7.2063298 -11.66943 -1.1999229 0
7.2527347 -11.656968 -1.2011353 0
7.2808747 -11.615191 -1.1993393 0
7.3273463 -11.602701 -1.2005794 0
7.3662939 -11.578205 -1.2005936 0
7.3930187 -11.534636 -1.1986394 0
7.447021 -11.533589 -1.2011185 0
7.4851866 -11.507845 -1.2010443 0
7.5168905 -11.472248 -1.1999527 0
7.5502582 -11.439323 -1.1991501 0
7.5971456 -11.426844 -1.2005051 0
7.6287971 -11.391425 -1.1994647 0
7.6637983 -11.361115 -1.198972 0
7.7105446 -11.348157 -1.200326 0
7.7445221 -11.316357 -1.1997021 0
7.769587 -11.271709 -1.1977239 0
7.8110662 -11.25097 -1.1982961 0
7.8662271 -11.24972 -1.2009653 0
7.8823915 -11.192739 -1.1976969 0
7.9348073 -11.187303 -1.1999552 0
7.9743619 -11.163562 -1.2002699 0
8.0055847 -11.128197 -1.1993467 0
8.0272636 -11.07978 -1.1970224 0
8.0938272 -11.093181 -1.2013953 0
8.1273785 -11.061087 -1.200864 0
8.1481094 -11.011734 -1.1984651 0
8.2000017 -11.004507 -1.200664 0
8.2467308 -10.990118 -1.2021041 0
8.277257 -10.954103 -1.2011935 0
8.3083525 -10.918948 -1.2003865 0
8.3484879 -10.895694 -1.2009006 0
8.3803539 -10.861656 -1.2002391 0
8.4056711 -10.819271 -1.198663 0
8.4430275 -10.79247 -1.1988232 0
8.4872293 -10.77434 -1.1999633 0
8.5139093 -10.733974 -1.1986403 0
8.5579147 -10.715466 -1.1997709 0
8.5765505 -10.665271 -1.1973636 0
8.6164255 -10.641599 -1.1979427 0
8.6757784 -10.641747 -1.2012272 0
8.7118816 -10.613174 -1.2012923 0
8.7293148 -10.562003 -1.1988063 0
8.7749033 -10.544964 -1.2002048 0
8.7972593 -10.500028 -1.1984408 0
8.8438749 -10.484059 -1.1999959 0
8.8773289 -10.452409 -1.1997732 0
8.898818 -10.406792 -1.197955 0
8.9493494 -10.395121 -1.2000588 0
8.9845972 -10.36557 -1.2001183 0
9.0268822 -10.344076 -1.2011272 0
9.0557337 -10.307176 -1.2003611 0
9.1040621 -10.29238 -1.2021862 0
9.1170502 -10.237689 -1.1993618 0
9.1538076 -10.209834 -1.1996874 0
9.190877 -10.182287 -1.2000645 0
9.2163086 -10.14189 -1.1989385 0
9.2537527 -10.114749 -1.1993911 0
9.2922478 -10.088697 -1.1999897 0
9.3165398 -10.04726 -1.1987696 0
9.3654633 -10.032345 -1.2007298 0
9.3832941 -9.9841261 -1.1987174 0
9.4307728 -9.9674664 -1.2005068 0
9.4545317 -9.925705 -1.1992881 0
9.5009127 -9.9076681 -1.200951 0
9.5299625 -9.8714952 -1.2004327 0
9.5520048 -9.8281679 -1.1990516 0
9.5989733 -9.8104668 -1.2008117 0
9.6184387 -9.7646523 -1.1991445 0
9.6733313 -9.7547426 -1.2019038 0
9.6969891 -9.7132463 -1.20079 0
9.7247839 -9.6759853 -1.2002078 0
9.7471313 -9.6334038 -1.1989729 0
9.7665997 -9.5881262 -1.1974065 0
9.8213606 -9.5774326 -1.2001766 0
9.8491306 -9.5402975 -1.1996546 0
9.867075 -9.4937639 -1.1979564 0
9.9324408 -9.4927311 -1.2020215 0
9.9522953 -9.4480639 -1.2005841 0
9.9859409 -9.4165516 -1.2008274 0
10.011138 -9.3770981 -1.2000699 0
10.063097 -9.3626232 -1.2025286 0
10.082047 -9.3173866 -1.2010534 0
10.100713 -9.2720404 -1.1995668 0
10.149871 -9.2546511 -1.2017131 0
10.168432 -9.2093287 -1.2002481 0
10.213459 -9.1879644 -1.2019199 0
10.230101 -9.1410637 -1.2002649 0
10.270011 -9.1149845 -1.2013551 0
10.28082 -9.063138 -1.1990582 0
10.301318 -9.02001 -1.197915 0
10.319505 -8.9749851 -1.1965238 0
10.386526 -8.9722872 -1.2008001 0
10.40132 -8.924346 -1.1990443 0
10.425057 -8.884202 -1.1983402 0
10.452868 -8.8475742 -1.1981202 0
10.486399 -8.8157787 -1.1985689 0
10.514081 -8.7790537 -1.198362 0
10.571401 -8.7669268 -1.2015381 0
10.572568 -8.7082329 -1.1983455 0
10.619866 -8.6875925 -1.2003982 0
10.635683 -8.6411705 -1.1989044 0
10.666209 -8.6067657 -1.199086 0
10.697504 -8.572957 -1.199366 0
10.731219 -8.5410471 -1.1999286 0
10.765272 -8.5093479 -1.2005394 0
10.788223 -8.468874 -1.1999255 0
10.825952 -8.4399796 -1.2009677 0
10.849268 -8.399826 -1.2004234 0
10.860764 -8.3506346 -1.1985906 0
10.889154 -8.3145199 -1.1986406 0
10.926588 -8.2852564 -1.1996965 0
10.958993 -8.2521048 -1.20021 0
11.003715 -8.2281132 -1.2020797 0
11.022176 -8.1844425 -1.2010919 0
11.026612 -8.1305246 -1.198598 0
11.071034 -8.1061211 -1.2004657 0
11.088647 -8.0620461 -1.1994377 0
11.127353 -8.0332966 -1.2007043 0
11.168358 -8.0060749 -1.2022257 0
11.176884 -7.9555917 -1.2002654 0
11.203569 -7.9181261 -1.2002735 0
11.219017 -7.8727727 -1.1990938 0
11.244603 -7.8345928 -1.1990142 0
11.296681 -7.8147464 -1.2017666 0
11.311179 -7.7688327 -1.2005312 0
11.324802 -7.7224355 -1.1992223 0
11.344279 -7.6801219 -1.1985512 0
11.378512 -7.6477885 -1.1994522 0
11.416803 -7.6180787 -1.2007893 0
11.442513 -7.5799108 -1.2008137 0
11.458465 -7.5353236 -1.1998297 0
11.509562 -7.5137691 -1.2025353 0
11.50036 -7.4528909 -1.1989565 0
11.525962 -7.4147267 -1.1990271 0
11.565277 -7.3853126 -1.2005342 0
11.582956 -7.3420463 -1.1998073 0
11.609318 -7.3043089 -1.1999944 0
11.60646 -7.2483053 -1.1971803 0
11.63579 -7.2125077 -1.1977046 0
11.698913 -7.1974521 -1.2017112 0
11.725188 -7.1595364 -1.2019377 0
11.737584 -7.1131887 -1.2007569 0
11.737982 -7.0597301 -1.1983694 0
11.791528 -7.0382066 -1.2014201 0
11.799208 -6.9892426 -1.1998082 0
11.806752 -6.9403419 -1.1982025 0
11.847774 -6.9111109 -1.2000072 0
11.852319 -6.8606057 -1.1981311 0
11.90008 -6.8350873 -1.2006357 0
11.913431 -6.7897367 -1.1996793 0
11.942386 -6.753293 -1.200308 0
11.949804 -6.704711 -1.1987876 0
11.97889 -6.6683226 -1.1994557 0
12.028158 -6.6430216 -1.202152 0
12.024073 -6.5882506 -1.1995293 0
12.049582 -6.5497952 -1.1998765 0
12.075739 -6.5116577 -1.2003005 0
12.120456 -6.4834113 -1.2025777 0
12.099519 -6.4201298 -1.1983579 0
12.169956 -6.4053054 -1.2032005 0
12.162442 -6.3493676 -1.2003461 0
12.195346 -6.3146029 -1.2014972 0
12.185783 -6.2579308 -1.1984812 0
12.219445 -6.2235322 -1.1997329 0
12.244403 -6.184629 -1.2001407 0
12.258352 -6.1401758 -1.1994833 0
12.277878 -6.0985489 -1.1993864 0
12.295025 -6.0557575 -1.1990713 0
12.323804 -6.0186734 -1.1999031 0
12.34095 -5.9758849 -1.1996151 0
12.355881 -5.9320569 -1.1991262 0
12.384114 -5.8946013 -1.1999416 0
12.421672 -5.8614759 -1.2016697 0
12.40511 -5.8028879 -1.1981785 0
12.44334 -5.7700009 -1.1999958 0
12.448879 -5.7219348 -1.1986731 0
12.488476 -5.6894951 -1.2006423 0
12.506755 -5.6472635 -1.2005725 0
5.13975 -2.3000729 -0.49264175 0
5.1671996 -2.2915936 -0.49453354 0
5.1831675 -2.2779098 -0.49532807 0
5.1254277 -2.2320604 -0.4890922 0
5.1363091 -2.216342 -0.48941875 0
5.1468854 -2.2004654 -0.48972073 0
5.1642704 -2.1874475 -0.49067432 0
5.1397824 -2.1567793 -0.48765785 0
5.1383638 -2.1359508 -0.48684102 0
5.1681576 -2.128042 -0.48898512 0
5.1341434 -2.0939314 -0.48509985 0
5.1410704 -2.0766797 -0.48509377 0
5.2155409 -2.0864487 -0.49145773 0
5.2828074 -2.092839 -0.49713221 0
5.3021827 -2.0799747 -0.49829644 0
5.3550272 -2.0800145 -0.50260454 0
5.4253192 -2.08641 -0.50854242 0
5.454423 -2.0766373 -0.51061499 0
12.841926 -4.8400116 -1.2006691 0
12.856376 -4.7962918 -1.2005098 0
12.854733 -4.7466421 -1.1988635 0
12.874024 -4.7047763 -1.1991848 0
12.911977 -4.6696324 -1.2012548 0
12.91011 -4.6200705 -1.1996334 0
12.921087 -4.5751863 -1.1992211 0
12.933577 -4.5308657 -1.1989636 0
12.965327 -4.4932408 -1.2005038 0
12.95236 -4.4401603 -1.1979179 0
12.989334 -4.404222 -1.1999651 0
13.021362 -4.3664594 -1.2015647 0
13.021066 -4.3178477 -1.2001946 0
13.026912 -4.2713604 -1.1994066 0
13.019654 -4.2206883 -1.1974288 0
13.072089 -4.1893044 -1.2009528 0
13.061978 -4.1378236 -1.1987425 0
13.095374 -4.100141 -1.200539 0
13.101016 -4.0537271 -1.1998035 0
13.110546 -4.0085597 -1.1994387 0
13.113137 -3.9613249 -1.1984539 0
13.148943 -3.9240808 -1.2005172 0
13.159719 -3.8792927 -1.2003067 0
13.174136 -3.8355811 -1.200442 0
13.186005 -3.7911253 -1.2003585 0
13.217133 -3.7521431 -1.2020401 0
13.198504 -3.6990817 -1.1992112 0
13.21643 -3.6563575 -1.1997194 0
13.236999 -3.6143138 -1.2004797 0
13.255315 -3.5716026 -1.2010481 0
13.254174 -3.5236728 -1.1998675 0
13.265229 -3.4790347 -1.1998056 0
13.286554 -3.4370577 -1.2006854 0
13.275769 -3.3868189 -1.1986778 0
13.277211 -3.3398137 -1.1977903 0
13.280757 -3.2933998 -1.1971072 0
13.330441 -3.258317 -1.2005942 0
13.337615 -3.2127187 -1.2002634 0
13.341091 -3.1662686 -1.1996142 0
13.368155 -3.1253839 -1.2010988 0
13.379932 -3.0808616 -1.2012221 0
13.382356 -3.0342081 -1.2005194 0
13.387744 -2.9882712 -1.2000973 0
13.372912 -2.9379251 -1.197878 0
13.409626 -2.8988953 -1.2002894 0
13.401887 -2.8502221 -1.1987345 0
13.446379 -2.8125954 -1.2018638 0
13.436256 -2.7634904 -1.2001241 0
13.442071 -2.7177432 -1.1998229 0
13.465866 -2.6755917 -1.2011393 0
13.453897 -2.6263554 -1.1992795 0
13.463931 -2.5814819 -1.1993957 0
13.473774 -2.5365634 -1.1995081 0
13.483122 -2.491544 -1.1995898 0
13.50567 -2.448911 -1.2008586 0
13.501911 -2.4015 -1.1998019 0
13.514982 -2.3571057 -1.2002543 0
13.492905 -2.3066671 -1.1976001 0
13.521879 -2.2649853 -1.199491 0
13.534972 -2.2205513 -1.1999853 0
13.530365 -2.1732347 -1.1989241 0
13.544231 -2.1289041 -1.1995136 0
13.551539 -2.0835187 -1.1995354 0
13.532231 -2.0341303 -1.1972159 0
13.559175 -1.9917151 -1.199002 0
13.563552 -1.9459232 -1.1988055 0
13.584168 -1.9024204 -1.200057 0
13.591135 -1.8569554 -1.2001157 0
13.590348 -1.8104523 -1.1995035 0
13.598464 -1.7651519 -1.1996908 0
13.607045 -1.719895 -1.1999323 0
13.613334 -1.6743373 -1.1999851 0
13.616275 -1.6283743 -1.1997564 0
13.612879 -1.5816925 -1.1989831 0
13.621915 -1.5364718 -1.1993185 0
13.633085 -1.4914582 -1.199855 0
13.64243 -1.4462094 -1.2002439 0
13.658948 -1.401666 -1.2012769 0
13.626956 -1.3522289 -1.1980578 0
13.658904 -1.3091676 -1.200474 0
13.68279 -1.2651744 -1.2021937 0
13.682798 -1.2189212 -1.2018286 0
13.65001 -1.1698847 -1.1985974 0
13.687413 -1.1268749 -1.2015432 0
13.67602 -1.0797856 -1.2002186 0
13.701614 -1.035593 -1.2021532 0
13.675426 -0.98751199 -1.1995583 0
13.679493 -0.94171268 -1.1996313 0
13.700105 -0.89699048 -1.2011684 0
13.688157 -0.85012758 -1.1998643 0
13.676602 -0.80338728 -1.1986085 0
13.706522 -0.7590397 -1.2010009 0
13.69018 -0.71210164 -1.199353 0
13.698653 -0.66649687 -1.1998928 0
13.697948 -0.62043452 -1.1996421 0
13.739532 -0.57616419 -1.2031081 0
13.695214 -0.5283137 -1.1990654 0
13.746648 -0.48414505 -1.2034197 0
13.709949 -0.43683386 -1.2000721 0
13.707521 -0.39075574 -1.1997381 0
13.745251 -0.34571275 -1.2029321 0
13.694139 -0.29848793 -1.1983646 0
13.711541 -0.25287628 -1.1998066 0
13.716168 -0.20696084 -1.2001441 0
13.725904 -0.16107896 -1.2009418 0
13.72257 -0.11502588 -1.2006097 0
13.693115 -0.068866357 -1.1980057 0
13.709202 -0.022982247 -1.1993996 0
13.727957 0.023013689 -1.2010405 0
13.708364 0.068943053 -1.1993399 0
13.714249 0.11495613 -1.1998817 0
13.708306 0.16087246 -1.1994022 0
13.702519 0.20675491 -1.1989498 0
13.717486 0.25298592 -1.2003268 0
13.708748 0.29880634 -1.1996431 0
13.726154 0.34523246 -1.2012608 0
13.72805 0.39134094 -1.2015349 0
13.703599 0.4366315 -1.1995162 0
13.69958 0.48248735 -1.1992993 0
13.70529 0.52870238 -1.1999475 0
13.711172 0.57497489 -1.2006246 0
13.689995 0.62007427 -1.1989455 0
13.686251 0.66589344 -1.1988064 0
13.691278 0.71215874 -1.1994491 0
13.675894 0.75734353 -1.1983171 0
13.733955 0.80675632 -1.2036349 0
13.679763 0.84960616 -1.1991284 0
13.669991 0.89501888 -1.1985282 0
13.68878 0.942352 -1.2004457 0
13.676557 0.98759365 -1.1996574 0
13.685618 1.034384 -1.2007498 0
13.658023 1.0783646 -1.198639 0
13.661055 1.124705 -1.1992294 0
13.661273 1.17085 -1.1995864 0
13.609969 1.2124333 -1.1954317 0
13.671083 1.264092 -1.2011652 0
13.663809 1.3096378 -1.200905 0
13.642791 1.3538003 -1.19945 0
13.630826 1.3987802 -1.1988037 0
13.642667 1.4462345 -1.2002647 0
13.631824 1.4913203 -1.199744 0
13.637785 1.5382618 -1.2007158 0
13.63168 1.5838768 -1.200639 0
13.618691 1.6286634 -1.1999693 0
13.615874 1.6746497 -1.200209 0
13.631214 1.72295 -1.2020637 0
13.598619 1.765172 -1.1997044 0
13.585999 1.809873 -1.1991196 0
13.589396 1.8567179 -1.1999623 0
13.615026 1.9067421 -1.2027832 0
13.555408 1.9447547 -1.1980855 0
13.59053 1.9963208 -1.2017747 0
13.551792 2.0370705 -1.1989464 0
13.539489 2.0816658 -1.1984687 0
13.574227 2.1336188 -1.20217 0
13.556095 2.1773677 -1.2012041 0
