# .PCD v0.7 - Point Cloud Data file format
VERSION 0.7
FIELDS x y z intensity
SIZE 4 4 4 4
TYPE F F F F
COUNT 1 1 1 1
WIDTH 1401
HEIGHT 1
VIEWPOINT 0 0 0 1 0 0 0
POINTS 1401
DATA ascii
-1.467231 9.6508808 -1.1985935 0
-1.4993374 9.6443443 -1.1983993 0
-1.5320168 9.6414795 -1.1986748 0
-1.569379 9.6673641 -1.2025404 0
-1.5972182 9.6345119 -1.1991134 0
-1.6289955 9.6260519 -1.1987334 0
-1.6668584 9.6529522 -1.2027725 0
-1.6963102 9.630826 -1.2007174 0
-1.7239336 9.5991516 -1.1974823 0
-1.7638491 9.6356058 -1.2027609 0
-1.7955283 9.6263275 -1.2023475 0
-1.8250605 9.6058693 -1.2005497 0
-1.8563117 9.5948105 -1.1999388 0
-1.8868461 9.5802832 -1.1989064 0
-1.9164741 9.5615196 -1.1973556 0
-1.9565445 9.5943832 -1.2022858 0
-1.9858674 9.5741053 -1.2005723 0
-2.0156605 9.5565081 -1.1992064 0
-2.0458565 9.5411434 -1.1981323 0
-2.0842416 9.5636292 -1.2018268 0
-2.1149039 9.5503054 -1.2010368 0
-2.148257 9.5491381 -1.201789 0
-2.1786699 9.5349169 -1.2009119 0
-2.2133756 9.5394068 -1.2024052 0
-2.2383096 9.5020571 -1.1986367 0
-2.274596 9.5130701 -1.2009811 0
-2.2996769 9.4773588 -1.1974394 0
-2.3367033 9.4909744 -1.2001429 0
-2.3620989 9.4574108 -1.1968935 0
-2.3978617 9.4654942 -1.1989272 0
-2.4313598 9.4643116 -1.1998032 0
-2.4673209 9.4723959 -1.20187 0
-2.5006316 9.4699974 -1.2026228 0
-2.5302308 9.4535732 -1.2016076 0
-2.5598073 9.4372749 -1.2006202 0
-2.589226 9.4206047 -1.199597 0
-2.6135674 9.3859072 -1.1962878 0
-2.6591675 9.4272404 -1.2026856 0
-2.6808448 9.3835649 -1.1982536 0
-2.7188065 9.3970442 -1.2011322 0
-2.7452686 9.3707085 -1.1989357 0
-2.7798862 9.3722906 -1.2003238 0
-2.8040879 9.3389168 -1.197247 0
-2.8395243 9.3430872 -1.1989954 0
-2.8756824 9.3492775 -1.2010204 0
-2.9055858 9.3349991 -1.2004309 0
-2.930393 9.3046455 -1.1977843 0
-2.9709187 9.3240986 -1.201564 0
-2.9990921 9.304554 -1.2003344 0
-3.0327313 9.3019905 -1.2013087 0
-3.059973 9.2798548 -1.1997683 0
-3.0975721 9.2890444 -1.2022923 0
-3.1144562 9.2363663 -1.1968189 0
-3.1523788 9.2463236 -1.199472 0
-3.1925366 9.2623186 -1.2029288 0
-3.2171526 9.2331352 -1.2005327 0
-3.2453687 9.2145662 -1.1995263 0
-3.2767379 9.205018 -1.1997068 0
-3.3027275 9.1804848 -1.197946 0
-3.3361466 9.1766691 -1.1989008 0
-3.3693147 9.1720181 -1.1997623 0
-3.4051859 9.1745129 -1.2015754 0
-3.4329896 9.1552105 -1.2005481 0
-3.4605803 9.1355038 -1.1994785 0
-3.4891067 9.1184034 -1.1987625 0
-3.5181959 9.1028671 -1.1982641 0
-3.5613639 9.1234713 -1.2025415 0
-3.5795367 9.0800343 -1.1983913 0
-3.6116574 9.0722456 -1.1989547 0
-3.6348615 9.0421915 -1.1965867 0
-3.6816707 9.0706358 -1.2019777 0
-3.7138181 9.0625267 -1.2025464 0
-3.7336423 9.0245476 -1.1991612 0
-3.7735267 9.035079 -1.202235 0
-3.7951748 9.0019217 -1.1995094 0
-3.823905 8.9857855 -1.1990609 0
-3.8654475 8.9995403 -1.202619 0
-3.8882816 8.9696484 -1.2003599 0
-3.917084 8.9537058 -1.1999772 0
-3.9441867 8.9339638 -1.1990969 0
-3.9743268 8.9211578 -1.1991597 0
-4.0133619 8.9281301 -1.2018989 0
-4.0317674 8.8892536 -1.1984786 0
-4.0723128 8.899209 -1.2016549 0
-4.0989738 8.8786745 -1.2007312 0
-4.1296864 8.8669577 -1.2010124 0
-4.1579962 8.850091 -1.2006092 0
-4.1818333 8.8238354 -1.1989428 0
-4.2151747 8.8176727 -1.200019 0
-4.2509203 8.8163605 -1.2017733 0
-4.2803354 8.8018103 -1.2017394 0
-4.2936077 8.7543497 -1.1972182 0
-4.319994 8.7339582 -1.1964037 0
-4.3665686 8.7541389 -1.2011669 0
-4.3903713 8.7284689 -1.1996576 0
-4.4202285 8.7149162 -1.199825 0
-4.4381356 8.6779757 -1.1967813 0
-4.4777083 8.6834126 -1.1995947 0
-4.4956594 8.6469297 -1.1966302 0
-4.5306735 8.6433458 -1.1982298 0
-4.575583 8.6582985 -1.2024226 0
-4.6048779 8.6434546 -1.2024987 0
-4.6274862 8.6161518 -1.2008519 0
-4.6612163 8.6095791 -1.2021073 0
-4.6910944 8.5958052 -1.2023734 0
-4.7123289 8.5662861 -1.2004477 0
-4.7423897 8.5529032 -1.2007936 0
-4.7755389 8.5450048 -1.201926 0
-4.7962074 8.5148239 -1.1999359 0
-4.8220072 8.4939013 -1.199259 0
-4.8515892 8.4796619 -1.1995386 0
-4.8877077 8.4767284 -1.201435 0
-4.9109325 8.4513979 -1.2001718 0
-4.9430399 8.4413729 -1.201095 0
-4.9621944 8.409297 -1.1988915 0
-5.0013165 8.4110374 -1.2015234 0
-5.0245576 8.3859901 -1.2003454 0
-5.0423894 8.352108 -1.1979086 0
-5.0778646 8.3474846 -1.1996807 0
-5.1145077 8.3445816 -1.2017212 0
-5.1315212 8.3096781 -1.1991657 0
-5.1615052 8.295886 -1.1996659 0
-5.1819224 8.2667789 -1.1979625 0
-5.2247152 8.2732763 -1.2014358 0
-5.2457747 8.2452602 -1.1999148 0
-5.2693276 8.2212877 -1.1989905 0
-5.3085771 8.2217178 -1.2016422 0
-5.3240843 8.185379 -1.1989334 0
-5.345664 8.1585789 -1.1976264 0
-5.3914099 8.16852 -1.2017324 0
-5.4253983 8.1603718 -1.2032031 0
-5.4205284 8.0940542 -1.1960979 0
-5.4639602 8.1000357 -1.1996821 0
-5.492137 8.0832148 -1.1999115 0
-5.5160494 8.0601406 -1.1992248 0
-5.5435162 8.0422878 -1.1993272 0
-5.5783029 8.0349684 -1.2010182 0
-5.6190071 8.0359507 -1.2039741 0
-5.615231 7.9734907 -1.1974303 0
-5.6683159 7.9918165 -1.2030296 0
-5.6874094 7.962029 -1.2014093 0
-5.7024612 7.926775 -1.1989681 0
-5.7310739 7.9104652 -1.1994008 0
-5.7632041 7.8989358 -1.2005757 0
-5.7581143 7.8366418 -1.1940352 0
-5.8323541 7.8821583 -1.203943 0
-5.8424106 7.8406329 -1.2005857 0
-5.8576317 7.8062959 -1.1983284 0
-5.8830853 7.7857037 -1.1981885 0
-5.9048443 7.7602682 -1.1973141 0
-5.9468889 7.7613859 -1.2005562 0
-5.966229 7.7327857 -1.1992198 0
-5.9992132 7.7218666 -1.200639 0
-6.0175591 7.6921082 -1.1991423 0
-6.0394063 7.6669264 -1.1983666 0
-6.0668979 7.6489291 -1.1987263 0
-6.1042614 7.6432595 -1.2010385 0
-6.1186075 7.6087651 -1.198835 0
-6.1354609 7.5775585 -1.1971525 0
-6.1782274 7.5782814 -1.2005327 0
-6.1836715 7.5332451 -1.1966758 0
-6.2326884 7.5412598 -1.2012618 0
-6.2529221 7.5142932 -1.200299 0
-6.2752495 7.4899063 -1.1997577 0
-6.3009596 7.4695754 -1.1998782 0
-6.3314757 7.4548922 -1.2009228 0
-6.3548441 7.4317608 -1.2006222 0
-6.3945298 7.427609 -1.2034084 0
-6.3830318 7.364172 -1.1965911 0
-6.4326029 7.3712816 -1.201244 0
-6.4270639 7.31528 -1.1956227 0
-6.4557037 7.2983809 -1.1963917 0
-6.5038857 7.3033624 -1.2007762 0
-6.5196886 7.2718701 -1.1991856 0
-6.5384974 7.2438369 -1.1981711 0
-6.5654783 7.2248783 -1.1986697 0
-6.600256 7.2144012 -1.2005962 0
-6.6172457 7.1844559 -1.1992983 0
-6.6446519 7.1658478 -1.1999041 0
-6.6714706 7.1465611 -1.2004133 0
-6.6942668 7.1229529 -1.2002113 0
-6.7123184 7.094346 -1.1991764 0
-6.7488489 7.0852203 -1.2014519 0
-6.7751203 7.0652161 -1.201905 0
-6.7823448 7.0254459 -1.1990012 0
-6.804594 7.0013628 -1.1987779 0
-6.8457179 6.9965863 -1.2018833 0
-6.8374796 6.9414554 -1.1963441 0
-6.8914938 6.9495296 -1.2017113 0
-6.9277654 6.9394164 -1.2039722 0
-6.9371414 6.9023676 -1.201573 0
-6.9446654 6.8636727 -1.1988835 0
-6.9774241 6.849956 -1.2005671 0
-6.9840202 6.8105979 -1.1977664 0
-7.0307851 6.8103614 -1.2018638 0
-7.0514979 6.7847476 -1.2015091 0
-7.058105 6.7456784 -1.1987745 0
-7.0749927 6.7165747 -1.1978111 0
-7.1187243 6.7128563 -1.2013978 0
-7.1433606 6.6909828 -1.2017627 0
-7.16506 6.6663489 -1.2016463 0
-7.1767473 6.6324711 -1.1998702 0
-7.2019429 6.611124 -1.20037 0
-7.2065258 6.5709443 -1.197455 0
-7.2400193 6.5571637 -1.1993606 0
-7.2652798 6.5358353 -1.1999083 0
-7.3010354 6.5238447 -1.2021943 0
-7.3189926 6.4958901 -1.2015581 0
-7.3298197 6.4616952 -1.1997721 0
-7.3452115 6.4316268 -1.1987551 0
-7.3656445 6.4060154 -1.1985778 0
-7.3854389 6.3798652 -1.1983113 0
-7.4196792 6.366128 -1.2003969 0
-7.435462 6.3365116 -1.1995064 0
-7.4372439 6.2951074 -1.1963822 0
-7.4710073 6.2808123 -1.1984192 0
-7.4909334 6.254818 -1.1982449 0
-7.5088501 6.2271686 -1.1977643 0
-7.5255551 6.198555 -1.1971072 0
-7.5665808 6.1898828 -1.2003251 0
-7.5811286 6.1594715 -1.1993501 0
-7.6161976 6.1456871 -1.2016315 0
-7.6357322 6.1192927 -1.2014698 0
-7.6390638 6.0800133 -1.1987797 0
-7.6788721 6.0697541 -1.2018263 0
-7.6840768 6.0321178 -1.1994687 0
-7.7195988 6.0182805 -1.2018572 0
-7.7217236 5.9784203 -1.1990604 0
-7.7372236 5.9490366 -1.1983634 0
-7.7731767 5.9353175 -1.200843 0
-7.7607331 5.8847299 -1.1958658 0
-7.7946558 5.8693962 -1.1980538 0
-7.8294473 5.8545623 -1.2003776 0
-7.8489304 5.8282032 -1.200362 0
-7.8768964 5.8080993 -1.201654 0
-7.8757043 5.7665582 -1.1985159 0
-7.8953218 5.7403579 -1.1985656 0
-7.9322085 5.7266216 -1.2012438 0
-7.9402275 5.6920109 -1.1995612 0
-7.9640155 5.6687369 -1.2002769 0
-7.989624 5.6467009 -1.2012763 0
-8.0110655 5.6216741 -1.2016594 0
-8.0191441 5.5873103 -1.2000545 0
-8.0523186 5.5704136 -1.2022173 0
-8.0526552 5.5308185 -1.1994922 0
-8.1124401 5.5319424 -1.205628 0
-8.0889425 5.4762774 -1.1994004 0
-8.1221066 5.4591064 -1.2015972 0
-8.1180296 5.4169402 -1.1983002 0
-8.1640844 5.4081993 -1.2024152 0
-8.15413 5.3623557 -1.1982944 0
-8.1757717 5.3374076 -1.1988381 0
-8.20049 5.3144169 -1.1998432 0
-8.2133036 5.2837029 -1.1991192 0
-8.2306089 5.2559032 -1.1990663 0
-8.2621775 5.2371473 -1.2011003 0
-8.2701845 5.2034354 -1.1997215 0
-8.2918053 5.1783142 -1.2003325 0
-8.2993212 5.1444097 -1.1989169 0
-8.3153162 5.1158128 -1.198743 0
-8.344492 5.0952744 -1.2004794 0
-8.374794 5.0753074 -1.2023839 0
-8.3903866 5.0463715 -1.2021867 0
-8.392972 5.0096846 -1.2001438 0
-8.4263306 4.9913545 -1.2025141 0
-8.4129047 4.9453726 -1.198225 0
-8.4479704 4.9279485 -1.2008594 0
-8.4588213 4.8963408 -1.2000614 0
-8.4894676 4.876153 -1.2020831 0
-8.4944572 4.8412156 -1.2004845 0
-8.5008888 4.8071933 -1.1991088 0
-8.5174437 4.7789364 -1.1991771 0
-8.5438738 4.7561722 -1.2006464 0
-8.5370684 4.7149596 -1.1974617 0
-8.5800066 4.7012019 -1.2012669 0
-8.5882969 4.6683726 -1.2002294 0
-8.6004114 4.63767 -1.1997426 0
-8.6219845 4.6120567 -1.2005882 0
-8.6155052 4.5715055 -1.1975448 0
-8.6443481 4.5497327 -1.199427 0
-8.6501751 4.5158277 -1.1981279 0
-8.6791782 4.4940028 -1.2000512 0
-8.6980562 4.4668603 -1.2005841 0
-8.7225113 4.4425244 -1.2018968 0
-8.7386074 4.4138861 -1.2020688 0
-8.7503948 4.3830786 -1.2016621 0
-8.7378807 4.3402243 -1.1979383 0
-8.7549171 4.3121514 -1.1982851 0
-8.7924671 4.2940755 -1.2014472 0
-8.7914095 4.257112 -1.1993456 0
-8.8100748 4.2297449 -1.1999506 0
-8.8333216 4.2045207 -1.20119 0
-8.8710909 4.1860743 -1.2044107 0
-8.8531628 4.1413794 -1.2000847 0
-8.880147 4.1177697 -1.2018642 0
-8.8909273 4.086606 -1.2014621 0
-8.8863859 4.0484848 -1.1990075 0
-8.9121046 4.0241742 -1.2006503 0
-8.9260683 3.9945042 -1.2007204 0
-8.9397421 3.9647014 -1.200765 0
-8.9431849 3.9303987 -1.1994506 0
-8.9547977 3.8997321 -1.1992477 0
-8.9759684 3.8732016 -1.2003371 0
-8.9754391 3.8373284 -1.1985391 0
-8.9892673 3.8076427 -1.1986741 0
-9.0080986 3.7800481 -1.1994884 0
-9.0453844 3.7600768 -1.2027678 0
-9.0283346 3.7175374 -1.1988366 0
-9.043685 3.6884439 -1.199226 0
-9.0476522 3.6547294 -1.1981205 0
-9.0767365 3.6311269 -1.2003529 0
-9.0985804 3.6045249 -1.2016367 0
-9.0938244 3.5674119 -1.1994221 0
-9.1126604 3.5395925 -1.2003345 0
-9.1015005 3.5001833 -1.1973119 0
-9.1374369 3.4788818 -1.2004983 0
-9.1500359 3.4485979 -1.2006277 0
-9.1406155 3.4100912 -1.1978847 0
-9.1709003 3.3864052 -1.2003587 0
-9.1663618 3.3498487 -1.1982878 0
-9.2022295 3.3280253 -1.2015113 0
-9.2212057 3.2999694 -1.2025375 0
-9.215642 3.2631648 -1.2003785 0
-9.2329283 3.2344892 -1.2012109 0
-9.2464895 3.2044742 -1.2015705 0
-9.2352295 3.1659291 -1.1987213 0
-9.2606421 3.1399825 -1.2006466 0
-9.2808285 3.1121719 -1.2019042 0
-9.2641726 3.0720713 -1.1984065 0
-9.2776232 3.0420432 -1.1988202 0
-9.2949028 3.013232 -1.1997409 0
-9.2894468 2.9770815 -1.1977415 0
-9.319006 2.9521377 -1.2002698 0
-9.3474331 2.9266939 -1.2026606 0
-9.3391962 2.8897688 -1.2003474 0
-9.3306723 2.8528874 -1.1980158 0
-9.3805199 2.8337722 -1.2031893 0
-9.3828516 2.8001812 -1.2022773 0
-9.374053 2.7633607 -1.1999561 0
-9.3918123 2.7344043 -1.2010491 0
-9.404254 2.7038562 -1.201474 0
-9.3950529 2.6671398 -1.1991493 0
-9.4094582 2.6371708 -1.1998527 0
-9.4330645 2.6097071 -1.2017403 0
-9.4171228 2.5713377 -1.1986043 0
-9.4255075 2.5397 -1.1985811 0
-9.4710646 2.5179455 -1.2032939 0
-9.4613609 2.4814315 -1.2009972 0
-9.4735003 2.4506974 -1.2014885 0
-9.4630899 2.4141822 -1.1991348 0
-9.4535456 2.3780172 -1.1969082 0
-9.4786386 2.3505664 -1.1990808 0
-9.4724655 2.315351 -1.1973112 0
-9.5213375 2.2934937 -1.2025096 0
-9.5226068 2.2600465 -1.2017063 0
-9.5344276 2.229111 -1.2022481 0
-9.5319691 2.1948566 -1.2010034 0
-9.541914 2.1634836 -1.2013357 0
-9.5609579 2.1341231 -1.2028257 0
-9.5338058 2.0945296 -1.1985196 0
-9.5401535 2.0624187 -1.1984416 0
-9.5319347 2.0272133 -1.1965486 0
-9.579215 2.0037224 -1.2016336 0
-9.5736256 1.9690737 -1.2000976 0
-9.5717382 1.9352585 -1.1990409 0
-9.5950022 1.9064994 -1.2011477 0
-9.5962715 1.8733288 -1.2005134 0
-9.5972748 1.8401423 -1.1998603 0
-9.5912294 1.8056647 -1.198341 0
-9.5975285 1.7735521 -1.1983782 0
-9.6072855 1.7420642 -1.1988605 0
-9.6387339 1.7144073 -1.2020608 0
-9.6528654 1.6835524 -1.2031125 0
-9.6229477 1.6451083 -1.1986895 0
-9.6193218 1.611313 -1.197558 0
-9.6432686 1.5821034 -1.1998721 0
-9.6523371 1.5503758 -1.2003471 0
-9.6307173 1.5137978 -1.1970205 0
-9.6641331 1.485865 -1.2005479 0
-9.6676941 1.4532492 -1.2003782 0
-9.6504593 1.4175876 -1.1976414 0
-9.6713705 1.3875494 -1.1996523 0
-9.6887693 1.3569082 -1.2012396 0
-9.6902761 1.3240076 -1.2008692 0
-9.6953316 1.2916 -1.2009523 0
-9.676404 1.256074 -1.1980792 0
-9.7178373 1.2283355 -1.2026926 0
-9.686945 1.1914471 -1.1983683 0
-9.7060032 1.1607699 -1.2002378 0
-9.7144632 1.1287582 -1.2008092 0
-9.7292681 1.0974302 -1.2021776 0
-9.7205153 1.0634495 -1.2006488 0
-9.7258596 1.0310469 -1.2008752 0
-9.7272472 0.99822533 -1.2006265 0
-9.7185774 0.96441913 -1.1991506 0
-9.727663 0.93239534 -1.1998792 0
-9.7313004 0.89982736 -1.1999489 0
-9.7201004 0.86593336 -1.1982031 0
-9.7482395 0.8355065 -1.2013198 0
-9.7201271 0.80027711 -1.1975179 0
-9.7368069 0.76879227 -1.1992486 0
-9.7443991 0.73652548 -1.1998729 0
-9.7389841 0.7032848 -1.1989089 0
-9.7462158 0.67096716 -1.1995156 0
-9.7535028 0.6386196 -1.200142 0
-9.7478313 0.60543251 -1.1991876 0
-9.7420654 0.57229173 -1.1982356 0
-9.7491379 0.53991365 -1.198876 0
-9.7420635 0.50676429 -1.1977905 0
-9.7474594 0.47428069 -1.1982516 0
-9.7676182 0.44244021 -1.2005407 0
-9.7784424 0.41008276 -1.2016953 0
-9.7742996 0.37708443 -1.2010241 0
-9.7877178 0.34474096 -1.2025241 0
-9.7537804 0.31080616 -1.1982198 0
-9.7608833 0.27827618 -1.1989709 0
-9.7543774 0.24536246 -1.198064 0
-9.7836332 0.21327753 -1.2015628 0
-9.7287283 0.17944874 -1.1947391 0
-9.7602987 0.14729734 -1.1985487 0
-9.749897 0.11444482 -1.1972176 0
-9.8002176 0.082173787 -1.2033559 0
-9.7774992 0.049199615 -1.2005394 0
-9.7558823 0.01638075 -1.1978717 0
-9.7756796 2.5940642e-05 -1.2003007 0
-13.707521 -0.023015805 -1.1992526 0
-13.705291 -0.06896396 -1.199071 0
-13.733375 -0.11515289 -1.201555 0
-13.714437 -0.16098079 -1.1999385 0
-13.741794 -0.20738396 -1.2023863 0
-13.693249 -0.25257528 -1.1982061 0
-13.713254 -0.29894096 -1.2000375 0
-13.717362 -0.34504774 -1.2004915 0
-13.717304 -0.39107105 -1.2005944 0
-13.689773 -0.43622732 -1.1983061 0
-13.702669 -0.48263258 -1.1995698 0
-13.65899 -0.52695262 -1.195894 0
-13.717682 -0.57528436 -1.2011948 0
-13.719562 -0.62144989 -1.201535 0
-13.713678 -0.6672644 -1.2012089 0
-13.701077 -0.71270496 -1.2003078 0
-13.672857 -0.7572118 -1.1980513 0
-13.68241 -0.80376488 -1.1991177 0
-13.694377 -0.85055029 -1.2004095 0
-13.685341 -0.89606029 -1.1998742 0
-13.68586 -0.94218749 -1.2001898 0
-13.669506 -0.98712105 -1.1990392 0
-13.692031 -1.0349053 -1.2013127 0
-13.660665 -1.0786097 -1.1988713 0
-13.666391 -1.1251808 -1.1996981 0
-13.663356 -1.1710651 -1.1997695 0
-13.677422 -1.2184788 -1.2013566 0
-13.668263 -1.2638679 -1.2009177 0
-13.657568 -1.3090762 -1.2003568 0
-13.656822 -1.3552293 -1.200684 0
-13.672488 -1.4030921 -1.202468 0
-13.631053 -1.4450399 -1.1992433 0
-13.653579 -1.493737 -1.201659 0
-13.633288 -1.5377913 -1.2003202 0
-13.611155 -1.5815287 -1.1988317 0
-13.616905 -1.6284864 -1.1998122 0
-13.643708 -1.6781098 -1.2026629 0
-13.596175 -1.7185578 -1.1989741 0
-13.611021 -1.7668185 -1.200799 0
-13.600398 -1.8118279 -1.2003909 0
-13.595896 -1.8576427 -1.2005366 0
-13.580176 -1.9018983 -1.1997049 0
-13.583513 -1.9488238 -1.2005701 0
-13.557483 -1.9915031 -1.1988529 0
-13.559224 -2.0382245 -1.1996044 0
-13.547461 -2.0829284 -1.1991748 0
-13.560865 -2.1315553 -1.2009872 0
-13.554107 -2.1770849 -1.2010282 0
-13.519405 -2.218034 -1.1986057 0
-13.518398 -2.2644393 -1.1991827 0
-13.52112 -2.3115275 -1.200105 0
-13.524894 -2.3588712 -1.2011352 0
-13.515356 -2.4039283 -1.2009971 0
-13.500581 -2.4480255 -1.2004068 0
-13.487408 -2.492373 -1.1999718 0
-13.460234 -2.5340514 -1.1983033 0
-13.46384 -2.5815017 -1.1993881 0
-13.486203 -2.632699 -1.2021599 0
-13.455944 -2.6736574 -1.2002549 0
-13.44809 -2.7189972 -1.2003608 0
-13.428591 -2.761951 -1.1994401 0
-13.435852 -2.8104305 -1.2009236 0
-13.409371 -2.851851 -1.1994046 0
-13.379985 -2.8925245 -1.1976368 0
-13.39493 -2.9427993 -1.199851 0
-13.395108 -2.9899526 -1.2007582 0
-13.356619 -3.0284102 -1.1982114 0
-13.34244 -3.0722656 -1.1978567 0
-13.356163 -3.1226172 -1.200022 0
-13.334663 -3.1647804 -1.199037 0
-13.346568 -3.2149129 -1.2010698 0
-13.33803 -3.2602093 -1.2012784 0
-13.321313 -3.3034947 -1.2007637 0
-13.296552 -3.3447163 -1.1995357 0
-13.286798 -3.3896697 -1.1996744 0
-13.264556 -3.4314044 -1.1986982 0
-13.269926 -3.4803042 -1.2002313 0
-13.256137 -3.5242321 -1.2000461 0
-13.248847 -3.5698977 -1.2004629 0
-13.221636 -3.6101568 -1.1990874 0
-13.198392 -3.6514049 -1.1980828 0
-13.189966 -3.6967266 -1.1984364 0
-13.159797 -3.735904 -1.1968266 0
-13.178318 -3.7889531 -1.1996596 0
-13.152132 -3.8292127 -1.1984379 0
-13.142934 -3.8743825 -1.1987766 0
-13.129328 -3.9182649 -1.1987271 0
-13.132599 -3.967242 -1.2002335 0
-13.105565 -4.0070748 -1.1989839 0
-13.076778 -4.0462656 -1.1975847 0
-13.091053 -4.0988264 -1.2001438 0
-13.074414 -4.1418014 -1.1998848 0
-13.059926 -4.1854448 -1.1998364 0
-13.042384 -4.2280951 -1.1995203 0
-13.029295 -4.2721801 -1.1996272 0
-13.016414 -4.3163438 -1.1997669 0
-12.985188 -4.3543677 -1.1982276 0
-12.987005 -4.403471 -1.199751 0
-12.976013 -4.448307 -1.2001065 0
-12.968282 -4.4943027 -1.2007784 0
-12.9249 -4.5278645 -1.1981604 0
-12.92303 -4.575913 -1.1994027 0
-12.909976 -4.6200604 -1.199622 0
-12.900412 -4.6654887 -1.2001801 0
-12.875563 -4.7053771 -1.1993293 0
-12.855964 -4.7471352 -1.1989795 0
-12.839984 -4.7902155 -1.1989803 0
-12.851898 -4.8438091 -1.2016026 0
-12.828705 -4.8842525 -1.2009585 0
-12.795622 -4.9208398 -1.1993992 0
-12.780168 -4.9641471 -1.1995039 0
-12.772146 -5.0103793 -1.2003211 0
-12.770168 -5.0590739 -1.2017225 0
-12.748419 -5.0999746 -1.2012781 0
-12.716103 -5.1365709 -1.1998491 0
-12.718489 -5.1872034 -1.2017086 0
-12.713019 -5.2347555 -1.2028434 0
-12.670708 -5.2670875 -1.2005041 0
-12.640974 -5.3045034 -1.1993653 0
-12.663527 -5.3639727 -1.2032046 0
-12.613658 -5.3927994 -1.2001777 0
-12.600075 -5.4370322 -1.200613 0
-12.582898 -5.4797368 -1.2007203 0
-12.553556 -5.5171041 -1.1996787 0
-12.539492 -5.5611601 -1.2001097 0
-12.53362 -5.6089191 -1.2013408 0
-12.487666 -5.6386843 -1.1987416 0
-12.455787 -5.6746421 -1.1975009 0
-12.46152 -5.7277851 -1.1998918 0
-12.439141 -5.7680945 -1.1995924 0
-12.423649 -5.8115997 -1.1999706 0
-12.396021 -5.8494124 -1.1991898 0
-12.37948 -5.8924356 -1.199494 0
-12.37674 -5.942112 -1.2011522 0
-12.325841 -5.9686089 -1.1981479 0
-12.345907 -6.0295091 -1.2020568 0
-12.307989 -6.0621834 -1.2003372 0
-12.26324 -6.0913186 -1.197958 0
-12.250792 -6.1364298 -1.1987451 0
-12.224542 -6.1746378 -1.1981956 0
-12.214378 -6.2209926 -1.1992371 0
-12.217498 -6.2742586 -1.201602 0
-12.161484 -6.2971106 -1.1981627 0
-12.173055 -6.3549485 -1.201395 0
-12.152481 -6.3961492 -1.2014744 0
-12.115509 -6.4286556 -1.1999433 0
-12.08755 -6.4658508 -1.1993146 0
-12.060648 -6.5035615 -1.1988022 0
-12.044616 -6.5471373 -1.1993839 0
-12.036418 -6.5950565 -1.2007626 0
-12.013053 -6.6347208 -1.2006441 0
-12.021893 -6.6923022 -1.2037634 0
-11.960303 -6.7106433 -1.1998426 0
-11.930099 -6.746387 -1.199075 0
-11.919582 -6.7932849 -1.2003005 0
-11.892174 -6.8305883 -1.1998399 0
-11.857226 -6.8634882 -1.198629 0
-11.846805 -6.9105873 -1.1999109 0
-11.85427 -6.9683166 -1.2030267 0
-11.796811 -6.9878654 -1.1995665 0
-11.775678 -7.0287886 -1.199807 0
-11.771874 -7.0801568 -1.2018315 0
-11.717728 -7.1011977 -1.1987275 0
-11.718235 -7.1553335 -1.2012269 0
-11.678924 -7.1851974 -1.1996599 0
-11.657071 -7.2257419 -1.1998971 0
-11.644582 -7.2721562 -1.2011145 0
-11.617946 -7.3097801 -1.2008882 0
-11.583611 -7.3425045 -1.1998771 0
-11.575396 -7.3918171 -1.2015866 0
-11.512066 -7.4058304 -1.1975834 0
-11.491053 -7.4469023 -1.1979882 0
-11.478157 -7.4933109 -1.1992563 0
-11.468314 -7.5418444 -1.200863 0
-11.44974 -7.5847425 -1.2015743 0
-11.386648 -7.5980005 -1.1976198 0
-11.387476 -7.6538572 -1.2003993 0
-11.338901 -7.6765251 -1.1979852 0
-11.336546 -7.7304878 -1.2004681 0
-11.296499 -7.7587938 -1.1989753 0
-11.277819 -7.8017421 -1.1997622 0
-11.227989 -7.8230615 -1.1972448 0
-11.235705 -7.8845277 -1.2008796 0
-11.202463 -7.9173889 -1.2001572 0
-11.203294 -7.9744353 -1.2031039 0
-11.162945 -8.0022392 -1.2016453 0
-11.104797 -8.0170574 -1.1982727 0
-11.096807 -8.0680237 -1.2003226 0
-11.098166 -8.1260319 -1.20341 0
-11.00693 -8.1160574 -1.196461 0
-11.028287 -8.1890259 -1.2017602 0
-10.979865 -8.2103252 -1.1994766 0
-10.961776 -8.2542467 -1.2005172 0
-10.949113 -8.3023825 -1.2021722 0
-10.862594 -8.2942848 -1.1957192 0
-10.887459 -8.3712053 -1.2015392 0
-10.84187 -8.3941441 -1.1996073 0
-10.82677 -8.4406643 -1.2010609 0
-10.807047 -8.4836979 -1.2020217 0
-10.770472 -8.513505 -1.2011218 0
-10.722368 -8.534049 -1.1989415 0
-10.685301 -8.5632238 -1.1980003 0
-10.682753 -8.6201611 -1.2009482 0
-10.648355 -8.6515141 -1.2003356 0
-10.615825 -8.6843338 -1.199944 0
-10.60559 -8.7354794 -1.202091 0
-10.559774 -8.7573318 -1.2002193 0
-10.527409 -8.7902288 -1.1998836 0
-10.48798 -8.8171558 -1.1987524 0
-10.450931 -8.8459826 -1.197901 0
-10.422782 -8.8823099 -1.1980814 0
-10.420839 -8.9411411 -1.2012972 0
-10.387064 -8.9728003 -1.2008649 0
-10.352775 -9.0039692 -1.2003841 0
-10.33718 -9.0514593 -1.202088 0
-10.272695 -9.0560236 -1.1981132 0
-10.250833 -9.098012 -1.1991144 0
-10.234816 -9.1453257 -1.2008209 0
-10.180181 -9.1580763 -1.1980066 0
-10.165161 -9.2064142 -1.1998649 0
-10.150944 -9.2556791 -1.201843 0
-10.1164 -9.2864895 -1.2014327 0
-10.080061 -9.3156004 -1.2008196 0
-10.035906 -9.3373747 -1.1992823 0
-9.997016 -9.3639202 -1.19838 0
-9.958147 -9.3903913 -1.1974881 0
-9.9442301 -9.4404573 -1.199614 0
-9.9068699 -9.4683428 -1.19893 0
-9.8803892 -9.5066252 -1.199576 0
-9.8645897 -9.5553226 -1.2015407 0
-9.8027 -9.5592861 -1.1978995 0
-9.7704077 -9.5919161 -1.1978766 0
-9.7619457 -9.6480961 -1.2007984 0
-9.7337084 -9.6849165 -1.2013124 0
-9.685647 -9.7019367 -1.1993887 0
-9.6666441 -9.7480507 -1.201076 0
-9.6157646 -9.7619886 -1.1988143 0
-9.5918598 -9.8032494 -1.1999252 0
-9.5502691 -9.8264351 -1.198837 0
-9.537178 -9.8790216 -1.2013448 0
-9.4890089 -9.8953075 -1.1994497 0
-9.4667215 -9.9385548 -1.2008376 0
-9.4487524 -9.9865217 -1.2027988 0
-9.3984537 -10.00031 -1.2006575 0
-9.3736401 -10.041158 -1.2017816 0
-9.3187389 -10.049685 -1.199056 0
-9.3063097 -10.104018 -1.201809 0
-9.2739086 -10.136834 -1.2020071 0
-9.2044296 -10.128872 -1.1973968 0
-9.1869917 -10.178037 -1.1995608 0
-9.1518192 -10.207671 -1.1994303 0
-9.1188822 -10.239801 -1.1996064 0
-9.0708885 -10.254931 -1.1978092 0
-9.0337973 -10.282262 -1.1974568 0
-9.0152378 -10.330789 -1.1995814 0
-8.988924 -10.370618 -1.2006999 0
-8.9540739 -10.400664 -1.2006961 0
-8.9224377 -10.434469 -1.2011384 0
-8.8800898 -10.455715 -1.20015 0
-8.8428955 -10.482955 -1.1998667 0
-8.7855644 -10.486126 -1.1968514 0
-8.76793 -10.53664 -1.1992549 0
-8.7438021 -10.57959 -1.2007998 0
-8.6979113 -10.596212 -1.1993698 0
-8.6709366 -10.635865 -1.2005607 0
-8.6294928 -10.657795 -1.1997633 0
-8.6078367 -10.704234 -1.2017355 0
-8.5518112 -10.707883 -1.1989193 0
-8.5136366 -10.733689 -1.198606 0
-8.4742908 -10.757972 -1.198138 0
-8.4524107 -10.804523 -1.2001597 0
-8.4219189 -10.840243 -1.200984 0
-8.3835049 -10.8658 -1.2006944 0
-8.3448448 -10.890999 -1.2003806 0
-8.2853498 -10.888778 -1.1970673 0
-8.2849503 -10.964343 -1.202314 0
-8.2480774 -10.991973 -1.2023046 0
-8.1899776 -10.991116 -1.1992005 0
-8.1642008 -11.033542 -1.2008362 0
-8.1295776 -11.064141 -1.2011932 0
-8.083827 -11.079536 -1.1999154 0
-8.0448742 -11.104149 -1.1996529 0
-8.017417 -11.144708 -1.2011238 0
-7.974031 -11.163161 -1.2002245 0
-7.9400373 -11.194739 -1.2007507 0
-7.8890266 -11.202224 -1.1987096 0
-7.8610072 -11.242318 -1.2001729 0
-7.8270674 -11.274082 -1.2007555 0
-7.78864 -11.299415 -1.2006656 0
-7.7507415 -11.325508 -1.2006701 0
-7.707231 -11.343345 -1.1998149 0
-7.6708698 -11.371663 -1.200083 0
-7.6243763 -11.38489 -1.1987743 0
-7.5863781 -11.410714 -1.1988084 0
-7.5569191 -11.449481 -1.2002127 0
-7.5083714 -11.459312 -1.1985977 0
-7.4874277 -11.511357 -1.2014087 0
-7.4424448 -11.526569 -1.2003853 0
-7.3988848 -11.543857 -1.1995955 0
-7.3517327 -11.555386 -1.1982254 0
-7.329423 -11.606057 -1.2009248 0
-7.2849584 -11.621775 -1.200017 0
-7.2443309 -11.64353 -1.1997485 0
-7.2018723 -11.662281 -1.199186 0
-7.1704206 -11.698909 -1.2004734 0
-7.1356287 -11.730237 -1.2012264 0
-7.0863485 -11.737679 -1.1995486 0
-7.0460472 -11.759858 -1.1993942 0
-7.0084629 -11.786585 -1.1997167 0
-6.9678874 -11.808291 -1.1995414 0
-6.9153705 -11.80958 -1.1973103 0
-6.8881865 -11.854125 -1.1994783 0
-6.8434949 -11.868641 -1.1986187 0
-6.8098063 -11.902257 -1.199701 0
-6.7775211 -11.938513 -1.2010581 0
-6.7368064 -11.960017 -1.2009424 0
-6.6910272 -11.972443 -1.1999308 0
-6.6564426 -12.004899 -1.2009401 0
-6.6018209 -12.001091 -1.1983382 0
-6.5644083 -12.028402 -1.1988609 0
-6.5340738 -12.068872 -1.2007042 0
-6.4825511 -12.070191 -1.1986662 0
-6.442215 -12.092176 -1.1986978 0
-6.3900514 -12.091786 -1.1965287 0
-6.3724604 -12.156995 -1.2008603 0
-6.3291755 -12.173505 -1.2003882 0
-6.289928 -12.197766 -1.2006943 0
-6.247858 -12.216562 -1.2004757 0
-6.2026062 -12.229049 -1.1996524 0
-6.1552172 -12.237146 -1.1984155 0
-6.1281376 -12.28575 -1.2011565 0
-6.0767064 -12.285597 -1.1991428 0
-6.034071 -12.303026 -1.1988626 0
-5.9956608 -12.329098 -1.1994375 0
-5.9547377 -12.350059 -1.1995276 0
-5.9113426 -12.365866 -1.1991311 0
-5.8734736 -12.393265 -1.1998717 0
-5.8361726 -12.422006 -1.2007531 0
-5.7947912 -12.442148 -1.2008153 0
-5.7556005 -12.467049 -1.2013493 0
-5.7028589 -12.462435 -1.1990554 0
-5.6667409 -12.494049 -1.2002623 0
-5.6167274 -12.494977 -1.1985357 0
-5.5816803 -12.529178 -1.2000145 0
-5.544261 -12.558287 -1.2010152 0
-5.5031648 -12.579184 -1.2012423 0
-5.4568791 -12.588154 -1.200345 0
-5.4090991 -12.593473 -1.1991162 0
-5.3652501 -12.607789 -1.1987597 0
-5.3279181 -12.637495 -1.1998789 0
-5.28231 -12.647609 -1.1991509 0
-5.2443442 -12.67605 -1.2001737 0
-5.1948714 -12.67662 -1.1985718 0
-5.1537204 -12.697367 -1.1988928 0
-5.1252217 -12.749657 -1.2022008 0
-5.0801287 -12.760948 -1.2016528 0
-5.0307822 -12.761337 -1.2000942 0
-4.9887195 -12.780059 -1.2002752 0
-4.949297 -12.805652 -1.2011136 0
-4.9000564 -12.805768 -1.1995767 0
-4.8681245 -12.851245 -1.202301 0
-4.8208327 -12.856357 -1.2012603 0
-4.7808337 -12.880889 -1.2020481 0
-4.7251744 -12.862967 -1.1988904 0
-4.6915359 -12.904911 -1.201327 0
-4.6421189 -12.903548 -1.1997445 0
-4.5963812 -12.912162 -1.1991057 0
-4.5508194 -12.921129 -1.1985148 0
-4.5156846 -12.959885 -1.2006985 0
-4.4708614 -12.971047 -1.2003372 0
-4.4275284 -12.986498 -1.2003864 0
-4.3836727 -13.000411 -1.2003071 0
-4.3421617 -13.021337 -1.2008883 0
-4.2964525 -13.029675 -1.2003222 0
-4.2496514 -13.034528 -1.1994498 0
-4.2137623 -13.073017 -1.2016848 0
-4.1646938 -13.07071 -1.2001824 0
-4.1127577 -13.058915 -1.1978265 0
-4.0776367 -13.100537 -1.2003835 0
-4.0308738 -13.10498 -1.1995454 0
-3.9877138 -13.121056 -1.1997864 0
-3.9454575 -13.140209 -1.2003213 0
-3.8961551 -13.135752 -1.1987143 0
-3.8551857 -13.159304 -1.1996771 0
-3.8042145 -13.148553 -1.1975275 0
-3.7721069 -13.20323 -1.2013488 0
-3.7233326 -13.199903 -1.1999034 0
-3.6850369 -13.233795 -1.2018543 0
-3.6419027 -13.250648 -1.2022693 0
-3.5979099 -13.264462 -1.2024213 0
-3.5423441 -13.235081 -1.1986744 0
-3.5100889 -13.292855 -1.2028345 0
-3.4559231 -13.267779 -1.1995102 0
-3.413573 -13.287676 -1.2002674 0
-3.3628709 -13.274841 -1.1980829 0
-3.326561 -13.31894 -1.2010496 0
-3.2713811 -13.28735 -1.1972051 0
-3.2384424 -13.34617 -1.2015198 0
-3.1913836 -13.347362 -1.200657 0
-3.1469107 -13.359244 -1.20077 0
-3.0971587 -13.348415 -1.1988566 0
-3.0563505 -13.376073 -1.2004135 0
-3.0134685 -13.395058 -1.2012037 0
-2.9648564 -13.388451 -1.199713 0
-2.9152465 -13.376729 -1.1977801 0
-2.8755209 -13.410402 -1.1999253 0
-2.8312762 -13.423448 -1.2002363 0
-2.7859411 -13.431356 -1.2001016 0
-2.7421253 -13.446667 -1.2006414 0
-2.6942883 -13.442127 -1.1994227 0
-2.651758 -13.464051 -1.2005789 0
-2.6042528 -13.460732 -1.1994976 0
-2.5578511 -13.462777 -1.1989089 0
-2.5133848 -13.474957 -1.1992364 0
-2.4683423 -13.484131 -1.1993095 0
-2.4264772 -13.511031 -1.2009717 0
-2.3739815 -13.478314 -1.1973494 0
-2.3336561 -13.514448 -1.1998575 0
-2.2893505 -13.528218 -1.2003919 0
-2.2405615 -13.515196 -1.198563 0
-2.1992295 -13.547238 -1.2007439 0
-2.1493356 -13.526467 -1.1982574 0
-2.1073446 -13.555292 -1.2001783 0
-2.062705 -13.56768 -1.2006561 0
-2.0158541 -13.565437 -1.1998527 0
-1.9730008 -13.590307 -1.2014606 0
-1.9250886 -13.580372 -1.2000048 0
-1.8809683 -13.597035 -1.2009133 0
-1.8309417 -13.570448 -1.1980162 0
-1.7882504 -13.59794 -1.1999072 0
-1.745572 -13.626678 -1.2019198 0
-1.6978381 -13.616122 -1.2004799 0
-1.6496301 -13.600745 -1.1986297 0
-1.6067727 -13.629549 -1.2006868 0
-1.5600171 -13.625696 -1.1998798 0
-1.5130075 -13.619 -1.1988367 0
-1.4704876 -13.653248 -1.2014107 0
-1.4227581 -13.639461 -1.1997709 0
-1.3773116 -13.647048 -1.2000253 0
-1.3310138 -13.646113 -1.1995441 0
-1.2889913 -13.690199 -1.2030327 0
-1.237579 -13.633804 -1.1977056 0
-1.1946837 -13.670181 -1.2005426 0
-1.1495713 -13.682773 -1.2013032 0
-1.1026806 -13.674044 -1.2002054 0
-1.0557927 -13.664267 -1.1990298 0
-1.010121 -13.669732 -1.1992055 0
-0.96560717 -13.691813 -1.2008519 0
-0.91854894 -13.677898 -1.1993546 0
-0.87286025 -13.683659 -1.1995964 0
-0.82671291 -13.682144 -1.1992139 0
-0.78211409 -13.707263 -1.2011789 0
-0.73660362 -13.718223 -1.2019161 0
-0.68925673 -13.69383 -1.1995698 0
-0.64389551 -13.70789 -1.2006055 0
-0.59809542 -13.71372 -1.2009338 0
-0.55223769 -13.718759 -1.2012061 0
-0.50568688 -13.70559 -1.1998979 0
-0.4602305 -13.722079 -1.2011997 0
-0.41413644 -13.720764 -1.2009562 0
-0.36715016 -13.685514 -1.1977564 0
-0.32139355 -13.692225 -1.1982425 0
-0.27610561 -13.724108 -1.200945 0
-0.2297226 -13.703058 -1.1990288 0
-0.18392189 -13.714515 -1.1999706 0
-0.13792574 -13.713769 -1.1998582 0
-0.091885656 -13.705258 -1.19908 0
-0.046031114 -13.734468 -1.2016152 0
1.8223094e-05 -13.734673 -1.2016264 0
0.045995742 -13.713057 -1.199742 0
0.092123166 -13.735248 -1.2017037 0
0.13806295 -13.723789 -1.200735 0
0.18378647 -13.701705 -1.1988499 0
0.22990881 -13.711995 -1.1998109 0
0.27575061 -13.704654 -1.1992427 0
0.32160372 -13.699628 -1.1988906 0
0.36730191 -13.689817 -1.198133 0
0.41446641 -13.730488 -1.2018074 0
0.45947114 -13.698353 -1.1991228 0
0.50619847 -13.718469 -1.2010255 0
0.55192345 -13.710047 -1.2004434 0
0.59679145 -13.682987 -1.1982425 0
0.64417523 -13.713068 -1.2010592 0
0.68924081 -13.692791 -1.1994789 0
0.73551083 -13.697191 -1.2000736 0
0.78160983 -13.697786 -1.2003486 0
0.82795757 -13.702139 -1.2009666 0
0.87255532 -13.678308 -1.1991274 0
0.91953993 -13.692112 -1.2006012 0
0.96584451 -13.694661 -1.2011019 0
1.0113168 -13.685421 -1.2005821 0
1.0575563 -13.686618 -1.2009915 0
1.1038505 -13.688098 -1.2014394 0
1.1487806 -13.672927 -1.2004391 0
1.1930287 -13.650826 -1.1988431 0
1.2378525 -13.636415 -1.1979352 0
1.2844777 -13.641872 -1.1987863 0
1.3315239 -13.650968 -1.1999711 0
1.3755085 -13.62882 -1.1984229 0
1.4214391 -13.626466 -1.1986282 0
1.4696754 -13.645368 -1.2007176 0
1.5163928 -13.649142 -1.2014903 0
1.5581605 -13.60916 -1.198424 0
1.6085286 -13.644133 -1.2019719 0
1.6522989 -13.622447 -1.2005427 0
1.6970408 -13.609434 -1.1998906 0
1.7426788 -13.603806 -1.1999028 0
1.7883433 -13.598368 -1.1999452 0
1.8323424 -13.580558 -1.198909 0
1.8792316 -13.584216 -1.1997815 0
1.9245673 -13.576435 -1.1996574 0
1.9716461 -13.580722 -1.2006136 0
2.015753 -13.564509 -1.199771 0
2.0622392 -13.564373 -1.2003639 0
2.1104479 -13.575016 -1.2019252 0
2.1479828 -13.517722 -1.1974833 0
2.1930051 -13.508671 -1.1973261 0
2.2404549 -13.514331 -1.1984868 0
2.2850473 -13.502571 -1.1981167 0
2.337332 -13.535522 -1.2017291 0
2.3778679 -13.500171 -1.1992916 0
2.4252684 -13.504095 -1.2003558 0
2.4737251 -13.513333 -1.2019074 0
2.5149312 -13.483049 -1.1999571 0
2.5620944 -13.484917 -1.200881 0
2.5972996 -13.424601 -1.1962785 0
2.6504598 -13.457271 -1.1999749 0
2.6973484 -13.457209 -1.2007691 0
2.7394309 -13.433272 -1.1994461 0
2.7850707 -13.426981 -1.1997113 0
2.8327773 -13.430387 -1.2008576 0
2.8729949 -13.398448 -1.1988564 0
2.9172299 -13.38566 -1.1985805 0
2.9631386 -13.380526 -1.1990036 0
3.0154228 -13.403579 -1.2019686 0
3.0541091 -13.3661 -1.1995192 0
3.1046126 -13.380381 -1.2017281 0
3.143538 -13.344769 -1.1994697 0
3.1843026 -13.317592 -1.1979798 0
3.23298 -13.323505 -1.1994801 0
3.2802303 -13.32314 -1.2004306 0
3.3250608 -13.312783 -1.2004951 0
3.3686428 -13.297477 -1.2001266 0
3.4095256 -13.271775 -1.1988319 0
3.455364 -13.265489 -1.1993039 0
3.497963 -13.246792 -1.1986672 0
3.5407288 -13.228905 -1.1981161 0
3.5873742 -13.22548 -1.1988884 0
3.6344411 -13.223363 -1.1997945 0
3.6796532 -13.214325 -1.2000871 0
3.7206795 -13.190363 -1.1990371 0
3.7691946 -13.192904 -1.2004101 0
3.8154454 -13.18724 -1.201052 0
3.850728 -13.143959 -1.1982791 0
3.8934329 -13.126447 -1.1978661 0
3.9361646 -13.109133 -1.1974837 0
3.9868846 -13.118203 -1.1995264 0
4.031951 -13.108357 -1.1998556 0
4.083097 -13.117958 -1.2019807 0
4.11971 -13.080869 -1.1998411 0
4.1596155 -13.054651 -1.1987089 0
4.2069006 -13.05161 -1.1997181 0
4.2511377 -13.038969 -1.1998595 0
4.2940192 -13.022181 -1.1996326 0
4.3371735 -13.006263 -1.1994992 0
4.3834043 -12.999501 -1.2002243 0
4.4325619 -13.001148 -1.2017417 0
4.4629145 -12.94788 -1.1981944 0
4.5091157 -12.940922 -1.1989428 0
4.5592222 -12.944878 -1.2007188 0
4.6005502 -12.923764 -1.2001843 0
4.6436815 -12.907784 -1.2001394 0
4.6803684 -12.874085 -1.1984586 0
4.7244048 -12.860767 -1.1986866 0
4.7703333 -12.852493 -1.1993994 0
4.8141246 -12.838364 -1.1995803 0
4.8567767 -12.821186 -1.1994901 0
4.9016905 -12.809937 -1.1999685 0
4.9432745 -12.789968 -1.1996437 0
4.9883738 -12.779074 -1.2001839 0
5.0265603 -12.750528 -1.199079 0
5.0667629 -12.727277 -1.1984832 0
5.1053958 -12.70024 -1.1975424 0
5.1607828 -12.71467 -1.2005279 0
5.1991262 -12.686906 -1.1995456 0
5.2474732 -12.683517 -1.200882 0
5.2913318 -12.669115 -1.2011913 0
5.3290625 -12.640115 -1.200129 0
5.3727384 -12.625294 -1.2004254 0
5.4138165 -12.604363 -1.2001544 0
5.4572811 -12.588989 -1.2004261 0
5.4992776 -12.570208 -1.2003865 0
5.5497904 -12.570721 -1.2022058 0
5.578855 -12.522747 -1.1993999 0
5.6293502 -12.52297 -1.2012222 0
5.6683035 -12.497406 -1.2005863 0
5.7036252 -12.464022 -1.1992096 0
5.7414784 -12.436372 -1.1983947 0
5.7921047 -12.436295 -1.2002518 0
5.8326283 -12.414377 -1.2000171 0
5.8770094 -12.40064 -1.2005873 0
5.915175 -12.373799 -1.1999019 0
5.9506769 -12.341554 -1.1987031 0
6.0156178 -12.370051 -1.2034233 0
6.041544 -12.31818 -1.2003409 0
6.0716825 -12.275357 -1.1981449 0
6.1309748 -12.291357 -1.2017062 0
6.1669159 -12.260324 -1.2006869 0
6.2185097 -12.260324 -1.202722 0
6.243825 -12.208596 -1.1996945 0
6.2865386 -12.191114 -1.2000412 0
6.3233929 -12.162304 -1.1992854 0
6.3797994 -12.170918 -1.2022371 0
6.4111609 -12.131654 -1.2004753 0
6.4448857 -12.097112 -1.1991888 0
6.4955521 -12.094321 -1.2010643 0
6.5257173 -12.053361 -1.1991627 0
6.5684013 -12.035644 -1.1995842 0
6.606863 -12.010181 -1.1992476 0
6.6522789 -11.997313 -1.2001832 0
6.6982121 -11.985225 -1.2012136 0
6.727241 -11.942962 -1.1992316 0
6.7862868 -11.953879 -1.202606 0
6.8143144 -11.910062 -1.2004895 0
6.8502831 -11.880341 -1.199802 0
6.8931322 -11.862564 -1.2003341 0
6.9217772 -11.820448 -1.1984141 0
6.957808 -11.791138 -1.1978009 0
7.0166726 -11.800321 -1.2011167 0
7.0575171 -11.77893 -1.2013413 0
7.0951133 -11.752127 -1.201027 0
7.1292896 -11.719746 -1.2001539 0
7.163702 -11.687877 -1.1993433 0
7.2104959 -11.676176 -1.2006166 0
7.2446084 -11.643907 -1.1997894 0
7.283989 -11.62016 -1.1998522 0
7.3378692 -11.619363 -1.2023035 0
7.3619518 -11.571381 -1.199886 0
7.4014215 -11.547747 -1.2000017 0
7.4428864 -11.527185 -1.2004516 0
7.4792995 -11.498795 -1.2000997 0
7.5247364 -11.484222 -1.2012053 0
7.5568795 -11.449355 -1.2002016 0
7.5884843 -11.413816 -1.1991365 0
7.6366062 -11.403086 -1.2006924 0
7.6684489 -11.368009 -1.1996995 0
7.7091331 -11.346079 -1.2001063 0
7.7352285 -11.302776 -1.1982625 0
7.7824588 -11.290382 -1.199708 0
7.8222804 -11.267123 -1.2000165 0
7.8600969 -11.240952 -1.2000294 0
7.9006572 -11.218676 -1.2004724 0
7.9222093 -11.16954 -1.19805 0
7.9769316 -11.167159 -1.2006567 0
8.0234585 -11.153043 -1.2020245 0
8.0458479 -11.105431 -1.1997937 0
8.0693712 -11.059663 -1.1977654 0
8.1285753 -11.062716 -1.2010409 0
8.1697254 -11.040947 -1.2016445 0
8.1970501 -11.000546 -1.2002319 0
8.2118158 -10.943588 -1.1970147 0
8.2710085 -10.945833 -1.2002867 0
8.3012228 -10.909578 -1.1993564 0
8.3407879 -10.885644 -1.1997929 0
8.3719101 -10.850712 -1.1990297 0
8.4088097 -10.823311 -1.1991105 0
8.4558849 -10.808905 -1.2006488 0
8.4954119 -10.784725 -1.2011201 0
8.5346432 -10.760116 -1.2015594 0
8.5503149 -10.70595 -1.1987054 0
8.5952053 -10.688469 -1.1999681 0
8.6443224 -10.676052 -1.2018211 0
8.6698046 -10.634419 -1.2004 0
8.7031307 -10.602513 -1.2000855 0
8.7392597 -10.574036 -1.2001721 0
8.7855902 -10.557806 -1.2016666 0
8.816534 -10.523033 -1.2010665 0
8.8287983 -10.466186 -1.19795 0
8.8882074 -10.465218 -1.2012434 0
8.9215107 -10.433329 -1.2010098 0
8.9483881 -10.394004 -1.19993 0
8.9713011 -10.35023 -1.1983423 0
9.0279293 -10.345277 -1.2012665 0
9.0548363 -10.306153 -1.200242 0
9.0921259 -10.278886 -1.2006099 0
9.128624 -10.250687 -1.2008845 0
9.1509199 -10.206614 -1.1993089 0
9.193759 -10.18548 -1.200441 0
9.2331181 -10.160387 -1.2011253 0
9.2435484 -10.103595 -1.1980685 0
9.2913408 -10.087712 -1.1998725 0
9.328475 -10.060132 -1.2003053 0
9.3544827 -10.020583 -1.199322 0
9.389863 -9.9911165 -1.1995566 0
9.4342632 -9.9711561 -1.2009511 0
9.4439764 -9.9146233 -1.1979492 0
9.4747 -9.8803339 -1.1976376 0
9.4990597 -9.8394852 -1.19654 0
9.5579052 -9.834239 -1.1997923 0
9.5883169 -9.7995749 -1.1994786 0
9.6230221 -9.7693043 -1.1997159 0
9.6789885 -9.7604475 -1.2026067 0
9.7041445 -9.7204132 -1.2016761 0
9.7464056 -9.6974983 -1.2028763 0
9.7530003 -9.639204 -1.1996949 0
9.8020887 -9.6229668 -1.2017576 0
9.8311577 -9.5869856 -1.2013738 0
9.8540134 -9.5450277 -1.2002493 0
9.8969336 -9.5224934 -1.2015816 0
9.9249287 -9.4855518 -1.2011124 0
9.946002 -9.4420891 -1.1998248 0
9.9872046 -9.4177427 -1.2009794 0
10.006858 -9.3730898 -1.1995568 0
10.042972 -9.3438988 -1.2001237 0
10.084518 -9.3196697 -1.2013477 0
10.114304 -9.2845163 -1.2011808 0
10.128864 -9.2354975 -1.199226 0
10.191672 -9.2303762 -1.2029914 0
10.203327 -9.1788492 -1.2007277 0
10.225284 -9.1367598 -1.1996998 0
10.251979 -9.0989799 -1.1992457 0
10.280965 -9.0632658 -1.199075 0
10.298142 -9.0172281 -1.1975456 0
10.340092 -8.9928904 -1.1989108 0
10.366091 -8.9546347 -1.1984375 0
10.403728 -8.9264126 -1.199322 0
10.431949 -8.8900738 -1.1991323 0
10.460309 -8.8538733 -1.1989732 0
10.51563 -8.8403521 -1.20191 0
10.52225 -8.7858744 -1.199293 0
10.531753 -8.7340469 -1.1970317 0
10.577769 -8.7125177 -1.198935 0
10.6018 -8.6728134 -1.1983562 0
10.644765 -8.64855 -1.1999282 0
10.666831 -8.6072674 -1.1991558 0
10.697988 -8.5733452 -1.1994202 0
10.737796 -8.5462809 -1.2006639 0
10.765493 -8.5095234 -1.200564 0
10.783923 -8.4654989 -1.1994473 0
10.827641 -8.4412975 -1.2011552 0
10.837363 -8.3906088 -1.1991061 0
10.8598 -8.3498936 -1.1984843 0
10.904541 -8.3262682 -1.2003342 0
10.948424 -8.3018141 -1.2020941 0
10.981719 -8.2692175 -1.2026988 0
10.995712 -8.2221298 -1.2012055 0
11.020489 -8.1831903 -1.2009081 0
11.029119 -8.1323729 -1.1988705 0
11.064993 -8.101697 -1.1998106 0
11.079503 -8.0553989 -1.1984487 0
11.115395 -8.0246639 -1.199414 0
11.146007 -7.9900527 -1.1998197 0
11.179957 -7.9577794 -1.2005955 0
11.204474 -7.9187655 -1.2003704 0
11.207998 -7.8650403 -1.197916 0
11.274128 -7.8551645 -1.2021624 0
11.276184 -7.8005667 -1.199586 0
11.316108 -7.7722173 -1.2010542 0
11.329827 -7.725862 -1.1997544 0
11.355292 -7.6875787 -1.1997149 0
11.375256 -7.6455994 -1.1991088 0
11.409192 -7.6129999 -1.1999888 0
11.425097 -7.5683742 -1.1989861 0
11.450703 -7.5302191 -1.1990168 0
11.495852 -7.5048189 -1.2011029 0
11.484372 -7.4425292 -1.1972896 0
11.547346 -7.428483 -1.2012515 0
11.555313 -7.3789496 -1.1995 0
11.59094 -7.3471074 -1.2006344 0
11.62464 -7.3139496 -1.2015783 0
11.625599 -7.2602582 -1.1991544 0
11.65806 -7.2263117 -1.1999968 0
11.662789 -7.1752281 -1.1980007 0
11.723228 -7.158339 -1.2017367 0
11.751266 -7.12148 -1.2021564 0
11.768926 -7.0783405 -1.2015285 0
11.779633 -7.0311065 -1.2002081 0
11.802912 -6.991437 -1.2001849 0
11.836627 -6.9579034 -1.2012343 0
11.842183 -6.9078498 -1.199441 0
11.872063 -6.8720341 -1.2001269 0
11.887995 -6.828146 -1.1994164 0
11.922608 -6.7949672 -1.2006034 0
11.939081 -6.7514248 -1.199976 0
11.938866 -6.6985731 -1.1976902 0
11.978111 -6.6678891 -1.1993778 0
11.999897 -6.6274133 -1.1993275 0
12.02227 -6.5872636 -1.1993495 0
12.048998 -6.5494776 -1.1998184 0
12.055443 -6.5007138 -1.1982831 0
12.091715 -6.4680371 -1.1997261 0
12.102292 -6.4216013 -1.1986326 0
12.133335 -6.3860307 -1.1995798 0
12.146943 -6.3412762 -1.1988164 0
12.172806 -6.3029318 -1.1992764 0
12.195735 -6.2630415 -1.1994599 0
12.224453 -6.2260828 -1.2002246 0
12.267319 -6.1962037 -1.2023867 0
12.271081 -6.1465516 -1.2007288 0
12.290239 -6.1046886 -1.2005939 0
12.287457 -6.0520301 -1.1983331 0
12.303168 -6.0085955 -1.197894 0
12.356538 -5.9834328 -1.2011303 0
12.355639 -5.9319406 -1.1991028 0
12.39865 -5.9015203 -1.20135 0
12.398386 -5.8504877 -1.199417 0
12.427642 -5.8134279 -1.2003549 0
12.435192 -5.766223 -1.19921 0
12.455905 -5.7251639 -1.1993496 0
12.461775 -5.6773305 -1.1980753 0
12.510977 -5.6491699 -1.2009778 0
5.1404028 -2.300365 -0.49270433 0
5.143259 -2.2809763 -0.49224228 0
5.1348019 -2.2566538 -0.49070597 0
5.1337757 -2.2356958 -0.48988882 0
5.1233912 -2.2107677 -0.48818782 0
5.1382494 -2.1967733 -0.48889905 0
5.0997863 -2.1601338 -0.4845475 0
5.1407928 -2.1572034 -0.48775369 0
5.156867 -2.1436424 -0.48859411 0
5.1425085 -2.1174805 -0.48655832 0
5.1231718 -2.0894568 -0.48406324 0
5.1384096 -2.0756049 -0.48484272 0
5.2246633 -2.0900981 -0.49231732 0
5.2593884 -2.0835612 -0.49492836 0
5.2851348 -2.073287 -0.4966943 0
5.3678379 -2.0849905 -0.50380689 0
5.431571 -2.0888143 -0.50912845 0
5.464416 -2.080442 -0.51155049 0
12.823996 -4.8332543 -1.1989926 0
12.843757 -4.791584 -1.1993314 0
12.860209 -4.7486639 -1.1993742 0
12.91534 -4.7198753 -1.2030333 0
12.892644 -4.6626406 -1.1994562 0
12.917918 -4.6228642 -1.2003589 0
12.92346 -4.5760264 -1.1994414 0
12.936546 -4.5319061 -1.199239 0
12.954642 -4.4895377 -1.1995144 0
12.984387 -4.4511395 -1.2008799 0
12.977496 -4.400208 -1.1988714 0
13.0115 -4.3631525 -1.2006546 0
13.010793 -4.3144412 -1.1992477 0
13.034172 -4.2737412 -1.2000751 0
13.042658 -4.2281456 -1.1995444 0
13.050094 -4.1822557 -1.1989319 0
13.066604 -4.1392884 -1.199167 0
13.097651 -4.1008544 -1.2007477 0
13.097325 -4.0525851 -1.1994655 0
13.111549 -4.0088663 -1.1995304 0
13.137053 -3.9685497 -1.2006397 0
13.159067 -3.9271021 -1.2014414 0
13.172854 -3.8831649 -1.2015048 0
13.151613 -3.8290238 -1.1983896 0
13.187397 -3.7915258 -1.2004852 0
13.18535 -3.7431209 -1.1991497 0
13.220631 -3.7052832 -1.2012217 0
13.198215 -3.6513183 -1.198066 0
13.241192 -3.6154587 -1.20086 0
13.257307 -3.5721393 -1.2012286 0
13.273407 -3.5287859 -1.2016087 0
13.266071 -3.4792557 -1.1998818 0
13.295495 -3.4393706 -1.2014933 0
13.305787 -3.3944767 -1.2013881 0
13.312559 -3.3487053 -1.2009791 0
13.324319 -3.3042026 -1.2010338 0
13.330248 -3.2582698 -1.2005768 0
13.328931 -3.2106271 -1.1994818 0
13.323947 -3.1621997 -1.1980726 0
13.365746 -3.1248202 -1.2008822 0
13.357024 -3.0755866 -1.1991653 0
13.368028 -3.0309594 -1.1992341 0
13.365088 -2.9832141 -1.1980664 0
13.399817 -2.9438357 -1.2002881 0
13.404844 -2.8978615 -1.1998613 0
13.420584 -2.8541985 -1.2004068 0
13.416074 -2.8062563 -1.1991551 0
13.429963 -2.7621961 -1.1995621 0
13.424142 -2.7141182 -1.1982225 0
13.458315 -2.6740913 -1.2004658 0
13.449034 -2.625406 -1.198846 0
13.447257 -2.5782852 -1.1979103 0
13.475625 -2.536912 -1.1996729 0
13.497744 -2.4942458 -1.2008908 0
2.1276956 -0.38580367 -0.18918437 0
2.134192 -0.37959531 -0.18964778 0
2.1430199 -0.37375739 -0.19031981 0
2.1464169 -0.36693871 -0.19051118 0
2.1453032 -0.35934952 -0.19030432 0
2.1175876 -0.34741196 -0.18774134 0
2.1613078 -0.34714726 -0.19151323 0
2.1643445 -0.34019515 -0.19168016 0
2.1913338 -0.33691263 -0.19396928 0
2.1649446 -0.3254289 -0.19153574 0
2.1793382 -0.32012424 -0.19271313 0
2.1879747 -0.31390235 -0.19338267 0
2.1970415 -0.30768883 -0.19409177 0
13.603702 -1.8586725 -1.2012254 0
13.609222 -1.8129668 -1.2011694 0
13.642009 -1.7708042 -1.2035323 0
13.618056 -1.7212869 -1.2009033 0
13.602874 -1.6730506 -1.1990631 0
13.614248 -1.6281321 -1.1995778 0
13.63105 -1.5838038 -1.2005836 0
13.636302 -1.5380945 -1.2005851 0
13.619517 -1.4899739 -1.1986609 0
13.647465 -1.446743 -1.2006868 0
13.657602 -1.401528 -1.2011585 0
13.640257 -1.3535488 -1.1992272 0
13.644135 -1.3077521 -1.199176 0
13.658546 -1.2629328 -1.2000636 0
13.658472 -1.2167542 -1.199692 0
13.688557 -1.1731884 -1.2019821 0
13.665378 -1.1250608 -1.1996088 0
13.692104 -1.0810555 -1.2016301 0
13.672114 -1.0333633 -1.1995649 0
13.685876 -0.98826665 -1.2004749 0
13.696131 -0.94285804 -1.2010903 0
13.693339 -0.89654756 -1.2005752 0
13.685022 -0.84993285 -1.1995894 0
13.700996 -0.80482024 -1.2007464 0
13.682396 -0.75770366 -1.1988869 0
13.69728 -0.71247095 -1.1999749 0
13.691429 -0.66614538 -1.19926 0
13.712707 -0.62110293 -1.2009345 0
13.740026 -0.57618493 -1.2031513 0
13.682547 -0.52782506 -1.1979563 0
13.701479 -0.48255426 -1.1994655 0
13.695067 -0.43635967 -1.1987695 0
13.701608 -0.39058715 -1.1992205 0
13.725238 -0.34520939 -1.2011807 0
13.722765 -0.29911187 -1.2008698 0
13.700909 -0.25268021 -1.1988763 0
13.72801 -0.20713952 -1.2011801 0
13.712778 -0.16092494 -1.1997935 0
13.71753 -0.11498363 -1.2001688 0
13.721541 -0.069009319 -1.2004927 0
13.706012 -0.0229769 -1.1991205 0
13.717093 0.022995476 -1.2000901 0
13.724021 0.069021791 -1.2007096 0
13.717367 0.11498227 -1.2001545 0
13.693439 0.16069798 -1.1981014 0
13.725332 0.20709911 -1.2009459 0
13.723783 0.25310206 -1.2008779 0
13.7014 0.29864618 -1.1990001 0
13.715045 0.34495303 -1.2002887 0
13.696698 0.39044723 -1.1987908 0
13.724506 0.43729767 -1.2013463 0
13.697266 0.48240584 -1.1990967 0
13.722967 0.52938432 -1.2014953 0
13.681344 0.57372409 -1.1980127 0
13.719019 0.62138885 -1.2014874 0
13.704756 0.66679382 -1.2004273 0
13.703932 0.71281695 -1.2005577 0
13.6864 0.75792539 -1.1992377 0
13.678985 0.80352724 -1.1988173 0
13.687183 0.85006708 -1.1997789 0
13.657121 0.89417619 -1.1973997 0
13.690679 0.94248271 -1.2006122 0
13.664845 0.98674798 -1.1986302 0
13.695928 1.0351633 -1.2016543 0
13.684296 1.080439 -1.2009448 0
13.678562 1.1261463 -1.2007662 0
13.671549 1.1717308 -1.2004887 0
13.674897 1.2182174 -1.2011347 0
13.670713 1.2640578 -1.2011327 0
13.647713 1.3080951 -1.1994904 0
13.645824 1.3541013 -1.1997167 0
13.646557 1.4003944 -1.2001871 0
13.635483 1.4454728 -1.1996326 0
13.640285 1.4922459 -1.2004886 0
13.631499 1.5375528 -1.2001623 0
13.64018 1.5848645 -1.2013876 0
13.60656 1.6272125 -1.1989003 0
13.621196 1.6753042 -1.2006781 0
13.609364 1.7201881 -1.2001368 0
13.596972 1.7649581 -1.1995591 0
