# .PCD v0.7 - Point Cloud Data file format
VERSION 0.7
FIELDS x y z intensity
SIZE 4 4 4 4
TYPE F F F F
COUNT 1 1 1 1
WIDTH 1426
HEIGHT 1
VIEWPOINT 0 0 0 1 0 0 0
POINTS 1426
DATA ascii
4.8716855 -22.353645 -1.1990017 0
4.9495692 -22.350569 -1.1997199 0
5.0276456 -22.347925 -1.2004762 0
5.0928903 -22.288687 -1.1982045 0
5.1752501 -22.304493 -1.1999803 0
5.2493157 -22.284096 -1.199823 0
5.3244915 -22.268423 -1.1999338 0
5.4011664 -22.258865 -1.2003877 0
5.4765825 -22.24395 -1.2005668 0
5.5522361 -22.229885 -1.2008057 0
5.6268382 -22.211542 -1.2008272 0
5.6948643 -22.167587 -1.1994764 0
5.7758532 -22.174078 -1.2008687 0
5.8504252 -22.155569 -1.2009219 0
5.9212108 -22.122885 -1.2002196 0
5.9899774 -22.083096 -1.1991438 0
6.0674038 -22.075329 -1.1998199 0
6.1440535 -22.064449 -1.2003415 0
6.2198453 -22.05028 -1.2006984 0
6.2955565 -22.035656 -1.2010448 0
6.3614407 -21.986906 -1.1995435 0
6.4349699 -21.964931 -1.1995149 0
6.5071635 -21.938463 -1.1992542 0
6.5881295 -21.941326 -1.2006114 0
6.6584597 -21.90859 -1.200035 0
6.7381921 -21.906672 -1.2011607 0
6.8060188 -21.866016 -1.2001759 0
6.8784566 -21.840418 -1.20003 0
6.9563193 -21.831903 -1.2008369 0
7.0278931 -21.803539 -1.2005661 0
7.1052651 -21.793068 -1.2012944 0
7.1738563 -21.755667 -1.200552 0
7.2405949 -21.713007 -1.1995308 0
7.3168755 -21.699055 -1.2001084 0
7.3972106 -21.69676 -1.2013465 0
7.4627104 -21.650936 -1.200188 0
7.5316463 -21.615423 -1.1996125 0
7.6129556 -21.615259 -1.2010132 0
7.6866059 -21.593044 -1.2012041 0
7.7569785 -21.561644 -1.2008972 0
7.8230042 -21.518398 -1.1999428 0
7.8944025 -21.490128 -1.1998357 0
7.9693909 -21.471569 -1.2002845 0
8.0347004 -21.427031 -1.199294 0
8.1128721 -21.416805 -1.2002373 0
8.1840782 -21.388035 -1.200156 0
8.2546663 -21.357691 -1.1999996 0
8.322876 -21.321304 -1.1995164 0
8.3987913 -21.304634 -1.200156 0
8.4696264 -21.274979 -1.2000782 0
8.5433168 -21.252449 -1.2004164 0
8.6057396 -21.202044 -1.1991925 0
8.688427 -21.201498 -1.2008024 0
8.7572117 -21.166807 -1.2004938 0
8.8244762 -21.128576 -1.1999968 0
8.8943233 -21.096632 -1.1998696 0
8.9657936 -21.068544 -1.199975 0
9.0331039 -21.030733 -1.1995397 0
9.1109943 -21.017466 -1.2005186 0
9.1664095 -20.952511 -1.1985571 0
9.2569399 -20.967712 -1.2011954 0
9.3220892 -20.925112 -1.2005388 0
9.3840599 -20.875641 -1.1994988 0
9.4554367 -20.847231 -1.1996813 0
9.5202894 -20.804504 -1.1990526 0
9.5946693 -20.782606 -1.1996378 0
9.6755733 -20.774534 -1.2010378 0
9.7404222 -20.731867 -1.2004522 0
9.8053989 -20.689642 -1.1999042 0
9.8794765 -20.666616 -1.2004831 0
9.9327927 -20.600361 -1.1985623 0
10.018788 -20.601862 -1.2005972 0
10.09169 -20.576075 -1.2010596 0
10.149398 -20.519432 -1.1997328 0
10.222793 -20.494619 -1.2002792 0
10.277831 -20.433155 -1.198691 0
10.358043 -20.421766 -1.2000536 0
10.428791 -20.391491 -1.2003224 0
10.502111 -20.366127 -1.2008953 0
10.569883 -20.329931 -1.2008439 0
10.639531 -20.297323 -1.2010182 0
10.703172 -20.253302 -1.2005301 0
10.789491 -20.251976 -1.202589 0
10.838846 -20.181269 -1.2005416 0
10.895443 -20.124487 -1.1993301 0
10.968546 -20.09827 -1.1999526 0
11.036138 -20.061869 -1.1999818 0
11.101141 -20.02079 -1.1997442 0
11.16033 -19.969366 -1.1988982 0
11.22533 -19.92848 -1.1986964 0
11.30985 -19.922026 -1.2005824 0
11.390298 -19.907969 -1.2020299 0
11.434985 -19.83152 -1.1997222 0
11.500083 -19.790781 -1.1995834 0
11.567516 -19.754065 -1.199702 0
11.645964 -19.735981 -1.2009685 0
11.691673 -19.662521 -1.198877 0
11.767814 -19.640371 -1.1999253 0
11.827403 -19.590544 -1.1992972 0
11.904353 -19.56941 -1.20044 0
11.966385 -19.523653 -1.2000877 0
12.03044 -19.481258 -1.1999544 0
12.097165 -19.443184 -1.2001007 0
12.16603 -19.408487 -1.2004701 0
12.220472 -19.350864 -1.1994334 0
12.283515 -19.307003 -1.1992607 0
12.351116 -19.270292 -1.199546 0
12.42163 -19.238024 -1.2001232 0
12.471262 -19.173515 -1.1987007 0
12.534959 -19.130804 -1.1986512 0
12.606004 -19.099234 -1.1993146 0
12.686863 -19.082272 -1.2009137 0
12.747369 -19.034548 -1.2005934 0
12.804142 -18.981363 -1.1999397 0
12.86138 -18.929008 -1.1993493 0
12.933239 -18.898149 -1.2001349 0
12.998462 -18.857487 -1.2003134 0
13.062222 -18.814672 -1.2003692 0
13.119881 -18.763123 -1.19988 0
13.199572 -18.742962 -1.2014142 0
13.235826 -18.661221 -1.1990124 0
13.309752 -18.632744 -1.2000433 0
13.388229 -18.610367 -1.2014863 0
13.446965 -18.560423 -1.201166 0
13.50044 -18.503338 -1.2003943 0
13.561972 -18.457384 -1.2003561 0
13.621837 -18.409184 -1.2001849 0
13.68174 -18.361071 -1.2000321 0
13.73744 -18.307386 -1.199527 0
13.812479 -18.279402 -1.200721 0
13.859883 -18.214846 -1.1995263 0
13.92316 -18.171253 -1.199723 0
14.001727 -18.147436 -1.2012433 0
14.052658 -18.08773 -1.2004032 0
14.111063 -18.03775 -1.2002194 0
14.172468 -17.991615 -1.2003046 0
14.228463 -17.938643 -1.1999465 0
14.277072 -17.876492 -1.1989844 0
14.337005 -17.828617 -1.1989907 0
14.412519 -17.799986 -1.2003082 0
14.462758 -17.740082 -1.1995319 0
14.52731 -17.697771 -1.1999576 0
14.596349 -17.660799 -1.2007624 0
14.670048 -17.629269 -1.201956 0
14.692287 -17.536077 -1.1989541 0
14.770764 -17.510149 -1.2005606 0
14.824988 -17.455343 -1.2002043 0
14.881753 -17.403582 -1.2000691 0
14.91538 -17.324966 -1.1980897 0
15.004826 -17.311134 -1.2006056 0
15.064954 -17.263218 -1.2007787 0
15.11154 -17.199852 -1.1998886 0
15.155829 -17.13406 -1.1988372 0
15.207549 -17.076815 -1.1983925 0
15.284201 -17.047459 -1.199922 0
15.329062 -16.982592 -1.198967 0
15.400009 -16.946611 -1.2000653 0
15.45015 -16.887676 -1.1995535 0
15.509965 -16.839342 -1.1998073 0
15.566383 -16.787296 -1.1998109 0
15.616699 -16.72871 -1.1993592 0
15.681793 -16.685932 -1.200055 0
15.731008 -16.62624 -1.1995486 0
15.790255 -16.577173 -1.1998215 0
15.827315 -16.504919 -1.1984259 0
15.894739 -16.464371 -1.1993445 0
15.944641 -16.405624 -1.1989528 0
15.986577 -16.338808 -1.1979802 0
16.071743 -16.316055 -1.200256 0
16.12208 -16.257763 -1.1999376 0
16.176945 -16.204065 -1.1999707 0
16.254211 -16.172649 -1.2016733 0
16.286718 -16.096687 -1.2000798 0
16.344341 -16.045668 -1.2003548 0
16.398785 -15.991496 -1.2004087 0
16.446348 -15.930652 -1.1999739 0
16.494152 -15.870113 -1.1995728 0
16.55048 -15.81779 -1.1998055 0
16.58445 -15.744201 -1.1984346 0
16.665997 -15.715715 -1.200513 0
16.711752 -15.653339 -1.2000216 0
16.754843 -15.588569 -1.199356 0
16.801853 -15.527536 -1.1989877 0
16.870832 -15.486732 -1.2001979 0
16.926786 -15.433842 -1.2004905 0
16.966154 -15.365878 -1.199622 0
17.039991 -15.32907 -1.201202 0
17.068163 -15.251186 -1.1995766 0
17.131889 -15.205134 -1.2004656 0
17.18401 -15.1487 -1.200552 0
17.243746 -15.098917 -1.2011818 0
17.280071 -15.028666 -1.2001956 0
17.336763 -14.976175 -1.2006389 0
17.368168 -14.90191 -1.1993468 0
17.443518 -14.865311 -1.2011014 0
17.476097 -14.792216 -1.1999232 0
17.52342 -14.731711 -1.1997743 0
17.586292 -14.684213 -1.2007012 0
17.620621 -14.612887 -1.1996932 0
17.660091 -14.545964 -1.1990533 0
17.735786 -14.50878 -1.2008832 0
17.758995 -14.428648 -1.1991723 0
17.822449 -14.381269 -1.2001942 0
17.849678 -14.304695 -1.1987915 0
17.916563 -14.259909 -1.2000656 0
17.961935 -14.19791 -1.1999096 0
18.003557 -14.132991 -1.1995177 0
18.05497 -14.075768 -1.1997921 0
18.117186 -14.026863 -1.2007945 0
18.149784 -13.955024 -1.1998472 0
18.171167 -13.874771 -1.1981788 0
18.245008 -13.834563 -1.1999824 0
18.287241 -13.770265 -1.1997167 0
18.339542 -13.713536 -1.2001249 0
18.39275 -13.657414 -1.2006034 0
18.422626 -13.584011 -1.1995738 0
18.471519 -13.524694 -1.1997981 0
18.504711 -13.453927 -1.1990173 0
18.555006 -13.395628 -1.1993593 0
18.583778 -13.321845 -1.1983252 0
18.653397 -13.277298 -1.1999371 0
18.699652 -13.215984 -1.2000554 0
18.752718 -13.159432 -1.2006227 0
18.781923 -13.086164 -1.1996766 0
18.819187 -13.018618 -1.1992621 0
18.86718 -12.958504 -1.199545 0
18.914495 -12.897883 -1.1997972 0
18.968414 -12.841692 -1.2004794 0
19.003904 -12.773009 -1.2000084 0
19.05131 -12.712348 -1.2003037 0
19.102005 -12.65382 -1.2008178 0
19.127781 -12.578824 -1.1997802 0
19.177193 -12.519418 -1.20024 0
19.216419 -12.453339 -1.200075 0
19.264761 -12.393147 -1.2004923 0
19.299227 -12.32403 -1.2000585 0
19.331705 -12.253718 -1.1995165 0
19.395247 -12.203031 -1.2009137 0
19.434566 -12.137007 -1.2008219 0
19.467962 -12.067323 -1.2003788 0
19.514841 -12.005999 -1.2007805 0
19.54092 -11.931913 -1.1999168 0
19.583899 -11.868198 -1.2001058 0
19.590811 -11.78276 -1.1981015 0
19.660139 -11.734877 -1.1999285 0
19.690121 -11.663413 -1.199365 0
19.727362 -11.596299 -1.1992583 0
19.775974 -11.535834 -1.1998556 0
19.822834 -11.474265 -1.2003578 0
19.841213 -11.396262 -1.1991502 0
19.895346 -11.338812 -1.2001173 0
19.925489 -11.267653 -1.19965 0
19.968622 -11.203852 -1.1999787 0
20.010525 -11.139315 -1.2002455 0
20.0236 -11.058818 -1.1987991 0
20.052908 -10.987424 -1.1983415 0
20.119658 -10.936449 -1.2001325 0
20.161217 -10.871628 -1.2004303 0
20.203373 -10.807083 -1.2007762 0
20.212221 -10.724813 -1.1991582 0
20.267574 -10.667253 -1.2003136 0
20.321239 -10.608644 -1.2013786 0
20.343008 -10.533365 -1.2005708 0
20.352488 -10.451889 -1.1990554 0
20.412821 -10.396531 -1.2005495 0
20.413635 -10.310895 -1.1985574 0
20.478233 -10.257492 -1.2003242 0
20.514402 -10.189715 -1.200435 0
20.574854 -10.133882 -1.2019774 0
20.574648 -10.048203 -1.1999905 0
20.625399 -9.9874811 -1.2009907 0
20.64876 -9.9134665 -1.2004088 0
20.670343 -9.8386869 -1.1997391 0
20.702984 -9.7692194 -1.1997257 0
20.728025 -9.6961975 -1.1992861 0
20.790304 -9.6405039 -1.2010126 0
20.808119 -9.5641298 -1.2001826 0
20.814838 -9.4828157 -1.1987295 0
20.865101 -9.4213657 -1.1997982 0
5.141068 -2.3006625 -0.29517972 0
5.1478033 -2.2829916 -0.29512531 0
5.1495824 -2.2631497 -0.29479063 0
5.1443262 -2.2402906 -0.29405808 0
5.1392126 -2.2175949 -0.29333913 0
5.1356339 -2.1956551 -0.29271302 0
5.1322231 -2.1738732 -0.29210153 0
5.1463366 -2.1595294 -0.29249108 0
5.1591105 -2.1445751 -0.29280677 0
5.1334372 -2.1137452 -0.2909458 0
5.1358309 -2.0946195 -0.29068181 0
5.1614728 -2.0849211 -0.29173583 0
5.190372 -2.07638 -0.29297411 0
5.2410016 -2.076277 -0.29543734 0
5.3018079 -2.0798275 -0.29847026 0
5.3773847 -2.0886986 -0.30232897 0
5.4321718 -2.0890455 -0.30501375 0
5.4717174 -2.0832217 -0.30684027 0
21.425735 -8.0751762 -1.1999769 0
21.452995 -8.0034084 -1.199994 0
21.463995 -7.9256334 -1.1991161 0
21.491976 -7.8541827 -1.1992013 0
21.533447 -7.7875981 -1.2000518 0
21.574194 -7.7206378 -1.2008731 0
21.592752 -7.645709 -1.2004726 0
21.630564 -7.5775781 -1.2011555 0
21.643147 -7.5006099 -1.2004509 0
21.661533 -7.4257259 -1.200083 0
21.691536 -7.3548298 -1.2003723 0
21.722574 -7.2842412 -1.2007318 0
21.749685 -7.2122998 -1.2008868 0
21.7542 -7.1329284 -1.199809 0
21.819874 -7.0735278 -1.2021163 0
21.824314 -6.9941916 -1.2010622 0
21.840061 -6.9185781 -1.2006454 0
21.851871 -6.8417869 -1.2000269 0
21.872398 -6.7677751 -1.1999012 0
21.89683 -6.6949725 -1.2000034 0
21.90753 -6.6180077 -1.199367 0
21.945023 -6.5491228 -1.2002108 0
21.949581 -6.4704156 -1.1992669 0
21.993679 -6.4033451 -1.2004966 0
22.009333 -6.3279319 -1.200186 0
22.019705 -6.25106 -1.199602 0
22.043743 -6.1780944 -1.1997764 0
22.059244 -6.1027431 -1.1994996 0
22.069942 -6.0261164 -1.1989759 0
22.106783 -5.9566026 -1.1998857 0
22.122686 -5.8814006 -1.1996719 0
22.166136 -5.8134503 -1.2009642 0
22.179699 -5.7375975 -1.2006501 0
22.191282 -5.6612806 -1.2002429 0
22.215464 -5.5881848 -1.2005306 0
22.258774 -5.519794 -1.2018642 0
22.237497 -5.4354401 -1.1997247 0
22.270813 -5.3645167 -1.200545 0
22.271393 -5.2857151 -1.199614 0
22.276762 -5.2081552 -1.198956 0
22.335163 -5.1428914 -1.2011645 0
22.329914 -5.0629058 -1.1999625 0
22.334251 -4.9852166 -1.1992906 0
22.35536 -4.9112992 -1.1995332 0
22.344566 -4.830452 -1.1980783 0
22.393148 -4.7624221 -1.1998202 0
22.407934 -4.6870947 -1.1997637 0
22.440783 -4.6154885 -1.2006872 0
22.451628 -4.5393124 -1.2004464 0
22.464258 -4.4635215 -1.2003148 0
22.474873 -4.3873529 -1.2000891 0
22.479441 -4.3100543 -1.1995548 0
22.478388 -4.2317657 -1.1987348 0
22.526978 -4.1627564 -1.2005749 0
22.52556 -4.0844398 -1.1997627 0
22.534554 -4.0080791 -1.1995192 0
22.568565 -3.9361129 -1.2006205 0
22.582361 -3.8605466 -1.200659 0
22.583204 -3.7828047 -1.2000227 0
22.587425 -3.705699 -1.1995801 0
22.603275 -3.6305172 -1.1997687 0
22.589109 -3.5505924 -1.1983781 0
22.590572 -3.4732497 -1.1978313 0
22.630562 -3.401768 -1.1993401 0
22.637859 -3.3252881 -1.1991292 0
22.651241 -3.2497075 -1.1992542 0
22.674192 -3.1754501 -1.199899 0
22.68721 -3.0997512 -1.200031 0
22.687712 -3.0223672 -1.1995147 0
22.713001 -2.9482665 -1.2003225 0
22.700476 -2.8692811 -1.1991454 0
22.748314 -2.7978709 -1.2011702 0
22.75036 -2.7207224 -1.2007898 0
22.763464 -2.644907 -1.2010067 0
22.751656 -2.5662527 -1.1999229 0
22.771168 -2.4911637 -1.2005048 0
22.782503 -2.415132 -1.2006687 0
22.762936 -2.3359072 -1.1992179 0
22.784019 -2.2609019 -1.1999227 0
22.794743 -2.1848123 -1.2000948 0
22.794933 -2.1077256 -1.1997261 0
22.785339 -2.0298138 -1.1988561 0
22.825941 -1.956315 -1.2006407 0
22.792877 -1.8765215 -1.1985638 0
22.840698 -1.8033798 -1.2007538 0
22.846539 -1.726783 -1.2007496 0
22.830563 -1.6486108 -1.1996127 0
22.842806 -1.5725261 -1.1999723 0
22.85685 -1.4965124 -1.2004397 0
22.861946 -1.4198821 -1.2004505 0
1.8958669 -0.1113665 -0.099529296 0
1.9107701 -0.10581461 -0.1002925 0
1.886868 -0.098146394 -0.099020101 0
1.8937352 -0.092138149 -0.099363707 0
1.9069853 -0.086374938 -0.10004318 0
1.9021575 -0.079766549 -0.099775314 0
1.9190561 -0.074030504 -0.10064813 0
1.9306799 -0.067996874 -0.10124523 0
1.9570954 -0.062358033 -0.10261892 0
1.9504886 -0.055601928 -0.10226215 0
1.9678962 -0.049495406 -0.10316553 0
1.9609594 -0.042742573 -0.10279379 0
1.9742235 -0.036409788 -0.1034821 0
1.9291555 -0.029108686 -0.10111411 0
1.9689811 -0.023106782 -0.10319688 0
1.9735616 -0.016542867 -0.10343346 0
2.0038779 -0.010078041 -0.10501996 0
2.0032825 -0.0033583234 -0.10498758 0
2.0111392 0.0033714944 -0.10539933 0
2.0335131 0.010227084 -0.1065731 0
2.0002277 0.01676639 -0.10483102 0
2.0405614 0.023946805 -0.1069485 0
2.0068142 0.030280465 -0.10518449 0
2.0382304 0.037590243 -0.10683714 0
2.0551858 0.0447964 -0.10773315 0
2.0476847 0.051502205 -0.10734839 0
2.0793979 0.0592767 -0.10902073 0
2.0745432 0.066100217 -0.10877721 0
2.07125 0.072947636 -0.10861675 0
2.0746067 0.080031104 -0.10880624 0
2.0970562 0.087939575 -0.10999848 0
2.0612795 0.093363538 -0.10813767 0
2.0654001 0.10049037 -0.10837092 0
2.0819359 0.10829294 -0.10925698 0
2.0871754 0.11558359 -0.10955167 0
2.1094716 0.12391401 -0.11074313 0
2.1591654 0.13409884 -0.11337493 0
2.1328218 0.13964279 -0.1120156 0
2.1319826 0.14676824 -0.11199676 0
22.867268 1.6512613 -1.2015413 0
22.842226 1.7264572 -1.200523 0
22.838644 1.8032175 -1.2006458 0
22.802605 1.8773222 -1.1990752 0
22.83581 1.9571607 -1.2011597 0
22.811577 2.0321512 -1.2002367 0
22.794394 2.1076758 -1.1996977 0
22.791628 2.1845136 -1.1999308 0
22.814402 2.2639167 -1.2015227 0
22.774294 2.3370726 -1.1998163 0
22.765236 2.4133015 -1.1997586 0
22.768103 2.4908283 -1.2003431 0
22.763561 2.5675957 -1.2005508 0
22.751928 2.6435666 -1.200398 0
22.724672 2.7176504 -1.1994339 0
22.731173 2.7957625 -1.200265 0
22.693192 2.8683603 -1.1987606 0
22.684437 2.9445589 -1.198813 0
22.699276 3.0239077 -1.2001263 0
22.705824 3.1022944 -1.2010156 0
22.680393 3.1763184 -1.200227 0
22.671366 3.2525947 -1.2003196 0
22.655811 3.327925 -1.2000802 0
22.657547 3.4058242 -1.2007701 0
22.628761 3.4791212 -1.1998562 0
22.642668 3.5590107 -1.2012194 0
22.608128 3.6312969 -1.2000263 0
22.59182 3.7064197 -1.1998135 0
22.584333 3.782994 -1.2000828 0
22.582911 3.8606405 -1.2006882 0
22.556715 3.934046 -1.19999 0
22.537262 4.0085607 -1.1996633 0
22.517536 4.0829849 -1.1993353 0
22.516962 4.1609058 -1.2000411 0
22.509407 4.2376056 -1.2003889 0
22.510107 4.3159337 -1.2011911 0
22.493639 4.3910165 -1.2010912 0
22.456385 4.461957 -1.1998941 0
22.43536 4.5360236 -1.1995766 0
22.403944 4.6079121 -1.1987162 0
22.381647 4.6815958 -1.1983562 0
22.408775 4.7657456 -1.2006575 0
22.364103 4.8346753 -1.1991258 0
22.354757 4.9111667 -1.1995008 0
22.327681 4.9837499 -1.1989378 0
22.320312 5.060729 -1.1994466 0
22.312996 5.1377873 -1.1999723 0
22.290211 5.2112994 -1.1996799 0
22.252457 5.2812214 -1.1985942 0
22.271042 5.364572 -1.2005574 0
22.23752 5.4354458 -1.199726 0
22.234406 5.513751 -1.2005485 0
22.193386 5.5826311 -1.1993375 0
22.165737 5.6547632 -1.1988612 0
22.163244 5.7333412 -1.1997594 0
22.151237 5.8095431 -1.200157 0
22.09951 5.8752394 -1.198415 0
22.090733 5.9522777 -1.1990145 0
22.089684 6.031507 -1.2000484 0
22.068836 6.1053972 -1.2000213 0
22.026745 6.1733303 -1.1988512 0
22.041317 6.257195 -1.2007794 0
22.007431 6.3273849 -1.2000823 0
21.962116 6.394156 -1.1987736 0
21.968733 6.4760613 -1.2003133 0
21.921026 6.5419617 -1.1988984 0
21.932793 6.625639 -1.2007501 0
21.900023 6.6959491 -1.2001784 0
21.883366 6.7711682 -1.2005029 0
21.839863 6.838027 -1.1993674 0
21.821033 6.9125509 -1.1995995 0
21.792498 6.983995 -1.1993113 0
21.777969 7.0599432 -1.1998076 0
21.763378 7.1359377 -1.2003151 0
21.730383 7.2058992 -1.1998211 0
21.726362 7.285511 -1.2009411 0
21.692827 7.3552675 -1.2004437 0
4.7500601 1.628354 -0.26316079 0
4.6996946 1.6287177 -0.26067156 0
4.6571169 1.6314722 -0.25861189 0
4.6261225 1.638049 -0.25719431 0
4.531827 1.6217799 -0.25225273 0
4.5345368 1.6399208 -0.2527082 0
4.4458847 1.6247362 -0.24806985 0
4.4417777 1.6401374 -0.24814612 0
4.4304943 1.6528721 -0.24782397 0
4.4525828 1.6781404 -0.24937284 0
4.4450674 1.6923499 -0.24926831 0
4.453856 1.7128154 -0.25008178 0
4.4565153 1.731012 -0.25055557 0
4.4632759 1.7508827 -0.2512643 0
4.4364023 1.7575268 -0.25008178 0
4.4757886 1.7905149 -0.25263897 0
4.4319539 1.7902398 -0.25050208 0
4.4710717 1.8235013 -0.25305724 0
4.4436769 1.8297296 -0.25185254 0
21.146673 8.7903967 -1.2001854 0
21.120974 8.8628807 -1.2004066 0
21.068567 8.9240847 -1.1991218 0
21.066107 9.006465 -1.2006938 0
21.038387 9.0781641 -1.2008419 0
20.979942 9.1365061 -1.1992477 0
20.959152 9.211174 -1.1998179 0
20.938274 9.2858839 -1.2003983 0
20.88872 9.3478422 -1.1993474 0
20.889925 9.4325752 -1.2012256 0
20.82424 9.4870987 -1.199271 0
20.785423 9.5536985 -1.1988735 0
20.768524 9.6304054 -1.1997545 0
20.709364 9.6874685 -1.1982065 0
20.697332 9.7665529 -1.1993983 0
20.673855 9.8403587 -1.1999428 0
20.647688 9.9129524 -1.2003465 0
20.598211 9.9743166 -1.1994076 0
20.563633 10.042824 -1.199348 0
20.53289 10.113214 -1.199526 0
20.519178 10.192088 -1.2007145 0
20.493235 10.265007 -1.2012036 0
20.443693 10.326077 -1.2003223 0
20.401104 10.390564 -1.1998605 0
20.368349 10.460035 -1.1999899 0
20.321722 10.522343 -1.1993146 0
20.305365 10.600356 -1.20044 0
20.286631 10.677282 -1.2014421 0
20.233292 10.735993 -1.2004082 0
20.186256 10.797927 -1.1997589 0
20.145243 10.863015 -1.1994793 0
20.134005 10.944247 -1.2009882 0
20.080027 11.002283 -1.1999621 0
20.05261 11.07484 -1.200536 0
20.00717 11.137447 -1.2000443 0
19.962048 11.200163 -1.1995835 0
19.908049 11.257792 -1.1986001 0
19.899538 11.341202 -1.2003703 0
19.865515 11.410219 -1.2006189 0
19.808905 11.466202 -1.1995143 0
19.765102 11.529492 -1.199196 0
19.764851 11.618337 -1.2015374 0
19.693529 11.665432 -1.1995726 0
19.670198 11.740881 -1.2005424 0
19.622169 11.80162 -1.2000194 0
19.599972 11.877937 -1.2010906 0
19.554564 11.940244 -1.2007545 0
19.508526 12.002113 -1.2003919 0
19.468178 12.067455 -1.200392 0
19.431545 12.135119 -1.2006353 0
19.374388 12.189907 -1.1996222 0
19.326332 12.250312 -1.1991831 0
19.292553 12.319768 -1.1996434 0
19.253857 12.386131 -1.1998128 0
19.205997 12.446584 -1.1994241 0
19.180574 12.521625 -1.2004516 0
19.139683 12.586652 -1.2005268 0
19.115726 12.66291 -1.2016804 0
19.056505 12.715815 -1.200631 0
19.002869 12.772313 -1.1999429 0
18.965324 12.839601 -1.2002839 0
18.915905 12.898844 -1.1998864 0
18.887325 12.97234 -1.2008258 0
18.854948 13.043357 -1.2015409 0
18.795652 13.09573 -1.2005537 0
18.738031 13.149125 -1.1996824 0
18.699453 13.215844 -1.2000426 0
18.66046 13.282325 -1.2003914 0
18.600758 13.334017 -1.1994201 0
18.549322 13.391523 -1.1989918 0
18.524448 13.468277 -1.2002962 0
18.465569 13.520337 -1.1994115 0
18.404722 13.570809 -1.198408 0
18.37731 13.645949 -1.1995956 0
18.328211 13.705062 -1.1993833 0
18.276417 13.762114 -1.1990067 0
18.260208 13.846088 -1.2009821 0
18.19499 13.892962 -1.1997496 0
18.17536 13.974689 -1.201538 0
18.096231 14.010639 -1.1994056 0
18.055178 14.07593 -1.1998059 0
18.017334 14.143806 -1.2004356 0
17.962233 14.198145 -1.1999294 0
17.915123 14.258762 -1.1999692 0
17.861139 14.313879 -1.1995611 0
17.828224 14.38593 -1.2005831 0
17.776356 14.442752 -1.2003444 0
17.713118 14.490234 -1.1993481 0
17.668024 14.552497 -1.1995919 0
17.618898 14.611459 -1.1995759 0
17.581865 14.680516 -1.200399 0
17.522703 14.731108 -1.199725 0
17.481745 14.796997 -1.2003109 0
17.43611 14.858998 -1.2005914 0
17.390203 14.920816 -1.2008684 0
17.343763 14.982222 -1.2011236 0
17.280378 15.028933 -1.2002168 0
17.228748 15.085785 -1.2001371 0
17.179682 15.144884 -1.2002497 0
17.134583 15.207525 -1.2006543 0
17.088726 15.26956 -1.2010217 0
17.01791 15.309206 -1.1996454 0
16.986441 15.384251 -1.2010564 0
16.937895 15.443971 -1.2012783 0
16.882759 15.497681 -1.2010465 0
16.823055 15.547131 -1.2005007 0
16.754227 15.587996 -1.199312 0
16.723978 15.664791 -1.2008995 0
16.661974 15.711922 -1.2002232 0
16.609766 15.768234 -1.200264 0
16.548782 15.816167 -1.1996824 0
16.501554 15.877234 -1.200111 0
16.457863 15.941804 -1.200814 0
16.387693 15.98068 -1.1995969 0
16.339836 16.041245 -1.200024 0
16.289978 16.099909 -1.20032 0
16.237841 16.156361 -1.2004629 0
16.173904 16.201019 -1.1997452 0
16.129095 16.264837 -1.2004597 0
16.0774 16.321798 -1.2006785 0
16.015646 16.368517 -1.2001584 0
15.959805 16.421228 -1.200093 0
15.900162 16.469988 -1.1997538 0
15.844485 16.522823 -1.199726 0
15.798542 16.585875 -1.2004511 0
15.74388 16.639845 -1.2005302 0
15.66964 16.673 -1.1991251 0
15.628065 16.740885 -1.200232 0
15.572611 16.794012 -1.2002909 0
15.499381 16.827852 -1.1989886 0
15.480686 16.921055 -1.2019243 0
15.391893 16.937679 -1.1994328 0
15.335173 16.989361 -1.1994449 0
15.255126 17.01503 -1.1976395 0
15.224679 17.09605 -1.1997424 0
15.175799 17.156637 -1.2004168 0
15.111698 17.200033 -1.1999012 0
15.069178 17.268059 -1.2011154 0
14.999207 17.304651 -1.200156 0
14.948191 17.363077 -1.2007253 0
14.882477 17.404427 -1.2001275 0
14.819049 17.448351 -1.1997234 0
14.767828 17.506668 -1.2003219 0
14.699329 17.544483 -1.1995288 0
14.649644 17.604748 -1.2002842 0
14.593703 17.6576 -1.2005448 0
14.525167 17.69516 -1.1997807 0
14.465573 17.743534 -1.1997653 0
14.405833 17.791729 -1.1997514 0
14.332946 17.82357 -1.1986513 0
14.289593 17.892168 -1.2000358 0
14.242691 17.956579 -1.2011464 0
14.158962 17.97447 -1.1991608 0
14.108421 18.034374 -1.1999947 0
14.040318 18.071846 -1.199349 0
13.992753 18.135805 -1.2004734 0
13.934682 18.186291 -1.2007159 0
13.857519 18.211739 -1.1993216 0
13.798404 18.260775 -1.1994975 0
13.74732 18.320553 -1.2003897 0
13.671025 18.346691 -1.1990923 0
13.624066 18.412197 -1.2003814 0
13.534798 18.420401 -1.197951 0
13.498767 18.501045 -1.2002455 0
13.437171 18.546906 -1.2002912 0
13.378698 18.597116 -1.2006309 0
13.309664 18.63262 -1.2000353 0
13.24347 18.671997 -1.1997049 0
13.178149 18.712543 -1.1994644 0
13.128622 18.775623 -1.2006794 0
13.074761 18.832735 -1.2015216 0
12.995592 18.853323 -1.2000484 0
12.92947 18.892643 -1.1997852 0
12.878675 18.954462 -1.2009622 0
12.809873 18.989857 -1.2004768 0
12.754968 19.045895 -1.2013091 0
12.675976 19.065895 -1.1998831 0
12.610971 19.106762 -1.1997873 0
12.551076 19.155401 -1.2001923 0
12.476955 19.18227 -1.199248 0
12.431249 19.252922 -1.2010525 0
12.354107 19.27496 -1.1998365 0
12.292748 19.321514 -1.2001622 0
12.233865 19.37207 -1.2007478 0
12.161158 19.400717 -1.1999893 0
12.101177 19.449635 -1.2004988 0
12.025395 19.473089 -1.1994512 0
11.961978 19.516464 -1.1996456 0
11.917754 19.59144 -1.2017914 0
11.837619 19.607466 -1.2003331 0
11.7849 19.668888 -1.2016675 0
11.703869 19.683033 -1.2001276 0
11.642559 19.730211 -1.2006173 0
11.578588 19.772972 -1.2008504 0
11.509554 19.807079 -1.2005714 0
11.436777 19.834627 -1.1999102 0
11.375383 19.881901 -1.2004559 0
11.326451 19.951269 -1.2023447 0
11.219739 19.918554 -1.1980994 0
11.184631 20.01285 -1.2015089 0
11.109755 20.036324 -1.2006751 0
11.039515 20.068008 -1.200349 0
10.963553 20.089123 -1.1994065 0
10.895845 20.125231 -1.1993744 0
10.827499 20.160143 -1.1992848 0
10.766587 20.208986 -1.2000363 0
10.696656 20.240971 -1.1997992 0
10.628597 20.276466 -1.199784 0
10.569646 20.329473 -1.2008169 0
10.497207 20.356615 -1.2003344 0
10.434264 20.402193 -1.2009523 0
10.350405 20.406708 -1.1991686 0
10.28662 20.450628 -1.1997161 0
10.227201 20.503458 -1.200797 0
10.140792 20.502035 -1.1987156 0
10.079407 20.551031 -1.1995976 0
10.010837 20.58551 -1.1996443 0
9.9487762 20.633511 -1.200491 0
9.8679876 20.642584 -1.1990871 0
9.814765 20.709406 -1.2010504 0
9.7375546 20.725763 -1.2000989 0
9.6648369 20.751482 -1.199705 0
9.5917549 20.776293 -1.1992733 0
9.5123177 20.787085 -1.1980486 0
9.4557514 20.847925 -1.1997212 0
9.3836575 20.874746 -1.1994474 0
9.3211975 20.923111 -1.2004238 0
9.2475395 20.946421 -1.1999756 0
9.173708 20.969193 -1.1995114 0
9.1056204 21.005068 -1.1998105 0
9.0263739 21.015062 -1.1986459 0
8.9601097 21.055187 -1.1992142 0
8.9061413 21.124662 -1.2014638 0
8.8178463 21.112703 -1.1990954 0
8.7605438 21.17486 -1.2009506 0
8.682107 21.186075 -1.199929 0
8.6110821 21.215206 -1.1999369 0
8.5414886 21.247902 -1.2001597 0
8.4653225 21.264168 -1.1994685 0
8.4061174 21.323217 -1.2012029 0
8.3220968 21.319311 -1.1994042 0
8.2570448 21.363844 -1.2003453 0
8.1849499 21.390312 -1.2002839 0
8.1132526 21.41781 -1.2002937 0
8.0339098 21.424923 -1.199176 0
7.9661379 21.462805 -1.1997945 0
7.9056058 21.520626 -1.2015383 0
7.82377 21.520504 -1.2000602 0
7.7571464 21.562109 -1.2009232 0
7.6752439 21.561127 -1.1994284 0
7.6060739 21.59572 -1.1999274 0
7.5302296 21.611359 -1.1993868 0
7.459125 21.640535 -1.1996114 0
7.3948984 21.68998 -1.200971 0
7.3149409 21.693317 -1.1997912 0
7.2400665 21.711424 -1.1994433 0
7.1716084 21.74885 -1.2001758 0
7.0994339 21.775183 -1.2003086 0
7.0208359 21.781645 -1.1993605 0
6.9537325 21.823786 -1.2003903 0
6.8777509 21.838177 -1.1999068 0
6.808362 21.873545 -1.2005891 0
6.7348256 21.895727 -1.2005605 0
6.6612878 21.917896 -1.2005447 0
6.5866795 21.936495 -1.2003471 0
6.5075011 21.939602 -1.1993165 0
6.4439459 21.995569 -1.2011881 0
6.3688684 22.012577 -1.2009439 0
6.2858243 22.001591 -1.1991881 0
6.2159142 22.036343 -1.1999395 0
6.1436458 22.062984 -1.2002618 0
6.0706105 22.086996 -1.2004541 0
5.9962525 22.10623 -1.2004 0
5.9190793 22.11492 -1.1997875 0
5.8481679 22.147022 -1.2004586 0
5.7672825 22.141176 -1.1990869 0
5.6985826 22.18206 -1.2002594 0
5.6236749 22.199055 -1.2001522 0
5.5496964 22.219717 -1.2002565 0
5.478416 22.251394 -1.2009686 0
5.3983283 22.247171 -1.1997571 0
5.3261409 22.275322 -1.2003055 0
5.254817 22.307449 -1.2010804 0
5.1751757 22.304174 -1.1999631 0
5.1053829 22.343361 -1.2011437 0
5.0256367 22.338995 -1.1999965 0
4.9436193 22.3237 -1.1982777 0
4.8789225 22.386852 -1.2007828 0
4.7988796 22.379969 -1.1995438 0
4.7287774 22.419453 -1.2008035 0
4.6514225 22.424767 -1.2002461 0
4.573791 22.428373 -1.1996115 0
4.5005016 22.453234 -1.2001275 0
4.424715 22.465761 -1.1999973 0
4.3508453 22.488111 -1.2004052 0
4.2725244 22.48732 -1.1995916 0
4.1987476 22.510324 -1.2000611 0
4.1218624 22.516691 -1.199657 0
4.0495725 22.548355 -1.2006139 0
3.9679585 22.527792 -1.1988038 0
3.8957825 22.56053 -1.1998441 0
3.8213568 22.580776 -1.2002327 0
3.7454612 22.592466 -1.2001799 0
3.6672075 22.589594 -1.1993674 0
3.5959682 22.630207 -1.2008768 0
3.5171897 22.62359 -1.1998931 0
3.4414866 22.63637 -1.1999522 0
3.3660531 22.651018 -1.2001238 0
3.288938 22.654245 -1.1997037 0
3.2156532 22.684114 -1.2007078 0
3.1344883 22.657965 -1.1987606 0
3.0606689 22.684402 -1.1996096 0
2.9851549 22.698792 -1.1998346 0
2.9120722 22.732395 -1.201088 0
2.83132 22.705797 -1.1991743 0
2.7561171 22.722921 -1.1995839 0
2.6816373 22.746635 -1.2003545 0
2.6020999 22.727051 -1.1988539 0
2.5294876 22.768068 -1.2005633 0
2.4539208 22.783703 -1.2009473 0
2.3761971 22.779144 -1.2002803 0
2.2981524 22.770565 -1.1994154 0
2.2258761 22.81999 -1.201619 0
2.1446044 22.776899 -1.1989646 0
2.0681694 22.783342 -1.1989319 0
1.9923425 22.796703 -1.1992768 0
1.916353 22.808666 -1.1995615 0
1.8370901 22.780504 -1.1977496 0
1.7651737 22.844419 -1.2007922 0
1.687744 22.839022 -1.2002043 0
1.6111102 22.843851 -1.2001675 0
1.533268 22.830631 -1.1991961 0
1.4577489 22.851889 -1.2000492 0
1.381047 22.855396 -1.1999835 0
1.305944 22.886791 -1.2013952 0
1.2290405 22.888042 -1.2012379 0
1.1510586 22.867485 -1.1999496 0
1.0751207 22.886948 -1.2007749 0
0.99819416 22.886183 -1.2005526 0
0.92167842 22.894939 -1.200843 0
0.84459198 22.889259 -1.2003899 0
0.76792598 22.894409 -1.2005181 0
0.69050956 22.875277 -1.1993867 0
0.61446857 22.902037 -1.2006751 0
0.53766531 22.903389 -1.2006446 0
0.46066642 22.894869 -1.2001103 0
0.38394892 22.899103 -1.200258 0
0.30717936 22.90093 -1.2002931 0
0.2300002 22.862572 -1.1982355 0
0.15372908 22.920479 -1.2012366 0
0.076820187 22.902979 -1.2002993 0
3.0333191e-05 22.862005 -1.1981452 0
-0.076716959 22.890312 -1.1996354 0
-0.15343283 22.885365 -1.1993963 0
-0.23031588 22.899994 -1.2001967 0
-0.30703846 22.894957 -1.1999799 0
-0.3841368 22.913937 -1.2010355 0
-0.46064147 22.89665 -1.2002037 0
-0.53697109 22.876404 -1.19923 0
-0.6146248 22.910126 -1.201099 0
-0.69111872 22.89747 -1.2005503 0
-0.76684088 22.863871 -1.1989167 0
-0.84458208 22.89064 -1.2004621 0
-0.92140967 22.889774 -1.200572 0
-0.99688286 22.857512 -1.1990484 0
-1.0745486 22.876062 -1.2002038 0
-1.1517938 22.883301 -1.2007794 0
-1.2268943 22.849207 -1.1991994 0
-1.3042452 22.858088 -1.1998883 0
-1.3829297 22.887564 -1.2016722 0
-1.456851 22.838766 -1.1993599 0
-1.5349343 22.85635 -1.2005469 0
-1.6100545 22.829746 -1.1994262 0
-1.6890633 22.8577 -1.2011856 0
-1.7647157 22.839281 -1.2005218 0
-1.8419303 22.84128 -1.2009449 0
-1.9149178 22.792311 -1.198701 0
-1.9944018 22.820965 -1.2005528 0
-2.0703604 22.808149 -1.2002372 0
-2.147397 22.807207 -1.2005597 0
-2.2212327 22.773012 -1.199145 0
-2.2995102 22.784622 -1.2001556 0
-2.3740919 22.75955 -1.1992474 0
-2.4533074 22.778576 -1.2006766 0
-2.5272238 22.748241 -1.1995176 0
-2.6043212 22.746988 -1.1999052 0
-2.6823757 22.753418 -1.200712 0
-2.7556953 22.71995 -1.1994267 0
-2.8336732 22.725159 -1.2001965 0
-2.9085159 22.705112 -1.1996461 0
-2.9876373 22.718136 -1.2008567 0
-3.059252 22.674355 -1.199078 0
-3.1392229 22.692635 -1.2005944 0
-3.2142344 22.674538 -1.2002004 0
-3.2913969 22.671606 -1.2006226 0
-3.369875 22.677151 -1.2015078 0
-3.4435923 22.650623 -1.2007073 0
-3.5170283 22.622948 -1.1998585 0
-3.5955021 22.627663 -1.2007413 0
-3.6681638 22.595863 -1.1996998 0
-3.742111 22.57263 -1.1991255 0
-3.817971 22.561134 -1.1991881 0
-3.8955798 22.559713 -1.1998001 0
-3.9725385 22.554146 -1.2002057 0
-4.0482912 22.541565 -1.2002517 0
-4.1208062 22.511257 -1.1993669 0
-4.2026048 22.531336 -1.2011806 0
-4.2750592 22.500984 -1.2003199 0
-4.3500085 22.484106 -1.2001909 0
-4.4188375 22.436232 -1.1984195 0
-4.500998 22.456017 -1.2002757 0
-4.5774097 22.446421 -1.2005763 0
-4.6498432 22.417452 -1.1998539 0
-4.7264767 22.40884 -1.2002344 0
-4.7968431 22.370762 -1.1990496 0
-4.8805046 22.394398 -1.2011868 0
-4.9462638 22.335924 -1.1989331 0
-5.0212135 22.319613 -1.1989546 0
-5.0975337 22.30928 -1.1993109 0
-5.1738124 22.298567 -1.1996607 0
-5.2485685 22.281189 -1.1996658 0
-5.3269806 22.279095 -1.200508 0
-5.3955569 22.236006 -1.1991541 0
-5.4718342 22.224918 -1.1995388 0
-5.5502257 22.222086 -1.2003837 0
-5.6237478 22.199591 -1.2001803 0
-5.6889281 22.144724 -1.1982385 0
-5.7705541 22.153976 -1.1997793 0
-5.8481293 22.147112 -1.2004627 0
-5.9277158 22.147423 -1.20155 0
-5.9969134 22.108898 -1.2005441 0
-6.0671821 22.074753 -1.1997877 0
-6.1405444 22.052073 -1.1996673 0
-6.2218204 22.057505 -1.2010909 0
-6.278574 21.976435 -1.197816 0
-6.3624573 21.990639 -1.1997461 0
-6.4471364 22.006676 -1.2017937 0
-6.5075088 21.93984 -1.1993285 0
-6.5825772 21.923044 -1.1996101 0
-6.6582599 21.908142 -1.2000095 0
-6.7392144 21.910204 -1.2013533 0
-6.8060589 21.86635 -1.2001932 0
-6.8817034 21.850929 -1.2006065 0
-6.9554858 21.829489 -1.200703 0
-7.0218434 21.784969 -1.1995425 0
-7.1006923 21.77924 -1.2005311 0
-7.1729193 21.753019 -1.2004049 0
-7.2404118 21.71265 -1.19951 0
-7.3208771 21.711113 -1.2007743 0
-7.3848147 21.660589 -1.1993427 0
-7.4669085 21.663303 -1.2008724 0
-7.5305586 21.612486 -1.1994483 0
-7.6074023 21.599676 -1.2001462 0
-7.6790652 21.572042 -1.2000346 0
-7.759861 21.569836 -1.2013524 0
-7.82195 21.515675 -1.1997898 0
-7.8977661 21.499462 -1.2003555 0
-7.9688783 21.470362 -1.2002159 0
-8.0408125 21.443504 -1.2002147 0
-8.1079788 21.404058 -1.1995218 0
-8.1780357 21.372414 -1.1992782 0
-8.2520819 21.351171 -1.1996322 0
-8.3236399 21.323429 -1.1996347 0
-8.3982201 21.30335 -1.2000824 0
-8.4668913 21.268274 -1.1996988 0
-8.5436888 21.253538 -1.2004768 0
-8.6114759 21.216337 -1.1999997 0
-8.6933622 21.213701 -1.2014923 0
-8.7595453 21.172606 -1.2008214 0
-8.8213701 21.121296 -1.1995821 0
-8.8956556 21.099949 -1.2000569 0
-8.9667301 21.070898 -1.2001078 0
-9.034791 21.034815 -1.1997712 0
-9.1203775 21.039263 -1.2017623 0
-9.1739807 20.969969 -1.1995543 0
-9.2538366 20.960835 -1.2007999 0
-9.31427 20.907709 -1.1995388 0
-9.381362 20.869789 -1.1991611 0
-9.4448309 20.823996 -1.1983427 0
-9.5244951 20.813841 -1.1995893 0
-9.607976 20.811573 -1.2013084 0
-9.6743603 20.772072 -1.2008939 0
-9.7350245 20.72052 -1.1997938 0
-9.7953882 20.668661 -1.1986859 0
-9.8769255 20.661421 -1.2001798 0
-9.9441671 20.62409 -1.1999413 0
-10.016854 20.598024 -1.2003721 0
-10.075006 20.542194 -1.1990802 0
-10.139586 20.499735 -1.1985795 0
-10.212563 20.474245 -1.1990845 0
-10.292738 20.462925 -1.2004359 0
-10.353474 20.412891 -1.1995304 0
-10.432372 20.398626 -1.2007408 0
-10.478515 20.320499 -1.1982032 0
-10.556342 20.304016 -1.1993116 0
-10.633289 20.285547 -1.2003198 0
-10.694938 20.23785 -1.1996125 0
-10.761173 20.198954 -1.1994388 0
-10.836 20.1761 -1.2002324 0
-10.905248 20.142725 -1.2004153 0
-10.970239 20.1015 -1.2001437 0
-11.038528 20.066341 -1.2002475 0
-11.101105 20.020849 -1.199746 0
-11.172471 19.991215 -1.2002082 0
-11.242046 19.958281 -1.2004871 0
-11.297784 19.900894 -1.1993071 0
-11.37262 19.877192 -1.2001698 0
-11.43144 19.825493 -1.1993557 0
-11.496488 19.784714 -1.1992139 0
-11.571604 19.761164 -1.2001313 0
-11.639459 19.725077 -1.200303 0
-11.69527 19.66869 -1.1992511 0
-11.764118 19.634321 -1.1995538 0
-11.851755 19.630999 -1.2017719 0
-11.911167 19.580729 -1.2011324 0
-11.959929 19.513237 -1.1994454 0
-12.034135 19.487358 -1.200328 0
-12.095889 19.441248 -1.1999792 0
-12.14595 19.37657 -1.1984938 0
-12.243928 19.388119 -1.2017406 0
-12.283317 19.306805 -1.1992464 0
-12.34817 19.265808 -1.1992649 0
-12.426177 19.245178 -1.2005675 0
-12.482963 19.191616 -1.1998303 0
-12.545269 19.14665 -1.1996419 0
-12.621091 19.122202 -1.2007548 0
-12.684752 19.079206 -1.2007188 0
-12.741213 19.025465 -1.2000183 0
-12.80341 18.980385 -1.1998757 0
-12.852818 18.916513 -1.1985556 0
-12.933836 18.89913 -1.200195 0
-12.99394 18.851034 -1.1999006 0
-13.076862 18.835869 -1.2017193 0
-13.126303 18.772411 -1.2004719 0
-13.176791 18.71072 -1.1993454 0
-13.247571 18.677885 -1.2000809 0
-13.298661 18.617321 -1.1990477 0
-13.366082 18.579685 -1.1995032 0
-13.432452 18.540495 -1.199874 0
-13.493269 18.493614 -1.199761 0
-13.550589 18.441996 -1.199353 0
-13.624318 18.41264 -1.200408 0
-13.673344 18.349905 -1.1993001 0
-13.755674 18.331787 -1.2011235 0
-13.789092 18.248552 -1.1986922 0
-13.871404 18.230085 -1.2005274 0
-13.926611 18.175856 -1.2000245 0
-13.988246 18.130062 -1.2000908 0
-14.044394 18.077192 -1.1997013 0
-14.104696 18.029711 -1.1996819 0
-14.185009 18.007635 -1.2013708 0
-14.229644 17.940228 -1.20005 0
-14.281538 17.882181 -1.1993634 0
-14.350055 17.844942 -1.200086 0
-14.422656 17.812601 -1.2011564 0
-14.467646 17.746172 -1.1999412 0
-14.529933 17.701061 -1.2001781 0
-14.587283 17.649927 -1.2000206 0
-14.656538 17.613129 -1.200853 0
-14.690529 17.534075 -1.1988145 0
-14.768445 17.507494 -1.2003758 0
-14.813769 17.442228 -1.1992997 0
-14.870922 17.391008 -1.1991994 0
-14.920686 17.331221 -1.1985197 0
-15.015485 17.323526 -1.2014623 0
-15.052576 17.249126 -1.1997958 0
-15.100137 17.186966 -1.1989869 0
-15.171249 17.151585 -1.2000605 0
-15.217051 17.087574 -1.1991448 0
-15.283671 17.046959 -1.1998839 0
-15.356892 17.013514 -1.2011472 0
-15.411119 16.958925 -1.2009345 0
-15.463965 16.902868 -1.2006296 0
-15.533601 16.865093 -1.2016392 0
-15.552006 16.771879 -1.1987062 0
-15.625459 16.738182 -1.2000353 0
-15.698312 16.703598 -1.2013226 0
-15.746077 16.642254 -1.200701 0
-15.792942 16.580082 -1.200029 0
-15.837315 16.515432 -1.1991863 0
-15.909976 16.480242 -1.2004976 0
-15.938304 16.399193 -1.1984795 0
-16.008709 16.361515 -1.1996419 0
-16.089146 16.333809 -1.2015589 0
-16.125132 16.260927 -1.200168 0
-16.177044 16.20425 -1.1999812 0
-16.226511 16.145172 -1.1996285 0
-16.288244 16.098282 -1.2001953 0
-16.340855 16.04233 -1.2001019 0
-16.396477 15.989332 -1.200243 0
-16.439831 15.924421 -1.1995014 0
-16.506689 15.882259 -1.2004876 0
-16.548481 15.815963 -1.1996635 0
-16.610323 15.768847 -1.2003073 0
-16.662062 15.712089 -1.2002325 0
-16.71244 15.654068 -1.200074 0
-16.741413 15.576157 -1.1983976 0
-16.826839 15.550711 -1.2007737 0
-16.86175 15.478477 -1.1995548 0
-16.956339 15.460871 -1.2025894 0
-16.964485 15.364449 -1.1995069 0
-17.034012 15.323772 -1.2007833 0
-17.058186 15.242352 -1.1988782 0
-17.135607 15.208516 -1.2007289 0
-17.16667 15.133495 -1.1993434 0
-17.22625 15.083678 -1.199966 0
-17.272024 15.021748 -1.1996393 0
-17.344885 14.98327 -1.2012039 0
-17.383341 14.915008 -1.2003971 0
-17.43141 14.855074 -1.2002705 0
-17.469437 14.786657 -1.1994684 0
-17.536091 14.742442 -1.2006445 0
-17.579361 14.678504 -1.2002307 0
-17.632717 14.622998 -1.2005194 0
-17.67728 14.560201 -1.200223 0
-17.722391 14.4979 -1.1999787 0
-17.766243 14.434614 -1.1996642 0
-17.801546 14.364481 -1.1987892 0
-17.873896 14.324181 -1.2004205 0
-17.907867 14.253065 -1.1994858 0
-17.956181 14.193438 -1.1995275 0
-18.0214 14.147077 -1.2007091 0
-18.05611 14.076735 -1.1998703 0
-18.104471 14.017096 -1.1999543 0
-18.161531 13.964132 -1.2006263 0
-18.200294 13.897089 -1.2001019 0
-18.258499 13.84487 -1.2008722 0
-18.266897 13.755021 -1.1983844 0
-18.341227 13.714871 -1.2002374 0
-18.368628 13.639578 -1.1990312 0
-18.421398 13.58318 -1.1994962 0
-18.482586 13.532873 -1.2005192 0
-18.530697 13.472895 -1.2007034 0
-18.555286 13.395905 -1.1993797 0
-18.615345 13.344548 -1.200363 0
-18.659126 13.28145 -1.2003078 0
-18.690401 13.209521 -1.199464 0
-18.762835 13.166605 -1.2012726 0
-18.759981 13.07095 -1.1982774 0
-18.822813 13.021199 -1.1994953 0
-18.861689 12.954805 -1.199198 0
-18.92495 12.905086 -1.2004625 0
-18.967302 12.841012 -1.2004111 0
-18.990576 12.764124 -1.1991689 0
-19.054274 12.714399 -1.2004925 0
-19.086258 12.643461 -1.1998301 0
-19.117947 12.57243 -1.1991655 0
-19.190256 12.528017 -1.2010596 0
-19.218615 12.454833 -1.2002141 0
-19.237682 12.375799 -1.198807 0
-19.305285 12.32797 -1.2004371 0
-19.341011 12.259688 -1.2000959 0
-19.398584 12.205203 -1.2011224 0
-19.406013 12.119246 -1.1990596 0
-19.478001 12.073616 -1.2009996 0
-19.506365 12.000855 -1.2002609 0
-19.5396 11.931179 -1.1998377 0
-19.595253 11.87515 -1.2008034 0
-19.608265 11.793329 -1.1991709 0
-19.663321 11.736847 -1.2001246 0
-19.683886 11.659791 -1.198987 0
-19.731955 11.59907 -1.1995394 0
-19.787786 11.542794 -1.200574 0
-19.81875 11.471971 -1.2001123 0
-19.862852 11.40876 -1.2004598 0
-19.87431 11.326894 -1.1988504 0
-19.938442 11.275048 -1.2004317 0
-19.973478 11.206646 -1.2002722 0
-20.00757 11.137739 -1.2000701 0
-20.033443 11.064323 -1.1993902 0
-20.044683 10.982987 -1.1978518 0
-20.104784 10.928432 -1.1992469 0
-20.139498 10.859985 -1.1991389 0
-20.191366 10.80073 -1.2000643 0
-20.220791 10.729429 -1.1996683 0
-20.261696 10.664228 -1.1999671 0
-20.292152 10.593527 -1.1996605 0
-20.33577 10.529685 -1.2001452 0
-20.349894 10.450625 -1.1989042 0
-20.412117 10.396241 -1.2005097 0
-20.452335 10.330511 -1.2008313 0
-20.472363 10.25462 -1.1999817 0
-20.529034 10.197051 -1.2012928 0
-20.551893 10.122641 -1.2006377 0
-20.607555 10.064342 -1.2019113 0
-20.622066 9.9859362 -1.2007983 0
-20.650417 9.9143305 -1.2005067 0
-20.673706 9.8403549 -1.1999358 0
-20.684256 9.7604494 -1.1986419 0
-20.752836 9.7078714 -1.2007232 0
-20.770065 9.6311865 -1.199845 0
-20.818474 9.5689564 -1.2007813 0
-20.806761 9.4792032 -1.1982659 0
-20.864359 9.4210978 -1.1997571 0
-20.898619 9.3523397 -1.1999172 0
-20.91777 9.2768564 -1.1992242 0
-20.960398 9.2117882 -1.1998907 0
-21.005705 9.1477919 -1.2007217 0
-21.032099 9.0755177 -1.2004844 0
-21.073549 9.0097122 -1.2011193 0
-21.057739 8.9195642 -1.198507 0
-21.109196 8.8580046 -1.1997385 0
-21.133083 8.7848129 -1.1994154 0
-21.160257 8.7130194 -1.199293 0
-21.210783 8.6507645 -1.200506 0
-21.235687 8.5779915 -1.2002809 0
-21.268072 8.5082426 -1.2004923 0
-21.26996 8.4263811 -1.1989974 0
-21.32975 8.3674383 -1.2007796 0
-21.332907 8.2862511 -1.1993865 0
-21.38434 8.2238216 -1.2007211 0
-21.393393 8.1450729 -1.1996894 0
-21.415442 8.0713615 -1.1994015 0
-21.434626 7.9966197 -1.1989676 0
-21.465464 7.9262404 -1.1991993 0
-21.494247 7.8550773 -1.1993293 0
-21.514635 7.780859 -1.1990044 0
-21.533716 7.7062168 -1.1986212 0
-21.582638 7.6421914 -1.1999114 0
-21.620508 7.5741196 -1.2005982 0
-21.654314 7.5045443 -1.2010714 0
-21.645653 7.4203467 -1.1992044 0
-21.659481 7.3440256 -1.1985996 0
-21.708254 7.2795029 -1.1999413 0
-21.724634 7.2040572 -1.1995047 0
-21.780832 7.1417251 -1.2012788 0
-21.787041 7.0629478 -1.2003084 0
-21.788763 6.9828625 -1.1991068 0
-21.835714 6.9172649 -1.2004075 0
-21.850821 6.8415217 -1.1999701 0
-21.857265 6.7631559 -1.1990721 0
-21.892246 6.6936345 -1.1997532 0
-21.926483 6.6237969 -1.2004056 0
-21.940485 6.547832 -1.1999636 0
-21.974243 6.4777489 -1.2006152 0
-21.990454 6.4024692 -1.2003213 0
-22.001087 6.3256245 -1.1997374 0
-22.036957 6.2560205 -1.2005428 0
-22.035944 6.175972 -1.1993527 0
-22.076534 6.1075897 -1.2004408 0
-22.109295 6.0369248 -1.2011148 0
-22.138292 5.9651556 -1.2015967 0
-22.106283 5.8771029 -1.1987832 0
-22.168516 5.8141375 -1.201094 0
-22.155882 5.7314992 -1.1993617 0
-22.18379 5.6594319 -1.1998385 0
-22.21003 5.5868807 -1.2002378 0
-22.194912 5.5040202 -1.1984168 0
-22.263536 5.4418674 -1.2011303 0
-22.285473 5.3681107 -1.201336 0
-22.297823 5.2920508 -1.2010386 0
-22.299116 5.2134438 -1.2001599 0
-22.293911 5.1334553 -1.1989466 0
-22.350307 5.0675921 -1.2010591 0
-22.370195 4.9933019 -1.2012215 0
-22.354811 4.9112406 -1.1995044 0
-22.38545 4.8393526 -1.2002711 0
-22.371405 4.7578602 -1.1986558 0
-22.40357 4.686244 -1.1995307 0
-22.436634 4.6146975 -1.2004658 0
-22.442511 4.5375309 -1.1999595 0
-22.456221 4.4619865 -1.199886 0
-22.479504 4.388319 -1.2003371 0
-22.4914 4.3124089 -1.2001935 0
-22.474842 4.2311602 -1.1985462 0
-22.521299 4.1617694 -1.2002728 0
-22.541956 4.0874743 -1.2006365 0
-22.562576 4.0131254 -1.2010114 0
-22.550629 3.9330461 -1.1996667 0
-22.559345 3.8566737 -1.1994358 0
-22.587797 3.7836356 -1.2002673 0
-22.639511 3.7143059 -1.2023468 0
-22.608955 3.6314912 -1.2000706 0
-22.629789 3.5570481 -1.2005367 0
-22.640289 3.4809549 -1.2004678 0
-22.648281 3.4044929 -1.2002796 0
-22.656755 3.328125 -1.2001306 0
-22.652903 3.2500072 -1.1993426 0
-22.664316 3.1741283 -1.1993767 0
-22.682867 3.0992191 -1.1998017 0
-22.729147 3.0279484 -1.2017059 0
-22.694324 2.9459035 -1.1993359 0
-22.741634 2.8745446 -1.2013201 0
-22.731762 2.7958963 -1.2002966 0
-22.721973 2.7173889 -1.1992919 0
-22.729895 2.6410677 -1.1992359 0
-22.741587 2.5651782 -1.1993923 0
-22.775669 2.4917171 -1.2007424 0
-22.780603 2.4149916 -1.2005689 0
-22.75808 2.3354697 -1.1989625 0
-22.782068 2.2607694 -1.1998202 0
-22.784716 2.183912 -1.1995672 0
-22.807186 2.1089196 -1.2003713 0
-22.828991 2.0337636 -1.2011533 0
-22.821918 1.9560312 -1.2004293 0
-22.804798 1.8775637 -1.199191 0
-22.848671 1.8040701 -1.2011731 0
-22.813032 1.7243116 -1.1989889 0
-22.839647 1.6493278 -1.2000903 0
-22.818073 1.5708843 -1.1986732 0
-22.842545 1.4956367 -1.1996887 0
-22.860537 1.4198555 -1.2003767 0
-22.851009 1.3423687 -1.1996335 0
-22.88884 1.267599 -1.2013896 0
-22.842537 1.1882269 -1.1987435 0
-22.872023 1.1128806 -1.2000881 0
-22.910072 1.0377491 -1.2018954 0
-22.880924 0.95956725 -1.2001907 0
-22.881512 0.88274992 -1.2000595 0
-22.877483 0.80578595 -1.1996998 0
-22.884249 0.72921109 -1.1999196 0
-22.855867 0.65160531 -1.1983101 0
-22.890249 0.57578331 -1.2000048 0
-22.89304 0.499055 -1.2000567 0
-22.908295 0.42254901 -1.2007753 0
-22.880642 0.3453027 -1.1992584 0
-22.893518 0.26872534 -1.1998793 0
-22.909628 0.19209479 -1.2006831 0
-22.89097 0.11518558 -1.1996783 0
-22.917643 0.038480189 -1.2010627 0
-22.889618 6.0739658e-05 -1.1995922 0
-68.756668 -0.11544684 -1.200152 0
-68.76017 -0.34599581 -1.2002267 0
-68.710724 -0.57613212 -1.1993905 0
-68.767349 -0.80719483 -1.2004194 0
-68.736725 -1.0373387 -1.1999389 0
-68.761841 -1.2683288 -1.2004448 0
-68.71286 -1.4979004 -1.1996706 0
-68.727013 -1.7287654 -1.2000122 0
-68.721817 -1.9592124 -1.2000294 0
-68.724754 -2.1899278 -1.2002021 0
-68.698456 -2.4196827 -1.1998779 0
-68.720573 -2.6511834 -1.2004126 0
-68.687859 -2.8805923 -1.2000031 0
-68.668068 -3.1104324 -1.1998329 0
-68.680473 -3.3417757 -1.2002386 0
-68.649185 -3.5710051 -1.1998944 0
-68.67144 -3.8030696 -1.2004995 0
-68.633469 -4.0318317 -1.2000653 0
-68.63298 -4.2627573 -1.2002999 0
-68.574158 -4.4899564 -1.1995276 0
-68.576035 -4.7210393 -1.1998307 0
-68.581245 -4.9524822 -1.2002054 0
-68.543312 -5.1808114 -1.1998389 0
-68.554642 -5.4128919 -1.2003483 0
-68.507477 -5.6403551 -1.1998467 0
-68.495895 -5.870677 -1.1999819 0
-68.481628 -6.1008143 -1.2000835 0
-68.45002 -6.329391 -1.1998948 0
-68.430817 -6.5590854 -1.199937 0
-68.404488 -6.7880921 -1.1998676 0
-68.402565 -7.0195785 -1.2002399 0
-68.342392 -7.2450371 -1.1996036 0
-68.36985 -7.4798388 -1.200519 0
-68.303841 -7.7044539 -1.1998067 0
-68.289444 -7.9347944 -1.2000145 0
-68.225441 -8.1592846 -1.1993638 0
-68.205566 -8.3889532 -1.1995021 0
-68.220642 -8.6230955 -1.200269 0
-68.140945 -8.8452358 -1.1993818 0
-68.176727 -9.0824184 -1.2005409 0
-68.11808 -9.3071508 -1.200051 0
-68.09507 -9.5366869 -1.2002021 0
-68.074097 -9.7665758 -1.2004027 0
-68.043793 -9.9951754 -1.2004526 0
-68.008812 -10.223094 -1.2004334 0
-67.934624 -10.44498 -1.1997353 0
-67.926247 -10.676941 -1.2002128 0
-67.87661 -10.902464 -1.199975 0
-67.831276 -11.128602 -1.1998265 0
-67.800789 -11.357172 -1.199954 0
-67.78611 -11.588497 -1.2003751 0
-67.699677 -11.807474 -1.1995388 0
-67.667068 -12.035701 -1.1996692 0
-67.624313 -12.262142 -1.1996335 0
-67.573059 -12.487001 -1.1994601 0
-67.582855 -12.723288 -1.2003845 0
-67.509926 -12.944077 -1.1998532 0
-67.465942 -13.170313 -1.1998496 0
-67.444893 -13.401106 -1.2002676 0
-67.391304 -13.625486 -1.2001201 0
-67.344666 -13.851242 -1.2001098 0
-67.300003 -14.07741 -1.2001483 0
-67.234749 -14.299215 -1.1998329 0
-67.203751 -14.528304 -1.2001423 0
-67.14045 -14.750422 -1.1998882 0
-67.103188 -14.978254 -1.2001131 0
-67.040298 -15.200367 -1.199893 0
-66.995201 -15.426493 -1.2000048 0
-66.966797 -15.656569 -1.2004297 0
-66.887093 -15.874638 -1.1999482 0
-66.816391 -16.09469 -1.1996412 0
-66.781677 -16.32342 -1.1999938 0
-66.748535 -16.552679 -1.2003887 0
-66.679863 -16.773163 -1.2001585 0
-66.646439 -17.00255 -1.2005762 0
-66.569557 -17.220861 -1.2002245 0
-66.526291 -17.447853 -1.2004924 0
-66.444351 -17.664675 -1.2000759 0
-66.37809 -17.885555 -1.1999555 0
-66.342674 -18.114813 -1.2004063 0
-66.231171 -18.323204 -1.1994938 0
-66.176247 -18.547091 -1.1996185 0
-66.158333 -18.781536 -1.2004285 0
