# .PCD v0.7 - Point Cloud Data file format
VERSION 0.7
FIELDS x y z intensity
SIZE 4 4 4 4
TYPE F F F F
COUNT 1 1 1 1
WIDTH 1413
HEIGHT 1
VIEWPOINT 0 0 0 1 0 0 0
POINTS 1413
DATA ascii
-4.6213341 -2.3928866 -1.2014588 0
-4.600039 -2.4014525 -1.198009 0
-4.6037068 -2.4230437 -1.2010733 0
-4.5640473 -2.4217463 -1.1928381 0
-4.5787759 -2.4492707 -1.198827 0
-4.5631037 -2.4605997 -1.196877 0
-4.5861888 -2.4929318 -1.2051176 0
-4.5602412 -2.4986711 -1.2004941 0
-4.5407953 -2.5078478 -1.1975816 0
-4.538692 -2.5265822 -1.1992544 0
-4.5608006 -2.5589573 -1.2073563 0
-4.5262032 -2.559536 -1.2004626 0
-4.5095134 -2.5700905 -1.1983148 0
-4.5138206 -2.5926337 -1.2017626 0
-4.4933519 -2.6009512 -1.1986278 0
-4.4813452 -2.6140997 -1.1977563 0
-4.485723 -2.6368504 -1.2012826 0
-4.4463453 -2.6338017 -1.1930953 0
-4.4722295 -2.6694307 -1.2024359 0
-4.4330368 -2.6662359 -1.1942949 0
-4.45398 -2.6992087 -1.2023685 0
-4.4145713 -2.6956046 -1.1941631 0
-4.4364276 -2.7294128 -1.2025441 0
-4.4321375 -2.7473006 -1.2038713 0
-4.399229 -2.7473619 -1.197428 0
-4.3919625 -2.7633355 -1.1979651 0
-4.3853264 -2.7797272 -1.1986904 0
-4.3905997 -2.8037496 -1.2026947 0
-4.3784285 -2.8166881 -1.2019408 0
-4.3598356 -2.825439 -1.1994305 0
-4.3486567 -2.838943 -1.198967 0
-4.3353248 -2.8510158 -1.1979201 0
-4.3221259 -2.8631401 -1.1969187 0
-4.3270593 -2.8873289 -1.2009591 0
-4.3034959 -2.8925059 -1.1971041 0
-4.3094077 -2.9175029 -1.2014629 0
-4.3030467 -2.9342842 -1.2024256 0
-4.2922201 -2.9480326 -1.2021555 0
-4.273478 -2.9562962 -1.1996756 0
-4.2695661 -2.9748049 -1.2013706 0
-4.2597003 -2.9891961 -1.2014079 0
-4.2520757 -3.0051727 -1.2020925 0
-4.2403669 -3.0182669 -1.2016366 0
-4.2261543 -3.0295501 -1.2004806 0
-4.2161536 -3.0438328 -1.2005321 0
-4.2190766 -3.0675139 -1.2042861 0
-4.191957 -3.0693336 -1.1994759 0
-4.1762238 -3.0793755 -1.1979215 0
-4.1884103 -3.1100934 -1.2044015 0
-4.1734333 -3.1207347 -1.2030969 0
-4.1411595 -3.118304 -1.1968002 0
-4.1622162 -3.1560829 -1.205937 0
-4.1464138 -3.1660521 -1.2044274 0
-4.1212811 -3.1687918 -1.2002063 0
-4.1273541 -3.1955378 -1.2050885 0
-4.1038513 -3.1994059 -1.2013515 0
-4.0929589 -3.2130356 -1.2013097 0
-4.0882163 -3.2315252 -1.203091 0
-4.0497313 -3.2232249 -1.194939 0
-4.0496321 -3.2453842 -1.1981138 0
-4.0515079 -3.2692561 -1.201905 0
-4.0336671 -3.2772505 -1.1998653 0
-4.0131555 -3.2829838 -1.1970314 0
-4.031549 -3.3206558 -1.2058319 0
-4.0069752 -3.3230269 -1.2018076 0
-3.9930379 -3.3341269 -1.2009734 0
-3.9958787 -3.3593011 -1.2052087 0
-3.9393816 -3.3344114 -1.1915337 0
-3.959501 -3.3742926 -1.2010343 0
-3.9518163 -3.3906815 -1.2021449 0
-3.9555323 -3.4169619 -1.2067536 0
-3.9261353 -3.4146211 -1.2012712 0
-3.9073219 -3.4213359 -1.1990179 0
-3.9179857 -3.4539497 -1.2058371 0
-3.9061165 -3.46683 -1.2057549 0
-3.8866825 -3.4729476 -1.2033434 0
-3.864043 -3.4760876 -1.1999358 0
-3.8447447 -3.4821203 -1.1975616 0
-3.8492754 -3.5097876 -1.2026316 0
-3.8300567 -3.5158539 -1.2003032 0
-3.8111131 -3.5220826 -1.1980606 0
-3.8204546 -3.5545387 -1.2047368 0
-3.7826812 -3.5431299 -1.1965648 0
-3.7723105 -3.5572355 -1.1970503 0
-3.7728548 -3.5817225 -1.2010269 0
-3.7467785 -3.5809276 -1.1965413 0
-3.7278526 -3.586832 -1.194331 0
-3.7388346 -3.6216178 -1.2017331 0
-3.7131419 -3.62094 -1.1973704 0
-3.7138789 -3.6460314 -1.2015432 0
-3.7040186 -3.66082 -1.2023175 0
-3.6669071 -3.6485262 -1.1942352 0
-3.6928406 -3.6990511 -1.2067136 0
-3.6725681 -3.7034962 -1.2041398 0
-3.6434975 -3.6989031 -1.1986679 0
-3.6265347 -3.7064574 -1.1971689 0
-3.6189637 -3.7236133 -1.1987844 0
-3.6043556 -3.7335474 -1.1980852 0
-3.5964568 -3.7504492 -1.1996326 0
-3.5842168 -3.7628589 -1.1997515 0
-3.568429 -3.771524 -1.1986928 0
-3.5579183 -3.7857597 -1.1994191 0
-3.5396948 -3.7917643 -1.1975548 0
-3.5351562 -3.8124483 -1.2003372 0
-3.5337176 -3.836617 -1.2042096 0
-3.5090895 -3.8356056 -1.2001926 0
-3.5032196 -3.8550637 -1.202599 0
-3.4912078 -3.8678215 -1.2029206 0
-3.4562988 -3.8550546 -1.1953392 0
-3.4579303 -3.8829892 -1.2003993 0
-3.4474549 -3.8974588 -1.2012924 0
-3.4341967 -3.9088004 -1.2012324 0
-3.4063232 -3.9033916 -1.1960537 0
-3.3964429 -3.9185123 -1.1971909 0
-3.3975253 -3.946418 -1.2022296 0
-3.3753457 -3.9473453 -1.1990577 0
-3.3513043 -3.9459381 -1.1952103 0
-3.3520136 -3.9736991 -1.2002082 0
-3.3410647 -3.9877715 -1.2010684 0
-3.3301747 -4.0019546 -1.2019705 0
-3.3113942 -4.0066314 -1.2000338 0
-3.3030663 -4.0239539 -1.2018982 0
-3.2953818 -4.0421515 -1.2040268 0
-3.275167 -4.0449724 -1.2015893 0
-3.2627504 -4.0573778 -1.2020181 0
-3.2300301 -4.0443811 -1.1949526 0
-3.2410889 -4.0862494 -1.2041056 0
-3.2133219 -4.0792594 -1.1988643 0
-3.1946659 -4.0836687 -1.1970055 0
-3.1672881 -4.0767636 -1.1918621 0
-3.1686907 -4.1069169 -1.1975648 0
-3.1645505 -4.1301084 -1.2012268 0
-3.1471159 -4.1360049 -1.1998661 0
-3.1379282 -4.1527495 -1.2016648 0
-3.1172299 -4.1542416 -1.1990656 0
-3.0848792 -4.1399703 -1.1919543 0
-3.0981102 -4.1869535 -1.2024839 0
-3.0695078 -4.1775193 -1.196812 0
-3.0694013 -4.206862 -1.2022632 0
-3.0444367 -4.2021637 -1.1979966 0
-3.0379357 -4.2229195 -1.2010033 0
-3.030612 -4.2426734 -1.2037247 0
-2.9935141 -4.2205858 -1.1946038 0
-2.9952779 -4.253221 -1.2009917 0
-2.9803944 -4.2623725 -1.2007474 0
-2.9513721 -4.2511468 -1.1947906 0
-2.9583585 -4.2918558 -1.2034374 0
-2.9270964 -4.2771206 -1.196547 0
-2.9224465 -4.3011971 -1.2005347 0
-2.8995709 -4.2984624 -1.1970512 0
-2.8894408 -4.3145776 -1.1988344 0
-2.8570924 -4.2973685 -1.1913843 0
-2.8570771 -4.3287549 -1.1974233 0
-2.8466544 -4.3445778 -1.1991533 0
-2.8317919 -4.3536673 -1.1990348 0
-2.8067281 -4.3469515 -1.1945868 0
-2.8064976 -4.3787413 -1.2007303 0
-2.7985895 -4.398797 -1.2036502 0
-2.768507 -4.3838987 -1.197027 0
-2.7566359 -4.3976922 -1.1982627 0
-2.7534394 -4.4254956 -1.2033163 0
-2.7451451 -4.4453235 -1.2061982 0
-2.7034061 -4.4107456 -1.1943496 0
-2.7097037 -4.454473 -1.2037234 0
-2.6913869 -4.4579568 -1.2022196 0
-2.6619632 -4.4428186 -1.1957234 0
-2.6513336 -4.458919 -1.1976575 0
-2.6418831 -4.477128 -1.2001624 0
-2.6435568 -4.5144787 -1.2077922 0
-2.6049004 -4.4828658 -1.1969911 0
-2.597461 -4.5047646 -1.2005062 0
-2.5777769 -4.5054674 -1.1983836 0
-2.5646811 -4.5176516 -1.1993303 0
-2.5435205 -4.515574 -1.1965082 0
-2.5353215 -4.5365219 -1.1997997 0
-2.5229845 -4.5502043 -1.2011743 0
-2.5029008 -4.5498872 -1.1988686 0
-2.4777133 -4.5400791 -1.1940886 0
-2.4720123 -4.5659723 -1.1987121 0
-2.4544418 -4.5700498 -1.1976154 0
-2.4484293 -4.5957546 -1.2021935 0
-2.4259048 -4.5904984 -1.1986842 0
-2.4214907 -4.6195736 -1.2041496 0
-2.3924329 -4.601594 -1.1973653 0
-2.3799918 -4.6154084 -1.1988767 0
-2.3644092 -4.6231771 -1.1988288 0
-2.3565505 -4.6461711 -1.2027358 0
-2.3488348 -4.669703 -1.206782 0
-2.309567 -4.6302428 -1.1945765 0
-2.3082337 -4.6666775 -1.2019731 0
-2.2931895 -4.6756444 -1.2022955 0
-2.279655 -4.6877379 -1.2034332 0
-2.2463143 -4.6588302 -1.1940718 0
-2.2464004 -4.6992178 -1.202486 0
-2.2240016 -4.6927328 -1.1989117 0
-2.2193887 -4.7238598 -1.2049563 0
-2.1967034 -4.7165999 -1.201219 0
-2.1727729 -4.7063842 -1.1967551 0
-2.1696475 -4.741322 -1.2037827 0
-2.1619871 -4.7667565 -1.2083931 0
-2.1378441 -4.7558503 -1.2038046 0
-2.1120341 -4.7408757 -1.198215 0
-2.0960259 -4.7477016 -1.1981572 0
-2.0871797 -4.7708945 -1.2022375 0
-2.0536811 -4.7375169 -1.1920847 0
-2.0542128 -4.7826214 -1.2016944 0
-2.027777 -4.7650685 -1.1955692 0
-2.0176098 -4.7856464 -1.1990281 0
-2.0024331 -4.7944913 -1.1995553 0
-1.9914104 -4.8134174 -1.2026132 0
-1.9722701 -4.8127694 -1.2007924 0
-1.9627802 -4.8357573 -1.2048792 0
-1.9257505 -4.790555 -1.1920011 0
-1.9239591 -4.8328586 -1.2009153 0
-1.9076307 -4.8389931 -1.2008437 0
-1.8927377 -4.8487997 -1.2016957 0
-1.8747879 -4.8507662 -1.2006184 0
-1.8550209 -4.8478966 -1.1983621 0
-1.8373126 -4.8502774 -1.1974211 0
-1.8200717 -4.8538275 -1.1967843 0
-1.8105241 -4.8780532 -1.2012539 0
-1.7850236 -4.8592277 -1.1951376 0
-1.7796949 -4.89537 -1.2025524 0
-1.7583236 -4.8875551 -1.1991779 0
-1.7432765 -4.8972149 -1.2001071 0
-1.7250085 -4.8978119 -1.1988292 0
-1.7054899 -4.8947067 -1.1966629 0
-1.6922301 -4.9095678 -1.1989022 0
-1.6767845 -4.9182196 -1.1996354 0
-1.6595247 -4.9215584 -1.1990858 0
-1.6501514 -4.9484978 -1.2042946 0
-1.6288141 -4.9396381 -1.2008027 0
-1.6111081 -4.9415894 -1.1999571 0
-1.5948437 -4.9479346 -1.2001927 0
-1.5744507 -4.9413447 -1.197307 0
-1.5579382 -4.9467983 -1.197356 0
-1.5529488 -4.9892783 -1.2063712 0
-1.5206851 -4.9439764 -1.194178 0
-1.5059106 -4.9550042 -1.1956153 0
-1.4978424 -4.988512 -1.2024821 0
-1.4853128 -5.0076809 -1.2058955 0
-1.4603857 -4.9848852 -1.1992203 0
-1.4402424 -4.9779272 -1.1963779 0
-1.4223799 -4.9786525 -1.1953994 0
-1.4134058 -5.0107851 -1.20197 0
-1.3875118 -4.9828668 -1.1941503 0
-1.3827355 -5.0309258 -1.20455 0
-1.3634344 -5.0265913 -1.2024108 0
-1.3421315 -5.0145378 -1.1984445 0
-1.3272257 -5.0262599 -1.2001756 0
-1.312909 -5.0404444 -1.2025048 0
-1.2949932 -5.0408907 -1.2015686 0
-1.2770237 -5.0410161 -1.2005712 0
-1.2639948 -5.0608039 -1.2042677 0
-1.2479057 -5.0686111 -1.2051232 0
-1.2165474 -5.0135984 -1.1910667 0
-1.2038481 -5.0348687 -1.1951543 0
-1.1875539 -5.0413961 -1.1957519 0
-1.1679292 -5.0336471 -1.1929784 0
-1.159812 -5.0759001 -1.202064 0
-1.1386529 -5.0613847 -1.1977156 0
-1.126568 -5.0872612 -1.2029384 0
-1.1049377 -5.0700521 -1.1979865 0
-1.0860314 -5.0648627 -1.1958932 0
-1.0705367 -5.0755534 -1.1975632 0
-1.0526334 -5.074872 -1.1965629 0
-1.0357484 -5.0790396 -1.1967201 0
-1.0174963 -5.0764108 -1.1952902 0
-1.0020087 -5.087605 -1.1971281 0
-0.98584515 -5.0955868 -1.1982218 0
-0.96786898 -5.0941997 -1.1971258 0
-0.95229077 -5.1054964 -1.1990234 0
-0.93619692 -5.1142831 -1.2003431 0
-0.91719377 -5.1070886 -1.1979259 0
-0.8997981 -5.1086168 -1.1975701 0
-0.88168806 -5.1059484 -1.1962448 0
-0.8675127 -5.1263013 -1.200325 0
-0.84711832 -5.1098666 -1.1958051 0
-0.83028167 -5.1145296 -1.196238 0
-0.81559467 -5.132802 -1.1998656 0
-0.79794002 -5.1326723 -1.1992031 0
-0.77970266 -5.1285839 -1.1976303 0
-0.76531309 -5.1500788 -1.2020438 0
-0.74745464 -5.1485729 -1.2011007 0
-0.72802484 -5.1357884 -1.1975421 0
-0.71132642 -5.1419954 -1.1984266 0
-0.70013285 -5.1891966 -1.2088736 0
-0.67863232 -5.1603522 -1.2016172 0
-0.65684944 -5.1276464 -1.1934819 0
-0.6447311 -5.1705389 -1.2029555 0
-0.63031274 -5.1967549 -1.2085564 0
-0.6110028 -5.1828694 -1.2048439 0
-0.59194458 -5.1702356 -1.2014389 0
-0.57430422 -5.1694713 -1.2008071 0
-0.55666196 -5.16852 -1.2001457 0
-0.53888112 -5.1660557 -1.1991473 0
-0.52212667 -5.1734757 -1.2004565 0
-0.5035311 -5.1624131 -1.197491 0
-0.48655212 -5.1676025 -1.1983098 0
-0.4686639 -5.1630416 -1.1968809 0
-0.45006663 -5.1498923 -1.1934762 0
-0.43549171 -5.1834407 -1.2009058 0
-0.4195326 -5.2025108 -1.2049913 0
-0.39877868 -5.1610684 -1.1950762 0
-0.38316262 -5.1852503 -1.2003714 0
-0.36422506 -5.1645246 -1.195284 0
-0.34794268 -5.1811337 -1.1988513 0
-0.33180487 -5.2016397 -1.2033321 0
-0.31460533 -5.2067356 -1.2042601 0
-0.29613614 -5.1900558 -1.2001659 0
-0.27969548 -5.208941 -1.2043093 0
-0.26269537 -5.2191086 -1.2064496 0
-0.24376869 -5.1895914 -1.1994307 0
-0.22548389 -5.1701169 -1.1947483 0
-0.20959331 -5.2067432 -1.2030431 0
-0.19127373 -5.1840763 -1.1976509 0
-0.17502163 -5.2183862 -1.2054349 0
-0.15615763 -5.1736617 -1.1949761 0
-0.13865131 -5.1682248 -1.1936063 0
-0.12189927 -5.1932349 -1.1992811 0
-0.10471112 -5.204772 -1.2018576 0
-0.087396033 -5.2132134 -1.2037324 0
-0.06973619 -5.2000227 -1.2006259 0
-0.052190945 -5.1892743 -1.1980971 0
-0.034908962 -5.2068667 -1.2021251 0
-0.017529836 -5.2304397 -1.2075471 0
6.9021039e-06 -5.2020884 -1.2009948 0
0.017418383 -5.1930733 -1.1989204 0
0.034873009 -5.1994462 -1.2004118 0
0.052525897 -5.2212005 -1.2054683 0
0.06979987 -5.2037416 -1.2014847 0
0.087088354 -5.1940374 -1.1993048 0
0.10450647 -5.1939139 -1.1993505 0
0.12175269 -5.1864038 -1.1977036 0
0.13898967 -5.1803246 -1.1964008 0
0.15605815 -5.1699114 -1.1941099 0
0.1740634 -5.189405 -1.1987405 0
0.19146848 -5.1889811 -1.1987841 0
0.21011603 -5.2193842 -1.205964 0
0.22662471 -5.1959581 -1.2007201 0
0.24401246 -5.1944866 -1.2005624 0
0.26342687 -5.2333651 -1.2097454 0
0.28012943 -5.2167645 -1.2061182 0
0.29700941 -5.2051182 -1.203649 0
0.31239882 -5.1699896 -1.1957613 0
0.33135846 -5.1944246 -1.2016631 0
0.34775904 -5.1781931 -1.1981711 0
0.36641744 -5.1954145 -1.2024336 0
0.3831847 -5.1853623 -1.2003976 0
0.39925578 -5.1670647 -1.1964649 0
0.41753665 -5.1775875 -1.199219 0
0.43427134 -5.1687508 -1.1975027 0
0.453729 -5.1916399 -1.2031515 0
0.47064111 -5.1846704 -1.2018952 0
0.48664144 -5.1684041 -1.1984959 0
0.50419074 -5.169034 -1.1990272 0
0.52315509 -5.1835279 -1.2027893 0
0.53788739 -5.1563969 -1.1969056 0
0.55823386 -5.1829853 -1.203505 0
0.57420856 -5.1684852 -1.2005783 0
0.59019691 -5.1548505 -1.1978641 0
0.60751826 -5.153194 -1.1979457 0
0.62596321 -5.1607795 -1.2001903 0
0.6435383 -5.1608615 -1.2007043 0
0.65779078 -5.1348867 -1.1951675 0
0.67934084 -5.1656337 -1.2028475 0
0.69505733 -5.151475 -1.2000865 0
0.71353978 -5.1578946 -1.2021326 0
0.73116666 -5.1578536 -1.2026875 0
0.74574184 -5.1366792 -1.1983265 0
0.76167834 -5.1255255 -1.1963135 0
0.78484535 -5.1623182 -1.2055084 0
0.79743958 -5.129364 -1.1984307 0
0.81377751 -5.1212783 -1.1971722 0
0.83368582 -5.1354127 -1.201123 0
0.8494702 -5.1239691 -1.1991059 0
0.86585051 -5.1163969 -1.1980064 0
0.8818177 -5.1066184 -1.1964024 0
0.90405297 -5.1326942 -1.2032149 0
0.91632187 -5.1021562 -1.1967696 0
0.93592834 -5.1127396 -1.1999813 0
0.95055008 -5.0960889 -1.1968147 0
0.9715938 -5.1137304 -1.2017161 0
0.98516321 -5.09199 -1.1973766 0
1.0085276 -5.1206326 -1.2049003 0
1.0220942 -5.0992804 -1.2006756 0
1.0416038 -5.1076841 -1.2034699 0
1.0583264 -5.1022506 -1.2030189 0
1.0758389 -5.100625 -1.2034794 0
1.0871781 -5.0701447 -1.1971409 0
1.1053115 -5.0717034 -1.1983773 0
1.1229109 -5.0706835 -1.1990191 0
1.139073 -5.0631886 -1.1981432 0
1.1605396 -5.0790224 -1.2028042 0
1.175393 -5.0657544 -1.2005886 0
1.1947863 -5.0720387 -1.2030206 0
1.2128779 -5.0725746 -1.2041055 0
1.2229121 -5.0397701 -1.1972851 0
1.2371986 -5.0250649 -1.1947703 0
1.2510709 -5.0090017 -1.1919417 0
1.2803389 -5.0540462 -1.2036753 0
1.2952291 -5.0417538 -1.2017752 0
1.3126761 -5.0394955 -1.2022792 0
1.3254508 -5.0194845 -1.1985587 0
1.3365901 -4.9937806 -1.1934844 0
1.3633785 -5.0263324 -1.2023498 0
1.3785838 -5.0157685 -1.2009218 0
1.3932897 -5.0035648 -1.1991115 0
1.4158187 -5.0192881 -1.2040105 0
1.4293505 -5.0030007 -1.2012464 0
1.4416788 -4.982842 -1.1975601 0
1.4602448 -4.984355 -1.1990937 0
1.4750141 -4.9729109 -1.1975235 0
1.484723 -4.9447708 -1.1919391 0
1.5190543 -4.9982038 -1.2060401 0
1.5179927 -4.9351768 -1.1920534 0
1.5444208 -4.9618335 -1.1997361 0
1.5628704 -4.9624128 -1.2011365 0
1.5825589 -4.9667459 -1.2034628 0
1.5859054 -4.9201589 -1.1934563 0
1.615732 -4.9557271 -1.2033912 0
1.6231145 -4.9223089 -1.196591 0
1.6438231 -4.9294772 -1.1996666 0
1.669742 -4.9518161 -1.2064588 0
1.6816316 -4.932394 -1.2030939 0
1.6933029 -4.9126377 -1.199653 0
1.7146684 -4.9210072 -1.2030939 0
1.719313 -4.8815989 -1.194862 0
1.739694 -4.8871102 -1.197632 0
1.7497717 -4.8637433 -1.1933366 0
1.7809891 -4.8988891 -1.2034181 0
1.7822556 -4.8516536 -1.1932758 0
1.8036836 -4.8595834 -1.1967069 0
1.8337408 -4.8902411 -1.2057638 0
1.8371203 -4.849731 -1.1972874 0
1.8634651 -4.869926 -1.2038088 0
1.8820971 -4.8696394 -1.205291 0
1.8965266 -4.8584676 -1.204093 0
1.9025794 -4.8261423 -1.1976558 0
1.9152807 -4.8110218 -1.1954904 0
1.9450481 -4.8385229 -1.203938 0
1.9546286 -4.8156371 -1.1998674 0
1.9686718 -4.8039522 -1.1985939 0
1.9820374 -4.7907262 -1.1969452 0
2.0012333 -4.7915831 -1.1988289 0
2.0200446 -4.7913866 -1.2004676 0
2.0422432 -4.7990274 -1.2040907 0
2.0567322 -4.7884517 -1.2031608 0
2.0715723 -4.7787538 -1.2024624 0
2.0852404 -4.766427 -1.2011131 0
2.0892358 -4.7322869 -1.1942685 0
2.0973752 -4.7079368 -1.1898913 0
2.1244314 -4.7259793 -1.196245 0
2.147459 -4.7346911 -1.2002659 0
2.1542084 -4.70755 -1.1952097 0
2.1724672 -4.7056885 -1.1965798 0
2.1917913 -4.7060204 -1.198526 0
2.2000923 -4.6827559 -1.194473 0
2.210752 -4.6647429 -1.1917623 0
2.2421203 -4.6902323 -1.2001882 0
2.2584746 -4.6840191 -1.2005292 0
2.2726429 -4.6732874 -1.1997249 0
2.2855356 -4.6600075 -1.1982762 0
2.2986782 -4.6473269 -1.1969906 0
2.3233094 -4.6577625 -1.201678 0
2.3293931 -4.6310205 -1.196787 0
2.3478928 -4.6290717 -1.198311 0
2.3742585 -4.642405 -1.2038165 0
2.3814278 -4.6181626 -1.1995939 0
2.4001784 -4.6164613 -1.2012357 0
2.4223564 -4.6211953 -1.204574 0
2.4383495 -4.614018 -1.2048273 0
2.4382219 -4.5765657 -1.1971757 0
2.4568186 -4.5744462 -1.1987693 0
2.4630077 -4.5493116 -1.1943399 0
2.4986033 -4.5783286 -1.2041503 0
2.4949353 -4.5353789 -1.1950475 0
2.5314741 -4.5654864 -1.2052103 0
2.5337641 -4.5337071 -1.199057 0
2.5439906 -4.5163808 -1.1967237 0
2.5651214 -4.5183988 -1.1995306 0
2.5685155 -4.489253 -1.1940726 0
2.6048729 -4.517591 -1.2039263 0
2.6165278 -4.5028481 -1.2023286 0
2.6293261 -4.4901495 -1.2012849 0
2.6400204 -4.4739442 -1.1993109 0
2.6601439 -4.4737086 -1.2016318 0
2.6607747 -4.4408083 -1.1951842 0
2.6934319 -4.4613175 -1.2031277 0
2.6923735 -4.4259572 -1.1960195 0
2.7118137 -4.424437 -1.198059 0
2.7233553 -4.4100122 -1.1966188 0
2.7572029 -4.4315181 -1.2049558 0
2.7687385 -4.4169731 -1.2035184 0
2.7855575 -4.4108725 -1.2043941 0
2.7995172 -4.4002295 -1.2040442 0
2.7981 -4.3656139 -1.1971327 0
2.8180499 -4.3644609 -1.1994007 0
2.8410931 -4.3679419 -1.2029682 0
2.840302 -4.3348575 -1.1964725 0
2.8641236 -4.339406 -1.2003717 0
2.8758504 -4.3255577 -1.1992015 0
2.9028606 -4.3345914 -1.2043976 0
2.9016421 -4.3015079 -1.1979015 0
2.8998995 -4.2679887 -1.1912678 0
2.9298995 -4.2811918 -1.1976883 0
2.9643681 -4.3005495 -1.2058774 0
2.9646463 -4.2702422 -1.2001597 0
2.974834 -4.2543964 -1.1985027 0
2.9997101 -4.259491 -1.2027643 0
3.0044076 -4.2359209 -1.1989466 0
3.035464 -4.2494426 -1.2056476 0
3.0253956 -4.2054644 -1.1960413 0
3.0504372 -4.2104225 -1.2003535 0
3.0624955 -4.1973739 -1.199554 0
3.0672398 -4.1744094 -1.1959233 0
3.1015489 -4.1915774 -1.2038143 0
3.0956655 -4.1544228 -1.1961176 0
3.1139171 -4.1498036 -1.197787 0
3.1370449 -4.1515574 -1.2013223 0
3.1445863 -4.1326575 -1.1988974 0
3.169884 -4.1370468 -1.2032472 0
3.1699414 -4.1085153 -1.1980333 0
3.1753011 -4.0870552 -1.1948733 0
3.1957185 -4.0849915 -1.1973958 0
3.2261572 -4.095531 -1.2036489 0
3.2336171 -4.076807 -1.2013258 0
3.2427835 -4.0603275 -1.1996667 0
3.2511451 -4.0429244 -1.1977388 0
3.2910647 -4.0645847 -1.207418 0
3.2822473 -4.0260186 -1.199224 0
3.2863104 -4.0035195 -1.1957974 0
3.2992818 -3.9919543 -1.1956404 0
3.3071778 -3.9742968 -1.1936662 0
3.3316143 -3.9764705 -1.1976672 0
3.3451285 -3.9655156 -1.1977391 0
3.3561308 -3.9515996 -1.1969279 0
3.3760421 -3.9481382 -1.1993014 0
3.3842018 -3.9309211 -1.1975113 0
3.3898077 -3.9108365 -1.1948484 0
3.4060438 -3.9030504 -1.1959519 0
3.435055 -3.9097564 -1.201529 0
3.435673 -3.8841181 -1.1971833 0
3.4651034 -3.8910232 -1.2028857 0
3.4493546 -3.8472886 -1.192934 0
3.4875963 -3.8637996 -1.2016727 0
3.4955313 -3.8465827 -1.1999563 0
3.4993095 -3.8248954 -1.1968441 0
3.5133212 -3.8144519 -1.1972555 0
3.531199 -3.8081603 -1.1989901 0
3.5468774 -3.799438 -1.1999813 0
3.5884988 -3.8182781 -1.2097248 0
3.5501938 -3.7522309 -1.192564 0
3.5846262 -3.7632685 -1.1998851 0
3.6168065 -3.7716501 -1.2064172 0
3.627903 -3.7579188 -1.205909 0
3.6117995 -3.716222 -1.1964079 0
3.6512601 -3.731708 -1.2053279 0
3.6490788 -3.7045496 -1.2005008 0
3.6639299 -3.6947656 -1.2013044 0
3.6750174 -3.6811786 -1.2008862 0
3.681113 -3.6626413 -1.1988586 0
3.6941381 -3.6510353 -1.1991071 0
3.7092936 -3.6415105 -1.2000567 0
3.7183375 -3.6259871 -1.1990427 0
3.7252545 -3.6084442 -1.197365 0
3.7461329 -3.6044018 -1.2001847 0
3.7491457 -3.5831711 -1.1972942 0
3.7606342 -3.570102 -1.1971338 0
3.7811973 -3.5655966 -1.1998672 0
3.7831984 -3.5435956 -1.1967254 0
3.8116503 -3.5463285 -1.2019576 0
3.8211536 -3.5313427 -1.201214 0
3.8294942 -3.5153189 -1.200124 0
3.8441329 -3.50508 -1.201022 0
3.8488328 -3.4858046 -1.1988322 0
3.8550978 -3.4680219 -1.197155 0
3.8726499 -3.4603901 -1.1989959 0
3.8817801 -3.4452119 -1.1982397 0
3.8867869 -3.4264278 -1.1962323 0
3.9007554 -3.4155676 -1.1970001 0
3.9042869 -3.3956008 -1.1945834 0
3.9377351 -3.4015696 -1.2013212 0
3.9251156 -3.367754 -1.1940198 0
3.9519548 -3.3678436 -1.1987426 0
3.977824 -3.3669319 -1.2031585 0
3.9816701 -3.3473382 -1.2009205 0
3.9833167 -3.3259921 -1.1980469 0
4.0053186 -3.321635 -1.201308 0
4.0144114 -3.3065224 -1.2007035 0
4.033143 -3.2993169 -1.2029905 0
4.0286045 -3.2731194 -1.1983567 0
4.0470629 -3.2656512 -1.2005837 0
4.0271544 -3.2273531 -1.1914611 0
4.0562773 -3.2284176 -1.1968681 0
4.075356 -3.2213421 -1.1993039 0
4.0877209 -3.2089059 -1.1997697 0
4.1157556 -3.2086689 -1.2048339 0
4.1004534 -3.1746926 -1.1972315 0
4.1180067 -3.1662569 -1.1992503 0
4.1415248 -3.1623013 -1.2030048 0
4.1376772 -3.1374586 -1.1988249 0
4.1373868 -3.1154459 -1.1957076 0
4.1572285 -3.1085999 -1.1984229 0
4.1783471 -3.1026037 -1.2015053 0
4.1880016 -3.088043 -1.2012976 0
4.1823812 -3.0623052 -1.1967336 0
4.21522 -3.064693 -1.2031829 0
4.2189765 -3.0458536 -1.2013335 0
4.2296867 -3.0320654 -1.2014818 0
4.2338128 -3.0135849 -1.199777 0
4.2459559 -3.0008304 -1.2003601 0
4.2565827 -2.9869914 -1.2005264 0
4.2646866 -2.9713886 -1.1999955 0
4.2628498 -2.9489272 -1.1966898 0
4.2903166 -2.9467087 -1.2016202 0
4.3057485 -2.9361098 -1.2031783 0
4.3154645 -2.9215865 -1.2031493 0
4.3037162 -2.8926375 -1.1971633 0
4.3118429 -2.8771589 -1.1967337 0
4.3312964 -2.8691986 -1.1994562 0
4.3486776 -2.8597806 -1.2016076 0
4.3440375 -2.835911 -1.1976913 0
4.3660331 -2.8294389 -1.2011335 0
4.3778381 -2.8162918 -1.2017766 0
4.3643446 -2.786967 -1.1955006 0
4.3768606 -2.7743449 -1.1963744 0
4.3912492 -2.7628703 -1.1977686 0
4.4164953 -2.7581284 -1.2021255 0
4.4287381 -2.7451773 -1.2029459 0
4.4348783 -2.7284436 -1.2021222 0
4.4253345 -2.7021608 -1.1970727 0
4.4470892 -2.6950166 -1.2005064 0
4.4424562 -2.6718853 -1.1968307 0
4.4573631 -2.6605411 -1.1984369 0
4.4719009 -2.6489239 -1.1999509 0
4.4791179 -2.632952 -1.1995119 0
4.478981 -2.6127048 -1.1971226 0
4.5087409 -2.6098433 -1.2027311 0
4.5120349 -2.5915921 -1.2012851 0
4.5248013 -2.5787876 -1.2023754 0
4.5220041 -2.5571456 -1.199347 0
4.5210967 -2.5366645 -1.196844 0
4.5444698 -2.5297828 -1.2007793 0
4.5424738 -2.508759 -1.1980225 0
4.537858 -2.4863911 -1.1945999 0
4.547955 -2.4721334 -1.1950693 0
4.5778456 -2.4685333 -1.200742 0
4.6006036 -2.4609311 -1.2045404 0
4.577816 -2.4290364 -1.196435 0
4.5898647 -2.4157429 -1.1974603 0
4.6060505 -2.4045753 -1.199573 0
4.6192498 -2.3917918 -1.2009153 0
4.640614 -2.3831575 -1.2043855 0
4.651978 -2.3693166 -1.2052664 0
4.6449718 -2.346168 -1.2014062 0
4.6638489 -2.3361096 -1.2042562 0
4.6676278 -2.318459 -1.203218 0
4.6546416 -2.2925842 -1.1978822 0
4.669508 -2.2804844 -1.1997336 0
4.6785102 -2.265485 -1.2000883 0
4.692555 -2.2528949 -1.2017465 0
4.6891599 -2.2319503 -1.1989539 0
4.708899 -2.2220116 -1.2020893 0
4.7096777 -2.2031026 -1.2003956 0
4.7054567 -2.1819293 -1.1974485 0
4.7440515 -2.1805298 -1.2054029 0
4.7432532 -2.1609294 -1.2033523 0
4.7307649 -2.1361156 -1.1983603 0
4.7712531 -2.1351681 -1.2067964 0
4.7583289 -2.1102643 -1.2017311 0
4.7882986 -2.1043718 -1.2075113 0
4.7606745 -2.073215 -1.1987854 0
4.7678452 -2.057348 -1.1988473 0
4.7848306 -2.045675 -1.2013869 0
4.762876 -2.0174277 -1.1941694 0
4.8140006 -2.0200732 -1.2052827 0
4.8111286 -1.9999236 -1.202878 0
4.8183107 -1.9839889 -1.2030038 0
4.8081961 -1.9609957 -1.19883 0
4.8284712 -1.9504087 -1.2022481 0
4.8357234 -1.9345049 -1.2024322 0
4.8376145 -1.9164712 -1.2012979 0
4.847744 -1.9017044 -1.2022232 0
4.8521252 -1.8846757 -1.2017357 0
4.8562837 -1.8675766 -1.2012081 0
4.8701563 -1.854192 -1.2030951 0
4.8878317 -1.8421819 -1.2059289 0
4.8867197 -1.8230748 -1.2041397 0
4.8815923 -1.8025399 -1.2013803 0
4.8429103 -1.769828 -1.1903933 0
4.8932128 -1.7696365 -1.2012926 0
4.8777437 -1.7455713 -1.1960514 0
4.9264216 -1.7443808 -1.2065467 0
4.9058909 -1.7186223 -1.2001004 0
4.9284129 -1.7079819 -1.2042022 0
4.9401717 -1.6935257 -1.2056812 0
4.957448 -1.6808946 -1.2085154 0
4.9530315 -1.6609024 -1.2060744 0
4.9258733 -1.6334432 -1.198121 0
4.9202938 -1.6133025 -1.1954415 0
4.9384584 -1.6009406 -1.1985439 0
4.9654694 -1.591319 -1.2037978 0
4.9476728 -1.5673426 -1.1982025 0
4.994616 -1.5638065 -1.2082944 0
4.9725704 -1.5386167 -1.2017064 0
4.9658999 -1.5183278 -1.1988574 0
5.0029545 -1.5113338 -1.2065729 0
4.9807572 -1.4864231 -1.2000109 0
4.9603848 -1.4622488 -1.1939147 0
4.9762712 -1.4488153 -1.1965624 0
4.9871898 -1.4338734 -1.1980251 0
4.997448 -1.4186995 -1.1993399 0
4.9930797 -1.3993866 -1.1971589 0
5.0017729 -1.3837526 -1.1981241 0
5.0323915 -1.374076 -1.2043482 0
5.0226803 -1.3533452 -1.2009313 0
5.0064607 -1.3309866 -1.1959795 0
5.0312157 -1.319523 -1.2008295 0
5.0208292 -1.2988228 -1.1973045 0
5.0476036 -1.2877084 -1.2026529 0
5.0467319 -1.2694793 -1.2014244 0
5.0499392 -1.2522982 -1.2011815 0
5.0758829 -1.2406818 -1.2063564 0
5.0568314 -1.2180722 -1.2008511 0
5.0444469 -1.197209 -1.1969502 0
5.0583196 -1.1826007 -1.1992943 0
5.0796237 -1.1696334 -1.2034088 0
5.1029248 -1.1569963 -1.2080033 0
5.080627 -1.1340441 -1.2018179 0
5.078495 -1.115706 -1.200422 0
5.0404429 -1.0896438 -1.1905572 0
5.0681343 -1.0778563 -1.1962376 0
5.0967455 -1.0660924 -1.2021403 0
5.0929732 -1.0474929 -1.2004155 0
5.1016626 -1.0314637 -1.2016417 0
5.0782771 -1.0090251 -1.1953299 0
5.1250339 -1.0004655 -1.2055392 0
5.0971193 -0.97728682 -1.1981956 0
5.0753336 -0.95547885 -1.1923145 0
5.1030974 -0.9430005 -1.1980873 0
5.1261153 -0.9294911 -1.2027529 0
5.1168761 -0.91010654 -1.1998625 0
5.1407328 -0.89657909 -1.2047449 0
5.1499577 -0.8804062 -1.2062082 0
5.1185722 -0.8573876 -1.1981772 0
5.1338921 -0.84226769 -1.2010956 0
5.1155634 -0.82165706 -1.1961563 0
5.1447535 -0.80866057 -1.202341 0
5.1274967 -0.7883411 -1.1976836 0
5.1220131 -0.76992786 -1.195793 0
5.1400433 -0.75502384 -1.1994046 0
5.1504316 -0.73891741 -1.2012439 0
5.1395903 -0.7197836 -1.1981457 0
5.1740561 -0.70693082 -1.2056211 0
5.1476479 -0.68574929 -1.1989253 0
5.1698771 -0.67107713 -1.2035717 0
5.1477499 -0.65066218 -1.1979058 0
5.1706405 -0.63594973 -1.2027296 0
5.147038 -0.6155358 -1.1967527 0
5.1590691 -0.59943682 -1.1990761 0
5.1681051 -0.58293182 -1.2007152 0
5.1909895 -0.5678938 -1.2055829 0
5.1493998 -0.54587859 -1.195492 0
5.1912794 -0.53272331 -1.2047933 0
5.1600986 -0.51204646 -1.1971518 0
5.1688361 -0.49541846 -1.1987867 0
5.1618767 -0.47729114 -1.1967949 0
5.1805429 -0.46150455 -1.2007571 0
5.1695113 -0.44305697 -1.1978492 0
5.1677494 -0.42545712 -1.1971036 0
5.1666274 -0.40792933 -1.1965202 0
5.1966214 -0.39277014 -1.2031547 0
5.2037182 -0.37576413 -1.2044994 0
5.1649227 -0.35555947 -1.1952367 0
5.1667705 -0.3382853 -1.1953951 0
5.1883593 -0.32223237 -1.2001332 0
5.2077522 -0.30591238 -1.204375 0
5.1964006 -0.28776625 -1.20152 0
5.1772928 -0.26929951 -1.1968862 0
5.1800876 -0.25203297 -1.1973304 0
5.2114058 -0.23604527 -1.2043794 0
5.1882601 -0.2175685 -1.198855 0
5.1901135 -0.20021652 -1.1991215 0
5.1944795 -0.18294506 -1.1999817 0
5.2176113 -0.16624635 -1.2051899 0
5.1904364 -0.14796203 -1.1987916 0
5.1851883 -0.1304149 -1.1974717 0
5.2066631 -0.11348841 -1.2023365 0
5.1893249 -0.09570457 -1.1982518 0
5.1924939 -0.078348622 -1.1989163 0
5.1800008 -0.06078938 -1.1959779 0
5.1927643 -0.043527 -1.1988844 0
5.1923356 -0.02611365 -1.1987585 0
5.2008657 -0.0087187849 -1.2007143 0
5.2038112 0.0087237228 -1.2013943 0
5.2017426 0.026160961 -1.2009302 0
5.1690574 0.043328278 -1.193411 0
5.1931896 0.060944159 -1.199023 0
5.214581 0.078681894 -1.2040161 0
5.1887393 0.095693767 -1.1981167 0
5.1978626 0.11329658 -1.2003043 0
5.1622934 0.12983908 -1.1921844 0
5.1748948 0.14751899 -1.1952021 0
5.2020359 0.16575009 -1.2015922 0
5.2185445 0.18379262 -1.2055411 0
5.1916924 0.20027742 -1.1994863 0
5.1699467 0.21680056 -1.1946235 0
5.1843162 0.23481828 -1.1981189 0
5.2000093 0.25300226 -1.2019351 0
5.1807566 0.26947969 -1.197687 0
5.1764975 0.28666404 -1.1969179 0
5.187243 0.30470762 -1.1996319 0
5.2002139 0.3229686 -1.2028754 0
5.1795955 0.33912501 -1.1983624 0
5.1842246 0.35688823 -1.1997033 0
5.1837115 0.3743194 -1.1998683 0
5.1996803 0.39300135 -1.2038629 0
5.1996875 0.4105396 -1.2041765 0
5.1764922 0.42617694 -1.199129 0
5.1739893 0.44344079 -1.1988869 0
5.1801696 0.46147129 -1.2006706 0
5.1792226 0.47889501 -1.2008165 0
5.1739879 0.49591225 -1.1999817 0
5.1565161 0.51169097 -1.1963207 0
5.1762681 0.53118289 -1.2013096 0
5.1992736 0.55116558 -1.2070708 0
5.1829267 0.56701171 -1.2037103 0
5.165926 0.58268601 -1.2002089 0
5.166646 0.60031712 -1.200837 0
5.1365094 0.61427671 -1.1943047 0
5.1600661 0.63464916 -1.2002699 0
5.1315665 0.64861667 -1.1941398 0
5.1329865 0.66628855 -1.1949834 0
5.1494436 0.68598855 -1.1993434 0
5.1791096 0.70762128 -1.2067987 0
5.1497841 0.72121125 -1.2005222 0
5.127624 0.73564529 -1.1959244 0
5.1535797 0.75701225 -1.2025633 0
5.15311 0.77460229 -1.203053 0
5.158124 0.79304993 -1.2048376 0
5.1005301 0.80170947 -1.1920059 0
5.1309743 0.82413238 -1.1997597 0
5.1241121 0.84066319 -1.1988076 0
5.120739 0.85775059 -1.1986846 0
5.1078973 0.87321585 -1.196357 0
5.1135564 0.89183933 -1.1983762 0
5.1272202 0.91194636 -1.202288 0
5.1230645 0.92893797 -1.2020372 0
5.1225386 0.94659311 -1.2026517 0
5.0975351 0.95965844 -1.1975302 0
5.1187024 0.98142499 -1.2032691 0
5.0844431 0.99254167 -1.1959912 0
5.1139817 1.0161194 -1.203734 0
5.0831962 1.0277302 -1.1972921 0
5.0764079 1.0440857 -1.196511 0
5.0906186 1.0648109 -1.2006952 0
5.0656362 1.077325 -1.195648 0
5.0725031 1.0965745 -1.1981299 0
5.079258 1.1158736 -1.2006024 0
5.0666499 1.1309242 -1.1985116 0
5.0664177 1.148719 -1.199361 0
5.0563116 1.1642656 -1.1978861 0
5.0540147 1.1815943 -1.1982737 0
5.0682564 1.2028596 -1.2025996 0
5.0499592 1.2164168 -1.1992191 0
5.0614057 1.2371432 -1.2029155 0
5.0622587 1.2553533 -1.2041119 0
5.0613112 1.2731467 -1.2048951 0
5.0343332 1.284323 -1.1994911 0
5.0408187 1.3039938 -1.2020713 0
5.0187593 1.316256 -1.1978565 0
5.0044308 1.3304471 -1.1954945 0
5.0210218 1.3528984 -1.2005348 0
5.046155 1.3778341 -1.207642 0
5.0265031 1.3905942 -1.2040479 0
5.0245309 1.4082012 -1.2046998 0
5.0099387 1.4222455 -1.2023376 0
4.9895906 1.4345636 -1.1986018 0
4.9960451 1.4545724 -1.2013171 0
4.9692187 1.464853 -1.1960409 0
4.9941359 1.4904158 -1.2032342 0
4.9903426 1.5075239 -1.2035313 0
4.9914374 1.5261358 -1.2050226 0
4.9699597 1.5378089 -1.2010754 0
4.9485078 1.5493701 -1.1971399 0
4.9678349 1.5737299 -1.2030853 0
4.9447827 1.5846894 -1.1987826 0
4.9623489 1.6086853 -1.204342 0
4.9364505 1.6186001 -1.199367 0
4.9430342 1.6391339 -1.2022951 0
4.9479976 1.6592144 -1.2048486 0
4.9302659 1.6716781 -1.2018889 0
4.7355456 1.6233784 -1.1557409 0
4.7237744 1.6370628 -1.1542011 0
4.636126 1.6241188 -1.1341094 0
4.5901232 1.6253021 -1.1241827 0
4.5562782 1.6305301 -1.1172262 0
4.4976101 1.6265663 -1.1041714 0
4.4528728 1.6272899 -1.0945218 0
4.439189 1.6391815 -1.092503 0
4.4575 1.6629469 -1.0983754 0
4.445405 1.6754349 -1.096773 0
4.4344907 1.688323 -1.0954707 0
4.4523511 1.7122368 -1.1012949 0
4.4418268 1.7253067 -1.1001164 0
4.4711819 1.7539841 -1.108837 0
4.4452791 1.7610434 -1.1038713 0
4.4486303 1.7796504 -1.1061791 0
4.4519367 1.7983117 -1.1084942 0
4.4504123 1.8150756 -1.1096237 0
4.4392557 1.8279091 -1.1083639 0
4.817029 2.0023763 -1.2043532 0
4.7855434 2.008132 -1.1981578 0
4.7811346 2.0251615 -1.1987473 0
4.7744079 2.0412188 -1.1987699 0
4.770762 2.0586066 -1.1995807 0
4.7692976 2.0769701 -1.2009567 0
4.7698922 2.0962827 -1.2028695 0
4.7455459 2.1045949 -1.1985027 0
4.7334142 2.1182346 -1.1972257 0
4.7123475 2.1277995 -1.1936949 0
4.7202139 2.1504331 -1.1975073 0
4.7163792 2.1678107 -1.1983716 0
4.7258935 2.191406 -1.2026492 0
4.7203202 2.208081 -1.2031082 0
4.7132134 2.2240474 -1.2031907 0
4.6897783 2.2322447 -1.1991119 0
4.7066512 2.2596626 -1.2053565 0
4.7118573 2.2816329 -1.2086421 0
4.6502419 2.2710752 -1.1947836 0
4.6680779 2.2992022 -1.2013401 0
4.6483402 2.3088787 -1.198246 0
4.6572986 2.3328285 -1.2025648 0
4.6475267 2.3474586 -1.2020671 0
4.6473713 2.3669705 -1.2040728 0
4.6151009 2.3700554 -1.197764 0
4.6029592 2.3833568 -1.1966801 0
4.5812235 2.3916144 -1.1931072 0
4.5636401 2.4019403 -1.1906186 0
4.5724988 2.4262149 -1.1950452 0
4.5964227 2.4586945 -1.2034457 0
4.5905046 2.4753594 -1.2040623 0
4.5571566 2.4771349 -1.197487 0
4.5574846 2.4971449 -1.1997666 0
4.5527453 2.514432 -1.2007316 0
4.5320621 2.5228758 -1.1975008 0
4.548707 2.552156 -1.2041531 0
4.524446 2.5585268 -1.1999948 0
4.5130959 2.5721164 -1.1992649 0
4.5024271 2.5860736 -1.1987273 0
4.49123 2.5997071 -1.19806 0
4.4941096 2.6215296 -1.201166 0
4.5028367 2.6468945 -1.2058638 0
4.477952 2.652508 -1.2015746 0
4.4673223 2.6664855 -1.2011145 0
4.4625139 2.6839488 -1.2022344 0
4.4505973 2.6971426 -1.2014536 0
4.4129314 2.6945872 -1.1937176 0
4.4356871 2.7289412 -1.2023414 0
4.4053826 2.7307003 -1.196602 0
4.3912377 2.7423551 -1.1952507 0
4.3944302 2.7648718 -1.1986363 0
4.3787551 2.7755456 -1.1968921 0
4.366755 2.7885065 -1.1961609 0
4.3671861 2.8094394 -1.1988525 0
4.3688979 2.8312955 -1.2019216 0
4.3532796 2.8419449 -1.2002395 0
4.3569369 2.8652117 -1.2038897 0
4.3254952 2.8653555 -1.1978498 0
4.3138146 2.8784747 -1.197281 0
4.3321013 2.911716 -1.2050592 0
4.3184094 2.9235804 -1.2039704 0
4.2775478 2.9168797 -1.1952981 0
4.2974567 2.9516127 -1.20362 0
4.2701836 2.9540002 -1.1987485 0
4.283752 2.9846723 -1.2053601 0
4.2782483 3.0021949 -1.2066369 0
4.2361979 2.9939342 -1.1976014 0
4.2500567 3.0251472 -1.2043802 0
4.2536473 3.0492415 -1.2082881 0
4.2231927 3.0488975 -1.2025341 0
4.1845169 3.0423701 -1.1944191 0
4.199439 3.0747948 -1.2016144 0
4.1730633 3.077028 -1.1970127 0
4.1832581 3.1062505 -1.2029176 0
4.1709585 3.1188667 -1.2023809 0
4.1607695 3.1330531 -1.2024652 0
4.1534314 3.1494043 -1.2033894 0
4.1240206 3.148936 -1.1979203 0
4.0975437 3.1505232 -1.1932911 0
4.091928 3.1680923 -1.1947423 0
4.0952353 3.1926713 -1.1988268 0
4.0988073 3.2176089 -1.2030237 0
4.0757823 3.221679 -1.1994294 0
4.0850611 3.2513268 -1.2053611 0
4.0498781 3.245564 -1.198184 0
4.051342 3.2691042 -1.2018532 0
4.0128226 3.2602973 -1.1936623 0
4.0031109 3.274749 -1.1940327 0
4.0108624 3.3035991 -1.1996418 0
3.9894688 3.3084908 -1.1965542 0
3.9807117 3.323817 -1.1972635 0
3.9750829 3.3418002 -1.1989337 0
3.9605849 3.3523405 -1.1979443 0
3.9728692 3.3856666 -1.2050865 0
3.9276896 3.3699625 -1.1948028 0
3.9194415 3.385767 -1.1957402 0
3.917352 3.4069638 -1.198581 0
3.9030595 3.4175854 -1.1977072 0
3.914223 3.4506142 -1.2046763 0
3.8971045 3.458813 -1.2029701 0
3.8726757 3.4604135 -1.1990041 0
3.8356745 3.4505489 -1.1911234 0
3.8614373 3.49722 -1.2027582 0
3.8228679 3.4856906 -1.1943781 0
3.8310583 3.5167544 -1.2006142 0
3.7845953 3.4975572 -1.1897215 0
3.8076849 3.5426393 -1.2007072 0
3.8082306 3.5670424 -1.2046437 0
3.7740316 3.5588393 -1.1975935 0
3.7422409 3.5526407 -1.1912786 0
3.7525547 3.5864291 -1.1983829 0
3.7266057 3.5856133 -1.1939286 0
3.7422781 3.624934 -1.2028368 0
3.71946 3.6270816 -1.1994046 0
3.70138 3.6337416 -1.1974964 0
3.69014 3.647084 -1.1978093 0
3.6773982 3.6589453 -1.1976488 0
3.6692927 3.6754441 -1.1990156 0
3.664501 3.6953416 -1.2014917 0
3.64505 3.7004595 -1.1991754 0
3.6371295 3.7172661 -1.2006632 0
3.6193371 3.7239776 -1.1989046 0
3.6184821 3.7481604 -1.2027775 0
3.6092014 3.7637196 -1.2038804 0
3.5692098 3.7470839 -1.1947248 0
3.5836174 3.7875566 -1.2037915 0
3.5547554 3.7823739 -1.1983495 0
3.5556946 3.8088832 -1.2029644 0
3.5251577 3.801645 -1.1969389 0
3.5311668 3.8338273 -1.2033368 0
3.5078471 3.8342273 -1.1997643 0
3.4880531 3.8383534 -1.1973891 0
3.4666991 3.8406484 -1.1944724 0
3.4738066 3.8745615 -1.2013906 0
3.4661238 3.8921692 -1.20324 0
3.4283149 3.8757997 -1.1946193 0
3.4340768 3.908643 -1.2011868 0
3.4152501 3.9136002 -1.1991845 0
3.4009249 3.9236624 -1.1987671 0
3.3938608 3.9421403 -1.2009292 0
3.3787735 3.9513326 -1.2002716 0
3.3631775 3.9598968 -1.1994411 0
3.3465657 3.9672194 -1.1982536 0
3.3405554 3.9871423 -1.2008815 0
3.3260334 3.9969559 -1.2004718 0
3.3168273 4.0131831 -1.2019988 0
3.3037112 4.0247173 -1.202129 0
3.2872179 4.0321155 -1.20104 0
3.2571881 4.0227456 -1.1949893 0
3.2660077 4.0614066 -1.2032142 0
3.2405784 4.0575666 -1.198851 0
3.219882 4.0594902 -1.196223 0
3.2080014 4.0724826 -1.1968752 0
3.184901 4.0711637 -1.1933427 0
3.1906374 4.1067948 -1.2006444 0
3.1759431 4.1162944 -1.2003016 0
3.1834149 4.1547065 -1.2083834 0
3.1535378 4.1444216 -1.2023102 0
3.1413836 4.1572995 -1.2029837 0
3.0988133 4.1296754 -1.1919773 0
3.1029882 4.1642499 -1.1989471 0
3.0788062 4.1608419 -1.1949871 0
3.0809135 4.1930189 -1.2012547 0
3.0512879 4.182013 -1.195164 0
3.0578473 4.2206507 -1.2032694 0
3.0433285 4.230392 -1.2031308 0
3.0302308 4.242116 -1.2035689 0
3.0102458 4.2441521 -1.2012763 0
2.9829009 4.2356219 -1.1960244 0
2.974117 4.2533708 -1.1982138 0
2.9515119 4.2513237 -1.1948426 0
2.9408133 4.2663774 -1.1962956 0
2.9292409 4.2802296 -1.197419 0
2.9360471 4.3211894 -1.206117 0
2.9066727 4.3089657 -1.1999784 0
2.8884892 4.3131323 -1.1984348 0
2.8817804 4.3344769 -1.2016743 0
2.8767788 4.3585801 -1.2056757 0
2.8410211 4.3359551 -1.1967756 0
2.8432152 4.3712044 -1.2038667 0
2.8309963 4.3845115 -1.2049108 0
2.8084793 4.3818083 -1.2015734 0
2.7915006 4.387629 -1.2005963 0
2.7593176 4.3693218 -1.1930487 0
2.7647319 4.4105816 -1.2017767 0
2.7493021 4.4188194 -1.201503 0
2.7415938 4.4395466 -1.2046326 0
2.7204797 4.4385757 -1.2018875 0
2.6957285 4.4314728 -1.19751 0
2.6820405 4.4424491 -1.1980393 0
2.6694212 4.4552393 -1.1990682 0
2.6410625 4.4416184 -1.1930124 0
2.6367867 4.4684644 -1.1978419 0
2.6294589 4.490376 -1.2013457 0
2.6162519 4.5023732 -1.2022017 0
2.5999162 4.5089946 -1.2016354 0
2.5794859 4.5084267 -1.1991725 0
2.5837231 4.5511656 -1.2082294 0
2.5530567 4.5324759 -1.2009885 0
2.5289576 4.5251064 -1.1967822 0
2.506635 4.5206895 -1.1933848 0
2.5001359 4.5448327 -1.1975385 0
2.498749 4.5785952 -1.2042204 0
2.4843793 4.5887861 -1.2047032 0
2.4657652 4.5911045 -1.2031347 0
2.4363623 4.5730753 -1.1962625 0
2.4229534 4.5848842 -1.1972198 0
2.4121525 4.6017294 -1.1995 0
2.3959031 4.6082387 -1.199096 0
2.3819809 4.6192355 -1.1998726 0
2.3744133 4.6427078 -1.203895 0
2.3497202 4.6326742 -1.1992435 0
2.3404 4.6529031 -1.202442 0
2.3110812 4.6332474 -1.1953533 0
2.3065283 4.6631985 -1.2010785 0
2.2978714 4.6851587 -1.2047436 0
2.2798798 4.6881685 -1.2035452 0
2.2508476 4.6682005 -1.1964749 0
2.2412155 4.6883397 -1.1997039 0
2.2206233 4.6855721 -1.1970838 0
2.2113419 4.7066998 -1.2005806 0
2.2087951 4.7425294 -1.2078241 0
2.181958 4.7262464 -1.2018073 0
2.1654599 4.7321382 -1.2014524 0
2.1545413 4.7503061 -1.2042243 0
2.1336617 4.7465129 -1.2014425 0
2.1015627 4.7173371 -1.1922672 0
2.1009586 4.7588401 -1.2009697 0
2.0759552 4.7452025 -1.1957647 0
2.0592456 4.7503181 -1.1953073 0
2.041302 4.7525277 -1.1941344 0
2.0316269 4.7740803 -1.1978315 0
2.0262489 4.8061023 -1.2041546 0
2.0028574 4.7954717 -1.1998018 0
1.9841051 4.7957239 -1.1981939 0
1.9675031 4.8011003 -1.1978823 0
1.9563212 4.8198075 -1.2009064 0
1.9366523 4.8176379 -1.1987412 0
1.921742 4.8272519 -1.1995234 0
1.906051 4.8349481 -1.1998411 0
1.8979021 4.8619914 -1.2049663 0
1.8699002 4.8380818 -1.1974802 0
1.8589671 4.858171 -1.2009029 0
1.8509752 4.8863058 -1.2063168 0
1.8205724 4.8551235 -1.1971051 0
1.8124679 4.8832502 -1.202535 0
1.7934201 4.8820448 -1.2007507 0
1.7705078 4.8700585 -1.1963359 0
1.7708192 4.9222479 -1.207691 0
1.7447472 4.9013052 -1.2011106 0
1.7231354 4.8924518 -1.1975183 0
1.7035235 4.8890219 -1.1952741 0
1.7016951 4.9369855 -1.2055987 0
1.6846197 4.9411583 -1.2052315 0
1.6599648 4.9228206 -1.1993945 0
1.6375896 4.9107838 -1.1951174 0
1.6253121 4.9289737 -1.1982112 0
1.6097552 4.9373956 -1.1989397 0
1.5984391 4.9590435 -1.2028884 0
1.5778716 4.9520354 -1.1998984 0
1.5563811 4.9418082 -1.1961492 0
1.5408258 4.9502835 -1.1969434 0
1.5271226 4.964859 -1.1992229 0
1.5078024 4.9611812 -1.1971067 0
1.4931511 4.9728398 -1.1987052 0
1.4823425 4.9976177 -1.2034732 0
1.4604043 4.9848995 -1.1992246 0
1.4482671 5.0056133 -1.2030329 0
1.430402 5.0066814 -1.2021302 0
1.4206896 5.0365562 -1.2081528 0
1.3914622 4.9970016 -1.1975387 0
1.3736225 4.9977179 -1.1965998 0
1.3588054 5.0094728 -1.1983168 0
1.3416696 5.0127587 -1.19802 0
1.3328593 5.0475402 -1.2052579 0
1.308053 5.0217466 -1.1980449 0
1.293188 5.0338087 -1.1998813 0
1.276993 5.0408392 -1.2005298 0
1.2530195 5.0168033 -1.1937983 0
1.2399718 5.0363283 -1.1974484 0
1.2269585 5.0564456 -1.2012466 0
1.2066467 5.0465136 -1.1979192 0
1.1923039 5.0615005 -1.2005211 0
1.171736 5.049993 -1.1968532 0
1.1552349 5.0558071 -1.1973063 0
1.140169 5.0680604 -1.1992961 0
1.131068 5.1075177 -1.2077291 0
1.1106132 5.0960302 -1.2041254 0
1.0935307 5.0997701 -1.204136 0
1.0704558 5.0751033 -1.1974576 0
1.0566 5.0939274 -1.2010566 0
1.0344198 5.0724554 -1.1951693 0
1.0210869 5.094255 -1.1994923 0
1.0034796 5.0950017 -1.1988692 0
0.98625964 5.0976567 -1.1987091 0
0.97300577 5.1211624 -1.2034626 0
0.95141399 5.1007209 -1.1979024 0
0.93635184 5.1150527 -1.2005243 0
0.91973478 5.1211591 -1.2012269 0
0.90378726 5.1311855 -1.2028612 0
0.88532388 5.1269226 -1.2011594 0
0.86878204 5.1337194 -1.2020625 0
0.85303921 5.1454973 -1.2041439 0
0.83115679 5.1198344 -1.1974794 0
0.81730372 5.1434693 -1.2023597 0
0.79768807 5.1309624 -1.198804 0
0.78033125 5.1326265 -1.1985748 0
0.76085782 5.1200037 -1.1950247 0
0.74813938 5.1531935 -1.2021791 0
0.72880346 5.1411829 -1.1988004 0
0.71050131 5.1359305 -1.1970135 0
0.69645727 5.1618509 -1.2025037 0
0.68270618 5.1912236 -1.2088062 0
0.66384292 5.1821313 -1.206164 0
0.6441071 5.1654229 -1.2017657 0
0.62666357 5.1665535 -1.2015331 0
0.60815167 5.1585665 -1.1991947 0
0.59195882 5.170239 -1.2014401 0
0.57222384 5.1506209 -1.1964287 0
0.55660218 5.1678357 -1.1999872 0
0.54041362 5.1806145 -1.2025269 0
0.5215686 5.1678085 -1.1991417 0
0.50472552 5.1745167 -1.2002989 0
0.48781839 5.1809044 -1.2013946 0
0.46901116 5.1667147 -1.1977328 0
0.45220661 5.1742206 -1.1991146 0
0.43409941 5.1667042 -1.1970285 0
0.41741344 5.1760602 -1.1988652 0
0.39932457 5.1679549 -1.196671 0
0.38255894 5.1768942 -1.1984372 0
0.36424711 5.1646419 -1.1953114 0
0.34782183 5.1791286 -1.1983876 0
0.3289912 5.1573153 -1.1930784 0
0.31255281 5.1725383 -1.1963508 0
0.29757643 5.215055 -1.2059469 0
0.27843627 5.1852331 -1.1988282 0
0.261336 5.1918268 -1.2001433 0
0.24279147 5.1684947 -1.1945549 0
0.22688425 5.2019081 -1.202095 0
0.20902015 5.192162 -1.1996741 0
0.19109792 5.1789384 -1.1964639 0
0.17432161 5.197103 -1.2005187 0
0.15607126 5.1703453 -1.1942102 0
0.13924736 5.189929 -1.1986189 0
0.12188651 5.1921039 -1.19902 0
0.10430522 5.1839123 -1.1970408 0
0.087592371 5.2240977 -1.2062457 0
0.069816552 5.2049851 -1.2017717 0
0.052439604 5.2126231 -1.2034879 0
0.034793407 5.1875772 -1.1976717 0
0.01735921 5.1754322 -1.1948475 0
6.9025327e-06 5.2024112 -1.2010695 0
-0.017433045 5.2015605 -1.2008797 0
-0.034764722 5.1853528 -1.1971581 0
-0.05226396 5.1965342 -1.1997733 0
-0.069862485 5.2094398 -1.2028003 0
-0.086987212 5.188827 -1.1981015 0
-0.10494118 5.2162075 -1.2044982 0
-0.12207998 5.2009335 -1.201059 0
-0.13980779 5.2113328 -1.203562 0
-0.15660937 5.1886287 -1.198433 0
-0.17359158 5.1757483 -1.1955857 0
-0.19214632 5.207726 -1.2031145 0
-0.20942684 5.2026076 -1.2020875 0
-0.22481218 5.1547151 -1.1911892 0
-0.24376383 5.1894879 -1.1994069 0
-0.25990236 5.1636186 -1.1936226 0
-0.27782348 5.1740775 -1.1962489 0
-0.29665563 5.1991601 -1.2022712 0
-0.31394163 5.1957512 -1.2017195 0
-0.3296729 5.1682172 -1.1956002 0
-0.3490867 5.1981688 -1.2027931 0
-0.36680692 5.2011337 -1.2037569 0
-0.38523567 5.2133045 -1.2068659 0
-0.39846107 5.1569581 -1.1941243 0
-0.41786698 5.1818557 -1.2002072 0
-0.43566644 5.1855202 -1.2013876 0
-0.45248502 5.1775646 -1.1998892 0
-0.47132137 5.1923175 -1.2036676 0
-0.48793623 5.1823034 -1.2017187 0
-0.50588053 5.1865001 -1.2030784 0
-0.52160692 5.1683254 -1.1992614 0
-0.54112172 5.1875358 -1.2041332 0
-0.5595513 5.1953464 -1.206375 0
-0.57776707 5.2006412 -1.2080475 0
-0.58753639 5.1317334 -1.1924919 0
-0.61018956 5.1759706 -1.2032402 0
-0.62544358 5.15661 -1.1992203 0
-0.64269501 5.1542096 -1.1991564 0
-0.65923774 5.1462903 -1.1978214 0
-0.67778963 5.1539445 -1.2001251 0
-0.69187021 5.1279564 -1.1946071 0
-0.71190196 5.1461558 -1.1993961 0
-0.73268521 5.1686645 -1.2052079 0
-0.7475307 5.149097 -1.2012229 0
-0.76063627 5.1186066 -1.1946981 0
-0.7806077 5.1345367 -1.1990205 0
-0.79972285 5.1441402 -1.2018825 0
-0.8144871 5.1258321 -1.1982361 0
-0.83039701 5.1152396 -1.1964042 0
-0.84983605 5.1262603 -1.1996415 0
-0.87246156 5.1555452 -1.2071725 0
-0.88406247 5.119699 -1.1994665 0
-0.89941025 5.1064148 -1.1970539 0
-0.91575521 5.0990787 -1.1960471 0
-0.93576765 5.111938 -1.1997927 0
-0.95446873 5.1171732 -1.2017657 0
-0.97291529 5.12076 -1.2033675 0
-0.98649901 5.0989666 -1.1990166 0
-1.0010339 5.0826554 -1.1959635 0
-1.0160823 5.069356 -1.193629 0
-1.0453761 5.1262517 -1.207844 0
-1.0562012 5.092073 -1.2006186 0
-1.073566 5.0899158 -1.2009518 0
-1.0871798 5.0702181 -1.1971576 0
-1.1105868 5.0959735 -1.2041112 0
-1.1209296 5.0618 -1.1969179 0
-1.1423342 5.0777483 -1.2015879 0
-1.1526978 5.044765 -1.1946907 0
-1.1736816 5.0584397 -1.1988543 0
-1.1804175 5.0111008 -1.1885662 0
-1.2100959 5.0609989 -1.2013569 0
-1.2229186 5.039855 -1.1973045 0
-1.2377597 5.0274014 -1.1953251 0
-1.2582402 5.0377636 -1.1987851 0
-1.2830341 5.0647416 -1.2062217 0
-1.2946819 5.0396795 -1.2012799 0
-1.3068964 5.0173612 -1.1969978 0
-1.3277282 5.028163 -1.2006301 0
-1.3522475 5.0523338 -1.2074775 0
-1.3569757 5.00278 -1.1967149 0
-1.3773112 5.0111904 -1.1998248 0
-1.4016329 5.0335784 -1.2063035 0
-1.4109654 5.0021334 -1.1998947 0
-1.4289833 5.0017662 -1.2009491 0
-1.4435244 4.9892707 -1.1991042 0
-1.457117 4.9737277 -1.1965361 0
-1.4820906 4.9968176 -1.2032795 0
-1.49654 4.9841743 -1.2014365 0
-1.512755 4.9775248 -1.2010493 0
-1.5260787 4.9615121 -1.1984135 0
-1.5445657 4.9623446 -1.1998588 0
-1.5629014 4.9625573 -1.2011704 0
-1.5717258 4.9327927 -1.1952348 0
-1.601289 4.9679308 -1.205043 0
-1.610267 4.9390097 -1.1993307 0
-1.6255019 4.9295931 -1.1983607 0
-1.6351563 4.9035301 -1.193351 0
-1.6597443 4.9222097 -1.1992445 0
-1.6755478 4.9145923 -1.1987506 0
-1.7004533 4.9334254 -1.2047281 0
-1.703563 4.8891768 -1.1953108 0
-1.7215366 4.8879542 -1.1964164 0
-1.7484162 4.9116535 -1.2036453 0
-1.7620045 4.8977871 -1.2016883 0
-1.7759739 4.8851342 -1.2000381 0
-1.7926186 4.8799033 -1.2002227 0
-1.8078992 4.8709807 -1.1995124 0
-1.8297471 4.8796301 -1.2031463 0
-1.8410951 4.8602629 -1.1998862 0
-1.8650295 4.874053 -1.2048277 0
-1.8751824 4.8517866 -1.200871 0
-1.8834242 4.8249402 -1.1957825 0
-1.9019208 4.8245087 -1.1972493 0
-1.920795 4.8249102 -1.1989403 0
-1.9415836 4.8299422 -1.2018015 0
-1.953052 4.81179 -1.1989075 0
-1.9631201 4.7904415 -1.1952215 0
-1.9849453 4.7977905 -1.1987089 0
-1.9969937 4.7814674 -1.1962968 0
-2.0116096 4.7714143 -1.1954622 0
-2.0365961 4.7857924 -1.2007687 0
-2.053966 4.7820468 -1.2015501 0
-2.0712695 4.77809 -1.2022941 0
-2.086848 4.7701364 -1.2020465 0
-2.1055608 4.7692986 -1.2036076 0
-2.1286645 4.7782054 -1.2076498 0
-2.1266632 4.7309775 -1.1975087 0
-2.1499245 4.7401609 -1.201651 0
-2.1626129 4.7259493 -1.1998796 0
-2.1724126 4.7056031 -1.1965566 0
-2.1869059 4.6955628 -1.1958612 0
-2.2121127 4.7083731 -1.2010059 0
-2.2143869 4.6724453 -1.1937286 0
-2.2361121 4.6776962 -1.1969788 0
-2.2686601 4.7051754 -1.2059501 0
-2.2750638 4.678297 -1.2010095 0
-2.2921019 4.6734271 -1.2017254 0
-2.3089688 4.6681633 -1.2023557 0
-2.3181775 4.6475048 -1.19903 0
-2.3328938 4.638011 -1.1985918 0
-2.3582361 4.6494946 -1.2035961 0
-2.363416 4.6212344 -1.1983252 0
-2.3898549 4.6345353 -1.2038451 0
-2.3941798 4.6049538 -1.1982396 0
-2.4239359 4.6242385 -1.2053655 0
-2.4208019 4.5808425 -1.1961628 0
-2.4453802 4.5900316 -1.2006963 0
-2.45731 4.5753903 -1.1990149 0
-2.4784956 4.5779476 -1.201856 0
-2.4798584 4.5440097 -1.1951224 0
