# .PCD v0.7 - Point Cloud Data file format
VERSION 0.7
FIELDS x y z intensity
SIZE 4 4 4 4
TYPE F F F F
COUNT 1 1 1 1
WIDTH 1413
HEIGHT 1
VIEWPOINT 0 0 0 1 0 0 0
POINTS 1413
DATA ascii
1.9157585 0.36731443 -0.17065984 0
1.9148687 0.37380436 -0.17069127 0
1.922981 0.38208547 -0.17152762 0
1.9467951 0.39360669 -0.17376857 0
1.9539759 0.40188229 -0.17452879 0
1.9275978 0.40319794 -0.17229249 0
1.9285976 0.41016102 -0.1725038 0
1.9641654 0.42461362 -0.17581153 0
1.9363567 0.42540252 -0.17344907 0
1.9327966 0.43141854 -0.17325877 0
1.9224999 0.43589222 -0.17246579 0
1.9345709 0.44545403 -0.17368168 0
1.9260315 0.45029303 -0.1730496 0
1.9268061 0.45729285 -0.17325598 0
1.9461321 0.4687776 -0.17513409 0
1.941714 0.47460693 -0.17487873 0
1.926505 0.4777402 -0.17365222 0
1.9475217 0.489889 -0.17569371 0
1.9401761 0.49496379 -0.17517976 0
13.275669 3.4342418 -1.1997017 0
13.268961 3.4800134 -1.2001431 0
13.235662 3.5187514 -1.1981916 0
13.239978 3.5674701 -1.1996585 0
13.221388 3.6100514 -1.199064 0
13.203588 3.6528046 -1.1985537 0
13.21537 3.7038085 -1.2007437 0
13.191799 3.7449515 -1.1997361 0
13.186029 3.7911325 -1.2003607 0
13.140056 3.8256588 -1.1973366 0
13.145174 3.875005 -1.19898 0
13.147309 3.9235933 -1.2003679 0
13.132673 3.9672265 -1.2002393 0
13.115411 4.010047 -1.1998837 0
13.109523 4.0563593 -1.2005825 0
13.090293 4.0985503 -1.2000731 0
13.079785 4.1434646 -1.2003767 0
13.063201 4.1864562 -1.2001362 0
13.067637 4.2362432 -1.2018418 0
13.043934 4.2769418 -1.2009739 0
13.027621 4.3200216 -1.2007989 0
12.983562 4.3537836 -1.1980765 0
12.990783 4.4047132 -1.2000989 0
4.7447758 1.6265426 -0.43882751 0
4.7290692 1.6388977 -0.43788061 0
4.6227045 1.619417 -0.42853224 0
4.5901866 1.6253246 -0.42602059 0
4.5396061 1.6245638 -0.42182931 0
4.4941964 1.6253316 -0.41811377 0
4.4462423 1.6248668 -0.41415694 0
4.4460154 1.6417022 -0.41464615 0
4.4621677 1.6646883 -0.41667077 0
4.4629102 1.6820326 -0.41726434 0
4.4622574 1.6988946 -0.41773355 0
4.4499164 1.7113004 -0.41711304 0
4.4384651 1.7240008 -0.4165791 0
4.4581709 1.7488801 -0.41897663 0
4.4469581 1.7617084 -0.4184756 0
4.4651713 1.7862675 -0.4207508 0
4.4456592 1.795776 -0.41947716 0
4.4430075 1.8120557 -0.41979787 0
4.439887 1.828169 -0.4200798 0
12.650632 5.2587028 -1.1986006 0
12.650204 5.3083372 -1.2002397 0
12.623876 5.3471379 -1.1994359 0
12.599533 5.3867211 -1.1988323 0
12.603878 5.4386334 -1.200974 0
12.577433 5.4773169 -1.2001973 0
12.568964 5.5238357 -1.2011498 0
12.541145 5.5618539 -1.2002666 0
12.511896 5.5991578 -1.1992573 0
12.491399 5.6403294 -1.1990985 0
12.484454 5.6876626 -1.2002556 0
12.442431 5.7189708 -1.1980523 0
12.431591 5.7645531 -1.1988628 0
12.416924 5.8084145 -1.1993197 0
12.398209 5.8504043 -1.1993998 0
12.350368 5.8785386 -1.1966717 0
12.381785 5.9444933 -1.2016402 0
12.345537 5.978106 -1.2000608 0
12.30862 6.0112581 -1.1984248 0
12.294616 6.0555563 -1.1990314 0
12.296396 6.1077471 -1.2011954 0
12.272478 6.1472516 -1.2008655 0
12.24885 6.1868753 -1.2005765 0
12.204115 6.215724 -1.1982278 0
12.209599 6.2701612 -1.2008234 0
12.188624 6.3111229 -1.200835 0
12.150063 6.3429046 -1.1991243 0
12.13759 6.3882704 -1.2000005 0
12.11522 6.4284611 -1.199913 0
12.101843 6.473455 -1.200731 0
12.073567 6.5104871 -1.2000847 0
12.045181 6.5474033 -1.1994385 0
12.037982 6.5958724 -1.2009169 0
12.01618 6.6364064 -1.2009549 0
11.99715 6.6784873 -1.2012842 0
11.971156 6.7166905 -1.2009295 0
11.952322 6.7589121 -1.2013067 0
11.923922 6.7957153 -1.2007356 0
11.905016 6.8379226 -1.2011337 0
11.863784 6.8672419 -1.19929 0
11.85872 6.9174957 -1.2011158 0
11.823203 6.9500122 -1.199872 0
11.810864 6.9961476 -1.2009935 0
11.779189 7.0308423 -1.200163 0
11.747581 7.0655031 -1.1993494 0
11.74565 7.1180768 -1.2015821 0
11.73207 7.1637387 -1.2026432 0
11.690296 7.1921506 -1.200826 0
11.664788 7.2304826 -1.2006894 0
11.634588 7.265872 -1.2000816 0
11.603965 7.3009405 -1.1994411 0
11.575362 7.3372331 -1.1990207 0
11.566373 7.3860121 -1.200648 0
11.550494 7.4305081 -1.201579 0
11.51438 7.4619761 -1.200418 0
11.475231 7.4913578 -1.1989485 0
11.479738 7.5493131 -1.2020571 0
11.425375 7.5685582 -1.1990151 0
11.410264 7.6137152 -1.2001016 0
11.394386 7.6584578 -1.2011255 0
11.37254 7.699255 -1.2015371 0
11.313081 7.7144423 -1.197981 0
11.302459 7.7628431 -1.1996057 0
11.286431 7.8076553 -1.2006762 0
11.243399 7.8337536 -1.1988857 0
11.211409 7.867434 -1.1982806 0
11.209264 7.9221501 -1.2008835 0
11.176735 7.9554858 -1.2002494 0
11.12867 7.9776249 -1.1979535 0
11.147468 8.0478182 -1.2028748 0
11.092781 8.065052 -1.1998849 0
11.060513 8.0984173 -1.1993248 0
11.045773 8.1446533 -1.2006809 0
11.018964 8.1820583 -1.2007419 0
10.987708 8.2161446 -1.2003311 0
10.958427 8.2516785 -1.200148 0
10.937891 8.2938271 -1.2009375 0
10.898419 8.3215942 -1.1996604 0
10.878849 8.3645401 -1.2005866 0
10.855183 8.4044046 -1.2010777 0
10.798233 8.4183702 -1.1978928 0
10.785341 8.4666119 -1.199605 0
10.761338 8.5062389 -1.2001007 0
10.747213 8.5537767 -1.201717 0
10.689662 8.5666723 -1.1984868 0
10.673801 8.6128922 -1.1999395 0
10.652256 8.6546364 -1.2007726 0
10.630356 8.6961737 -1.201584 0
10.56934 8.705574 -1.1979796 0
10.549362 8.7486496 -1.1990331 0
10.513426 8.7785063 -1.1982872 0
10.512977 8.8381224 -1.2016069 0
10.467213 8.8597164 -1.1997645 0
10.443855 8.9002209 -1.200501 0
10.402317 8.9252014 -1.1991593 0
10.379987 8.9666386 -1.200044 0
10.354 9.0049868 -1.2005235 0
10.308171 9.0260105 -1.1987119 0
10.283748 9.0657196 -1.1993996 0
10.269823 9.1148176 -1.201333 0
10.219886 9.131937 -1.1990665 0
10.201194 9.1769304 -1.2004766 0
10.172603 9.2131052 -1.2007403 0
10.142275 9.2477245 -1.2008137 0
10.094933 9.2667351 -1.1988804 0
10.086713 9.3216982 -1.2016093 0
10.049945 9.3503866 -1.2009569 0
9.9985638 9.3653212 -1.1985626 0
9.9898577 9.4202442 -1.2012984 0
9.9538517 9.4495411 -1.2007717 0
9.9312048 9.4915504 -1.201872 0
9.8866796 9.5126266 -1.2003366 0
9.8691111 9.5596514 -1.2020882 0
9.8254347 9.5814047 -1.2006745 0
9.7713461 9.5927858 -1.1979884 0
9.7595253 9.6456528 -1.2004975 0
9.7200031 9.6712284 -1.1996179 0
9.684247 9.7004824 -1.1992122 0
9.6521931 9.7334261 -1.1992773 0
9.6117325 9.757843 -1.1983083 0
9.6107025 9.8224545 -1.202279 0
9.5650225 9.8415623 -1.2006857 0
9.5198259 9.8609953 -1.1991558 0
9.4942865 9.9007587 -1.2001134 0
9.4533558 9.9244699 -1.1991389 0
9.4316549 9.968399 -1.200619 0
9.3994961 10.001366 -1.2007872 0
9.3609924 10.027555 -1.2001566 0
9.3435421 10.076381 -1.202244 0
9.290987 10.087328 -1.1998267 0
9.2569733 10.118269 -1.1998086 0
9.2312441 10.158325 -1.2008815 0
9.2004118 10.192851 -1.2013097 0
9.1596022 10.216297 -1.2004467 0
9.1273813 10.24929 -1.2007209 0
9.0908041 10.277391 -1.2004354 0
9.0641594 10.316766 -1.201478 0
9.0182295 10.334161 -1.1999758 0
8.9868078 10.368121 -1.2004136 0
8.9476748 10.393175 -1.1998342 0
8.9138966 10.424425 -1.1999848 0
8.8845253 10.460882 -1.2007458 0
8.854866 10.497088 -1.2014871 0
8.7929115 10.494839 -1.1978486 0
8.7755613 10.545754 -1.200295 0
8.7384472 10.573052 -1.2000605 0
8.711482 10.612688 -1.2012372 0
8.6792917 10.646057 -1.2017137 0
8.6470585 10.679431 -1.2022015 0
8.5990095 10.6932 -1.2004992 0
8.5684004 10.728596 -1.201241 0
8.5215693 10.743633 -1.1997188 0
8.465785 10.747115 -1.1969314 0
8.4622765 10.817075 -1.2015563 0
8.4271593 10.846929 -1.2017272 0
8.3922539 10.877079 -1.2019433 0
8.3413267 10.886348 -1.1998705 0
8.2889004 10.893385 -1.1975762 0
8.2764063 10.952976 -1.2010701 0
8.2314367 10.969737 -1.1998748 0
8.1772318 10.973949 -1.19733 0
8.1516085 11.016462 -1.1989797 0
8.1308393 11.065798 -1.2013754 0
8.0784445 11.072098 -1.1991119 0
8.0512838 11.112935 -1.2006044 0
8.003377 11.125129 -1.199016 0
7.9808965 11.17271 -1.2012534 0
7.9305534 11.181305 -1.199312 0
7.8920989 11.206524 -1.199172 0
7.8703423 11.255605 -1.2015935 0
7.8158793 11.257902 -1.1990346 0
7.7867241 11.296571 -1.2003655 0
7.7507548 11.325464 -1.2006676 0
7.7094941 11.346611 -1.2001624 0
7.6567435 11.350657 -1.1978682 0
7.6379337 11.405068 -1.2009012 0
7.6141009 11.452346 -1.2031845 0
7.5503397 11.439446 -1.199163 0
7.5031686 11.451305 -1.1977623 0
7.4869156 11.510503 -1.2013217 0
7.4289231 11.50556 -1.1981995 0
7.4039969 11.551764 -1.2004193 0
7.3680096 11.580902 -1.2008733 0
7.325983 11.600542 -1.200356 0
7.2899938 11.62974 -1.2008414 0
7.235074 11.628583 -1.1982105 0
7.2141285 11.682058 -1.2012216 0
7.156178 11.675602 -1.1980836 0
7.1192322 11.703213 -1.1984609 0
7.0920162 11.746996 -1.2005028 0
7.0561385 11.776629 -1.2011067 0
7.0202136 11.806275 -1.2017229 0
6.9807067 11.829944 -1.201743 0
6.9271307 11.829591 -1.1993409 0
6.8974071 11.869921 -1.2010784 0
6.8455091 11.872062 -1.1989659 0
6.8204112 11.920718 -1.2015636 0
6.7787371 11.94058 -1.2012681 0
6.7424321 11.96993 -1.2019397 0
6.7000585 11.988527 -1.2015446 0
6.6466761 11.987209 -1.1991723 0
6.6044564 12.005807 -1.1988108 0
6.5638924 12.027381 -1.1987607 0
6.5284181 12.05835 -1.199659 0
6.4788089 12.063147 -1.1979684 0
6.4491735 12.10516 -1.1999866 0
6.41081 12.13099 -1.2004097 0
6.3756676 12.163035 -1.2014586 0
6.337965 12.190331 -1.2020491 0
6.2872291 12.192453 -1.2001729 0
6.2448111 12.210525 -1.1998841 0
6.1991916 12.222237 -1.1989857 0
6.1658068 12.25812 -1.200471 0
6.1268244 12.283036 -1.2008927 0
6.0826311 12.297493 -1.2003055 0
6.0347195 12.304266 -1.198985 0
6.0080061 12.3544 -1.2019006 0
5.9606652 12.362268 -1.2007151 0
5.91048 12.363977 -1.1989496 0
5.8736992 12.393655 -1.199911 0
5.8162546 12.379526 -1.1966484 0
5.7903342 12.432492 -1.1998849 0
5.7469869 12.448304 -1.1995444 0
5.7143879 12.487541 -1.2014725 0
5.6654387 12.49109 -1.1999795 0
5.6256108 12.514651 -1.2004242 0
5.5845737 12.535583 -1.2006294 0
5.5420671 12.553226 -1.2005327 0
5.5157866 12.607944 -1.2039901 0
5.4516296 12.575953 -1.199183 0
5.4137511 12.604211 -1.20014 0
5.3785501 12.638949 -1.2017239 0
5.3319244 12.646904 -1.2007736 0
5.2785687 12.638556 -1.198294 0
5.2434702 12.673842 -1.199966 0
5.1992459 12.687199 -1.1995733 0
5.1663876 12.728479 -1.2018318 0
5.1237779 12.745967 -1.2018542 0
5.0786529 12.757142 -1.2012956 0
5.0275326 12.752995 -1.199311 0
4.9902773 12.78395 -1.2006419 0
4.9468465 12.799211 -1.2005106 0
4.8894882 12.778048 -1.1969813 0
4.8669734 12.848104 -1.2020084 0
4.8123488 12.833629 -1.1991379 0
4.7748132 12.864563 -1.2005258 0
4.7402267 12.903837 -1.2027009 0
4.6931376 12.90921 -1.2017283 0
4.6349082 12.883398 -1.197872 0
4.5989141 12.919168 -1.1997576 0
4.5507774 12.9209 -1.1984947 0
4.5084577 12.939034 -1.1987678 0
4.4723592 12.975281 -1.2007301 0
4.4289718 12.990618 -1.2007684 0
4.3787622 12.985734 -1.1989532 0
4.3364353 13.004049 -1.199295 0
4.2887106 13.006082 -1.1981496 0
4.249588 13.034216 -1.1994221 0
4.2074938 13.05345 -1.1998872 0
4.165411 13.07284 -1.2003789 0
4.1297965 13.112896 -1.2027788 0
4.0796652 13.106932 -1.2009704 0
4.0262728 13.089896 -1.1981658 0
3.9975517 13.153301 -1.2027358 0
3.9393601 13.119776 -1.1984558 0
3.9023821 13.156618 -1.2006193 0
3.855902 13.161619 -1.1998892 0
3.8163571 13.190391 -1.2013389 0
3.7756639 13.215548 -1.2024704 0
3.7240758 13.202403 -1.2001315 0
3.6740835 13.194323 -1.1982706 0
3.6300466 13.207375 -1.1983438 0
3.5886853 13.230313 -1.1993266 0
3.5458877 13.248179 -1.1998618 0
3.5004678 13.256277 -1.1995254 0
3.4565792 13.270154 -1.1997256 0
3.4113352 13.278818 -1.1994681 0
3.3647602 13.28215 -1.1987433 0
3.3226495 13.303129 -1.1996247 0
3.2833488 13.335807 -1.2015718 0
3.2340391 13.32787 -1.1998731 0
3.1822724 13.3091 -1.1972159 0
3.1418827 13.337741 -1.198838 0
3.0978518 13.351242 -1.1991112 0
3.0514984 13.354674 -1.1984938 0
3.0135288 13.39516 -1.2012136 0
2.9646137 13.387185 -1.1996005 0
2.9221742 13.408347 -1.2006119 0
2.8688023 13.378896 -1.1971068 0
2.8285718 13.41045 -1.1990749 0
2.783705 13.420398 -1.1991231 0
2.7425931 13.448778 -1.2008306 0
2.6966231 13.45359 -1.2004462 0
2.6490574 13.45015 -1.19934 0
2.6075921 13.477799 -1.201019 0
2.5582433 13.464647 -1.1990761 0
2.514787 13.482276 -1.1998883 0
2.4719663 13.503725 -1.2010529 0
2.4247975 13.501473 -1.2001227 0
2.3812819 13.519552 -1.2010133 0
2.336606 13.531318 -1.2013558 0
2.2889266 13.525495 -1.2001507 0
2.2433515 13.531803 -1.2000363 0
2.1920152 13.502572 -1.1967854 0
2.1507037 13.534844 -1.1990001 0
2.1056678 13.54427 -1.1992029 0
2.0612121 13.557617 -1.199766 0
2.0155418 13.563088 -1.1996455 0
1.9720501 13.583506 -1.2008597 0
1.9224854 13.561748 -1.1983596 0
1.8838453 13.617567 -1.2027271 0
1.8304672 13.56666 -1.1976821 0
1.7889304 13.602832 -1.2003392 0
1.7453724 13.624833 -1.2017574 0
1.6968211 13.607672 -1.1997353 0
1.6516187 13.616839 -1.2000486 0
1.6052494 13.616317 -1.1995214 0
1.5618864 13.641703 -1.2012897 0
1.5139643 13.627282 -1.199566 0
1.467616 13.626245 -1.1990349 0
1.4244511 13.655339 -1.2011681 0
1.3802359 13.67566 -1.2025417 0
1.3313876 13.64957 -1.1998483 0
1.2849193 13.646563 -1.1991984 0
1.2405393 13.666014 -1.2005354 0
1.1949252 13.672526 -1.2007489 0
1.1500139 13.687606 -1.2017279 0
1.10421 13.692557 -1.2018307 0
1.0539786 13.640316 -1.1969285 0
1.0134736 13.714607 -1.2031425 0
0.96698171 13.710786 -1.2025161 0
0.91808623 13.670465 -1.1987032 0
0.87291467 13.68394 -1.1996213 0
0.82682341 13.68337 -1.1993215 0
0.78268582 13.716642 -1.202001 0
0.73554093 13.697752 -1.2001227 0
0.68794566 13.667061 -1.197225 0
0.64395994 13.708486 -1.2006578 0
0.59882635 13.729644 -1.2023283 0
0.55277181 13.731119 -1.2022885 0
0.50682616 13.735478 -1.2025146 0
0.45976788 13.707199 -1.1998972 0
0.41378421 13.707888 -1.1998292 0
0.36852175 13.735281 -1.2021121 0
0.32182488 13.709049 -1.1997151 0
0.27599078 13.716591 -1.2002873 0
0.23003101 13.719283 -1.2004486 0
0.18415183 13.728944 -1.2012331 0
0.13801892 13.719414 -1.2003521 0
0.092059702 13.725786 -1.2008759 0
0.04611697 13.749199 -1.202904 0
1.8215349e-05 13.728835 -1.2011156 0
-0.045925524 13.702963 -1.1988589 0
-0.09195295 13.715297 -1.1999581 0
-0.13802624 13.723761 -1.2007325 0
-0.18395184 13.716747 -1.200166 0
-0.22990794 13.714114 -1.1999964 0
-0.27647641 13.742539 -1.2025579 0
-0.32140037 13.692515 -1.1982681 0
-0.36844707 13.733857 -1.2019874 0
-0.41422975 13.723855 -1.2012267 0
-0.4600971 13.718102 -1.2008514 0
-0.50492942 13.685061 -1.1981007 0
-0.55280948 13.732962 -1.2024497 0
-0.59765708 13.70367 -1.2000537 0
-0.64263099 13.68097 -1.1982478 0
-0.68905097 13.689743 -1.1992117 0
-0.73507398 13.689734 -1.1994201 0
-0.78100944 13.687903 -1.1994823 0
-0.82768595 13.698248 -1.2006253 0
-0.87347031 13.693223 -1.2004348 0
-0.92007327 13.700597 -1.201345 0
-0.96432114 13.673578 -1.1992526 0
-1.0094866 13.661146 -1.1984524 0
-1.0567273 13.676362 -1.2000912 0
-1.1015613 13.660165 -1.1989872 0
-1.1475022 13.658145 -1.199141 0
-1.1931628 13.652778 -1.1990142 0
-1.2392237 13.651923 -1.1992973 0
-1.2855409 13.653552 -1.1998123 0
-1.3312702 13.648742 -1.1997751 0
-1.3774645 13.648563 -1.2001587 0
-1.4215002 13.627401 -1.1987102 0
-1.4671924 13.622653 -1.1987184 0
-1.5131052 13.619879 -1.1989141 0
-1.5605522 13.63037 -1.2002914 0
-1.6062613 13.625211 -1.2003045 0
-1.6536708 13.63406 -1.2015657 0
-1.6952738 13.595557 -1.1986668 0
-1.7415475 13.59526 -1.1991487 0
-1.7881082 13.59686 -1.1998118 0
-1.8329343 13.585217 -1.19932 0
-1.878511 13.579271 -1.1993444 0
-1.923926 13.57217 -1.1992801 0
-1.9681066 13.556596 -1.1984802 0
-2.0153618 13.562124 -1.1995597 0
-2.0585113 13.540093 -1.1982148 0
-2.1063149 13.54867 -1.1995919 0
-2.1473308 13.51385 -1.1971397 0
-2.192436 13.505391 -1.197035 0
-2.2424514 13.526597 -1.1995741 0
-2.2871459 13.51519 -1.1992358 0
-2.3397305 13.549626 -1.2029808 0
-2.3772776 13.497028 -1.1990118 0
-2.4206998 13.478862 -1.1981122 0
-2.4706397 13.496681 -1.2004259 0
-2.5168519 13.493545 -1.2008907 0
-2.5583122 13.465204 -1.1991251 0
-2.6047349 13.463223 -1.1997195 0
-2.6530335 13.470528 -1.2011564 0
-2.6963944 13.452636 -1.2003603 0
-2.739342 13.433018 -1.1994227 0
-2.7832143 13.41821 -1.198927 0
-2.8306699 13.420573 -1.1999794 0
-2.8712091 13.390293 -1.198126 0
-2.9233718 13.414013 -1.2011186 0
-2.9677527 13.401528 -1.2008849 0
-3.0095451 13.377618 -1.1996398 0
-3.0533626 13.362996 -1.19924 0
-3.1031094 13.374063 -1.2011601 0
-3.151334 13.378023 -1.2024579 0
-3.1950672 13.362768 -1.2020429 0
-3.2309587 13.31533 -1.1987433 0
-3.2782655 13.315312 -1.1997246 0
-3.3275681 13.322973 -1.2014132 0
-3.3676422 13.293675 -1.1997827 0
-3.4082656 13.267015 -1.1984012 0
-3.4582434 13.276687 -1.2003155 0
-3.5011561 13.259027 -1.1997733 0
-3.5505362 13.265688 -1.2014465 0
-3.5888431 13.231034 -1.1993911 0
-3.6304312 13.208911 -1.1984823 0
-3.6831832 13.227138 -1.2012497 0
-3.7183695 13.182308 -1.1983039 0
-3.7630489 13.171526 -1.198464 0
-3.80831 13.162707 -1.1988167 0
-3.8539257 13.155003 -1.199285 0
-3.8979342 13.14175 -1.1992617 0
-3.9417801 13.127962 -1.1992027 0
-3.9877739 13.121254 -1.1998044 0
-4.0361705 13.122199 -1.2011216 0
-4.0743642 13.090023 -1.1994201 0
-4.1232677 13.092285 -1.2008873 0
-4.1602983 13.056914 -1.1989156 0
-4.2130971 13.070953 -1.2014951 0
-4.2450447 13.020398 -1.1981496 0
-4.2915659 13.014856 -1.198957 0
-4.3356094 13.001688 -1.1990762 0
-4.3763328 12.978642 -1.1982974 0
-4.4293771 12.99192 -1.2008877 0
-4.4639964 12.95113 -1.1984941 0
-4.5092382 12.941383 -1.1989845 0
-4.5573139 12.939569 -1.2002251 0
-4.5964603 12.912384 -1.1991264 0
-4.6421895 12.903744 -1.1997627 0
-4.6902518 12.901379 -1.2009982 0
-4.7262802 12.865978 -1.1991711 0
-4.7724476 12.858294 -1.1999396 0
-4.8108096 12.829627 -1.1987629 0
-4.8621664 12.835517 -1.2008296 0
-4.9092598 12.82982 -1.2018298 0
-4.9509974 12.810052 -1.2015263 0
-4.9822536 12.763494 -1.1987195 0
-5.0348878 12.771752 -1.2010738 0
-5.0807486 12.762506 -1.2017994 0
-5.1175747 12.730633 -1.200407 0
-5.1579523 12.707793 -1.1998773 0
-5.1977549 12.683657 -1.1992371 0
-5.2506142 12.691205 -1.2016085 0
-5.287961 12.661139 -1.2004337 0
-5.3296909 12.6417 -1.2002783 0
-5.3627667 12.601954 -1.1982049 0
-5.4207425 12.620582 -1.2016973 0
-5.4541469 12.581851 -1.1997441 0
-5.4886794 12.546072 -1.1980804 0
-5.5350885 12.537511 -1.1990283 0
-5.5879693 12.543295 -1.2013664 0
-5.6285257 12.521225 -1.2010534 0
-5.6707082 12.502796 -1.2011027 0
-5.7060609 12.469433 -1.1997287 0
-5.7402401 12.433776 -1.1981431 0
-5.7896028 12.431008 -1.1997402 0
-5.8312287 12.411484 -1.199736 0
-5.8864484 12.420642 -1.2025223 0
-5.9185333 12.380908 -1.2005898 0
-5.9555016 12.351643 -1.1996815 0
-6.0030656 12.344324 -1.2009188 0
-6.049489 12.334462 -1.2019259 0
-6.0805144 12.293295 -1.1998942 0
-6.1272941 12.28406 -1.2009912 0
-6.1647205 12.256041 -1.2002659 0
-6.2007136 12.225317 -1.1992863 0
-6.2326922 12.186909 -1.1975617 0
-6.2825284 12.183417 -1.1992818 0
-6.3309436 12.176906 -1.2007235 0
-6.3700743 12.152444 -1.2004107 0
-6.4082627 12.126247 -1.1999387 0
-6.4426737 12.093038 -1.1987832 0
-6.4879165 12.080181 -1.1996584 0
-6.5311298 12.063436 -1.2001632 0
-6.5622602 12.024467 -1.1984686 0
-6.6158876 12.026662 -1.2008915 0
-6.6529574 11.998613 -1.2003113 0
-6.6902876 11.971119 -1.1997981 0
-6.7403622 11.966331 -1.2015764 0
-6.7795973 11.942169 -1.201426 0
-6.8290005 11.935804 -1.2030824 0
-6.8578067 11.893462 -1.2011253 0
-6.8841677 11.847209 -1.1987785 0
-6.9347553 11.842684 -1.2006665 0
-6.9710317 11.81362 -1.2000828 0
-7.0059347 11.782332 -1.199284 0
-7.0451236 11.758317 -1.199237 0
-7.0743299 11.717772 -1.1975142 0
-7.129302 11.719836 -1.2001612 0
-7.1566563 11.676452 -1.1981689 0
-7.2008057 11.660554 -1.1990083 0
-7.2483201 11.649941 -1.2004092 0
-7.283226 11.619012 -1.1997317 0
-7.304863 11.567166 -1.1969006 0
-7.3551898 11.56082 -1.1987888 0
-7.3916535 11.532574 -1.198423 0
-7.4337087 11.513039 -1.1989763 0
-7.4848599 11.507409 -1.2009968 0
-7.5057149 11.455258 -1.1981736 0
-7.5737705 11.475013 -1.2028891 0
-7.5986156 11.42912 -1.2007422 0
-7.6275616 11.389647 -1.1992751 0
-7.6624317 11.359154 -1.1987629 0
-7.7101121 11.347586 -1.2002634 0
-7.7570701 11.334756 -1.2016506 0
-7.7869129 11.296909 -1.2003993 0
-7.826211 11.272848 -1.2006241 0
-7.8668265 11.25064 -1.2010614 0
-7.8951635 11.210938 -1.1996421 0
-7.926837 11.176127 -1.1987544 0
-7.9923701 11.188835 -1.2029849 0
-7.9881458 11.104019 -1.1967386 0
-8.0483999 11.109015 -1.2001786 0
-8.0895224 11.087342 -1.2007607 0
-8.1150923 11.044427 -1.1990529 0
-8.1600409 11.02792 -1.2002244 0
-8.1899624 10.991095 -1.1991982 0
-8.2398901 10.981062 -1.2011112 0
-8.2580299 10.928717 -1.1984074 0
-8.286602 10.890424 -1.1972482 0
-8.3374023 10.881286 -1.1993101 0
-8.3934717 10.878716 -1.2021219 0
-8.4180403 10.835252 -1.200431 0
-8.4503307 10.801865 -1.1998641 0
-8.4821539 10.767954 -1.1992497 0
-8.5083952 10.727081 -1.1978681 0
-8.5616045 10.720144 -1.2002922 0
-8.5949163 10.688168 -1.1999316 0
-8.6308308 10.659448 -1.1999494 0
-8.6545963 10.615823 -1.1982982 0
-8.7146568 10.616613 -1.2016789 0
-8.7482653 10.58499 -1.2014127 0
-8.7860441 10.558409 -1.2017325 0
-8.8072147 10.511967 -1.1998008 0
-8.856636 10.499243 -1.201731 0
-8.8771582 10.452264 -1.1997538 0
-8.9227982 10.434892 -1.201187 0
-8.9403582 10.384732 -1.1988568 0
-8.9837284 10.364624 -1.2000059 0
-9.0076704 10.322117 -1.1985744 0
-9.0407171 10.290138 -1.1983743 0
-9.0906506 10.277273 -1.2004188 0
-9.1298447 10.252111 -1.2010485 0
-9.1466503 10.201906 -1.1987529 0
-9.1845322 10.175312 -1.1992396 0
-9.2249022 10.1514 -1.20006 0
-9.2445946 10.104793 -1.1982076 0
-9.2805099 10.076007 -1.1984773 0
-9.3353376 10.067586 -1.2011918 0
-9.3631258 10.029895 -1.2004336 0
-9.3829002 9.9837599 -1.1986704 0
-9.4230366 9.959343 -1.1995254 0
-9.4523087 9.9234238 -1.1990094 0
-9.4759569 9.8816967 -1.1977998 0
-9.5083256 9.8491354 -1.1977104 0
-9.5563307 9.8326712 -1.1995978 0
-9.5958595 9.8073368 -1.2004255 0
-9.6162977 9.7625303 -1.1988808 0
-9.6612902 9.7426519 -1.200411 0
-9.690197 9.7064943 -1.1999522 0
-9.7284555 9.6796894 -1.2006642 0
-9.755394 9.6416206 -1.1999924 0
-9.7947788 9.6158419 -1.2008646 0
-9.8091526 9.5655794 -1.198688 0
-9.8408432 9.532321 -1.1986483 0
-9.8930445 9.5188017 -1.2011125 0
-9.9287605 9.4892654 -1.2015792 0
-9.946826 9.4429207 -1.1999272 0
-9.9899445 9.4203758 -1.2013117 0
-10.014317 9.380125 -1.2004539 0
-10.043668 9.3445969 -1.2002099 0
-10.065135 9.3018064 -1.1990416 0
-10.126712 9.2959566 -1.2026575 0
-10.140377 9.2460442 -1.2005919 0
-10.191236 9.2300301 -1.2029426 0
-10.190438 9.1673031 -1.1992137 0
-10.224615 9.1362114 -1.1996242 0
-10.279164 9.1231575 -1.2024287 0
-10.282218 9.0644197 -1.199224 0
-10.333351 9.0481062 -1.2016428 0
-10.351619 9.002964 -1.2002501 0
-10.403155 8.986701 -1.2027253 0
-10.410545 8.9323092 -1.2001106 0
-10.431174 8.8894625 -1.199046 0
-10.474932 8.8662977 -1.200652 0
-10.491798 8.8203659 -1.1991888 0
-10.5311 8.7933121 -1.2003045 0
-10.554486 8.7529459 -1.1996182 0
-10.580342 8.7146835 -1.1992292 0
-10.626389 8.692975 -1.201138 0
-10.651613 8.6541615 -1.2007028 0
-10.690385 8.6263199 -1.2018063 0
-10.697335 8.5728683 -1.1993495 0
-10.730064 8.5401745 -1.1998019 0
-10.745016 8.4933834 -1.1982828 0
-10.799131 8.4774837 -1.2011414 0
-10.809633 8.4273043 -1.19916 0
-10.849458 8.4000187 -1.2004467 0
-10.861395 8.3511658 -1.1986628 0
-10.892574 8.3171768 -1.1990194 0
-10.93924 8.2948961 -1.2010882 0
-10.954697 8.2489157 -1.1997417 0
-10.979334 8.2099276 -1.1994187 0
-11.004227 8.1711597 -1.1991383 0
-11.012106 8.119874 -1.1970236 0
-11.058777 8.0971909 -1.199139 0
-11.102057 8.0718412 -1.2008907 0
-11.110802 8.0213928 -1.1989206 0
-11.128998 7.9779048 -1.197991 0
-11.161006 7.9443345 -1.1985626 0
-11.198359 7.9144878 -1.1997174 0
-11.247345 7.8926959 -1.2021236 0
-11.266306 7.8497591 -1.2013305 0
-11.305213 7.820693 -1.2026764 0
-11.313159 7.770236 -1.2007436 0
-11.341387 7.7337885 -1.2009807 0
-11.358556 7.6898317 -1.2000618 0
-11.388541 7.654573 -1.2005115 0
-11.416671 7.6180339 -1.2007775 0
-11.428007 7.5703454 -1.1992935 0
-11.471571 7.5439858 -1.2012041 0
-11.483883 7.4970489 -1.1998544 0
-11.535251 7.4755454 -1.2025959 0
-11.524792 7.4140167 -1.1989073 0
-11.565662 7.3856015 -1.2005762 0
-11.58977 7.3464093 -1.2005152 0
-11.614266 7.3074651 -1.2005079 0
-11.628489 7.2621055 -1.1994544 0
-11.654447 7.2241144 -1.1996268 0
-11.671988 7.1809292 -1.1989474 0
-11.695809 7.1416397 -1.198928 0
-11.736657 7.1126695 -1.200664 0
-11.751323 7.0677962 -1.1997334 0
-11.77482 7.0282764 -1.1997197 0
-11.78798 6.9826345 -1.1986685 0
-11.826525 6.9520073 -1.2002109 0
-11.837463 6.9051385 -1.1989647 0
-11.869514 6.8706012 -1.1998711 0
-11.881655 6.8245463 -1.1987786 0
-11.916195 6.7913537 -1.1999594 0
-11.936926 6.7502475 -1.1997612 0
-11.961093 6.7110863 -1.1999218 0
-11.995758 6.6777539 -1.2011466 0
-11.97842 6.6155934 -1.1971828 0
-12.027032 6.5899138 -1.1998262 0
-12.030677 6.5395598 -1.1979958 0
-12.075882 6.5117764 -1.2003163 0
-12.102489 6.4738417 -1.2007968 0
-12.107394 6.4243498 -1.1991397 0
-12.128674 6.3836188 -1.1991206 0
-12.139009 6.3371758 -1.1980351 0
-12.194232 6.3140674 -1.2013891 0
-12.180349 6.2551808 -1.1979483 0
-12.208414 6.2179546 -1.1986514 0
-12.226618 6.1756864 -1.1983989 0
-12.283091 6.1526084 -1.2019056 0
-12.288526 6.103878 -1.200428 0
-12.312868 6.0645866 -1.2008129 0
-12.331033 6.0222445 -1.2006086 0
-12.335757 5.9734106 -1.1991118 0
-12.383157 5.9451923 -1.201775 0
-12.412944 5.9083643 -1.2027365 0
-12.402782 5.8526025 -1.1998438 0
-12.424218 5.8118663 -1.2000257 0
-12.441311 5.7691002 -1.1998016 0
-12.448748 5.7219138 -1.1986619 0
-12.484327 5.687645 -1.2002449 0
-12.52619 5.6560793 -1.2024397 0
-12.518322 5.6020732 -1.1998745 0
-12.552584 5.5669665 -1.2013627 0
-12.569721 5.5242085 -1.2012235 0
-12.561491 5.4704142 -1.1986775 0
-12.615292 5.4435983 -1.202063 0
-12.602188 5.3878961 -1.1990863 0
-12.63653 5.3525376 -1.2006396 0
-12.643554 5.3055863 -1.1996101 0
-12.696677 5.2778826 -1.2029647 0
-12.693351 5.2266569 -1.2009825 0
-12.69317 5.176877 -1.1993163 0
-12.728702 5.1416607 -1.2010379 0
-12.737709 5.0956903 -1.200269 0
-12.752711 5.0521579 -1.2000798 0
-12.714637 4.9878192 -1.1949164 0
-12.787753 4.9670935 -1.2002159 0
-12.785965 4.9171262 -1.198494 0
-12.810769 4.8774238 -1.1992794 0
-12.85358 4.8444433 -1.2017599 0
-12.842791 4.7912626 -1.1992425 0
-12.873782 4.7537146 -1.2006413 0
-12.871381 4.7038488 -1.1989397 0
-12.885617 4.6601386 -1.1988038 0
-12.939985 4.6307998 -1.2024106 0
-12.937134 4.5809069 -1.2007116 0
-12.944448 4.5347123 -1.1999725 0
-12.957242 4.4904766 -1.1997561 0
-12.964735 4.4444408 -1.1990635 0
-13.005477 4.4097338 -1.2014574 0
-12.977407 4.3517585 -1.1975096 0
-13.034247 4.3222575 -1.2014107 0
-13.033126 4.2734365 -1.1999799 0
-13.061836 4.2344007 -1.2013093 0
-13.041383 4.179502 -1.1981328 0
-13.045325 4.1325865 -1.1972152 0
-13.09188 4.0990853 -1.2002196 0
-13.085835 4.0490675 -1.1984141 0
-13.092362 4.0030379 -1.1977761 0
-13.109488 3.9602606 -1.1981213 0
-13.158925 3.9270976 -1.2014294 0
-13.135022 3.8720503 -1.198055 0
-13.176427 3.8362858 -1.2006516 0
-13.172222 3.7872005 -1.1991047 0
-13.200029 3.7473259 -1.2004856 0
-13.191264 3.6970904 -1.1985544 0
-13.229639 3.6600497 -1.2009194 0
-13.218853 3.6093969 -1.198835 0
-13.233327 3.5657156 -1.1990566 0
-13.264184 3.5263715 -1.2007746 0
-13.278442 3.4825377 -1.2010015 0
-13.295565 3.4394262 -1.2015004 0
-13.304613 3.3942149 -1.2012829 0
-13.310961 3.348341 -1.2008357 0
-13.314905 3.3019056 -1.200186 0
-13.347855 3.2626107 -1.2021632 0
-13.326386 3.2100515 -1.1992537 0
-13.32894 3.1634223 -1.1985223 0
-13.358421 3.1231453 -1.2002249 0
-13.36077 3.0764863 -1.1995023 0
-13.388375 3.0356102 -1.2010602 0
-13.414023 2.9941747 -1.2024539 0
-13.393537 2.9424932 -1.1997262 0
-13.389991 2.8946877 -1.1985325 0
-13.415003 2.8530486 -1.1999083 0
-13.436311 2.8105266 -1.2009646 0
-13.462647 2.7689557 -1.202482 0
-13.443099 2.7179883 -1.1999153 0
-13.451887 2.6728511 -1.199893 0
-13.449752 2.6255829 -1.1989106 0
-13.480854 2.584764 -1.2009038 0
-13.473451 2.5365396 -1.1994799 0
-13.504823 2.4955912 -1.2015213 0
-13.501834 2.4482527 -1.2005183 0
-13.49302 2.3999555 -1.1990123 0
-13.512026 2.356627 -1.1999923 0
-13.507575 2.309212 -1.1989027 0
-13.507924 2.2626848 -1.1982536 0
-13.531164 2.2199633 -1.1996483 0
-13.562239 2.1783912 -1.2017488 0
-13.546651 2.1293211 -1.1997283 0
-13.588941 2.0893059 -1.2028464 0
-13.569218 2.0397267 -1.2004886 0
-13.562222 1.9921994 -1.199272 0
-13.571187 1.9470553 -1.1994807 0
-13.576988 1.9014517 -1.1994232 0
-13.588374 1.8566149 -1.1998724 0
-13.592906 1.8108299 -1.1997297 0
-13.57507 1.7621518 -1.1976273 0
-13.61945 1.7214997 -1.2010266 0
-13.647645 1.678594 -1.20301 0
-13.617682 1.6285794 -1.1998807 0
-13.623554 1.5829694 -1.1999238 0
-13.6092 1.5350741 -1.1981994 0
-13.628638 1.4910084 -1.199464 0
-13.656099 1.4476951 -1.2014469 0
-13.623161 1.3980302 -1.1981299 0
-13.64773 1.354327 -1.1998845 0
-13.661612 1.3094637 -1.2007122 0
-13.626469 1.2600032 -1.1972455 0
-13.685277 1.2191787 -1.2020466 0
-13.658938 1.1706865 -1.1993817 0
-13.646692 1.123559 -1.1979688 0
-13.653455 1.0780404 -1.1982385 0
-13.694564 1.0350966 -1.2015349 0
-13.699801 0.98930877 -1.2016966 0
-13.677261 0.94159555 -1.1994358 0
-13.678113 0.89558703 -1.1992404 0
-13.692377 0.85042608 -1.2002343 0
-13.688263 0.80410874 -1.1996306 0
-13.692198 0.7582829 -1.1997459 0
-13.709689 0.71315295 -1.2010623 0
-13.686606 0.6659472 -1.1988378 0
-13.704174 0.62075293 -1.2001874 0
-13.687173 0.57400489 -1.1985232 0
-13.695006 0.52834207 -1.1990473 0
-13.694377 0.48234048 -1.1988438 0
-13.71946 0.43717331 -1.2009046 0
-13.686097 0.39018136 -1.1978631 0
-13.718782 0.34508348 -1.2006158 0
-13.687645 0.2983827 -1.1977965 0
-13.730116 0.25325531 -1.201432 0
-13.71839 0.20703079 -1.2003386 0
-13.702394 0.16083944 -1.198885 0
-13.694921 0.11483046 -1.1981906 0
-13.737085 0.069123946 -1.2018527 0
-13.711311 0.023022167 -1.1995841 0
-13.712857 3.6388297e-05 -1.1997178 0
-22.86718 -0.038395457 -1.198418 0
-22.886078 -0.11516097 -1.199422 0
-22.867853 -0.19174452 -1.1984937 0
-22.880537 -0.26857299 -1.199199 0
-22.918585 -0.34587532 -1.2012471 0
-22.900789 -0.42241061 -1.2003819 0
-22.888479 -0.49895555 -1.1998175 0
-22.897421 -0.57596374 -1.2003808 0
-22.878817 -0.65225959 -1.1995134 0
-22.889555 -0.72938025 -1.2001978 0
-22.874359 -0.80567592 -1.199536 0
-22.884354 -0.88285959 -1.2002085 0
-22.906603 -0.96064413 -1.2015376 0
-22.892311 -1.0369445 -1.2009635 0
-22.86705 -1.1126387 -1.1998273 0
-22.860378 -1.189155 -1.1996797 0
-22.870424 -1.266579 -1.200423 0
-22.880472 -1.3440995 -1.2011802 0
-22.863131 -1.4200166 -1.200513 0
-22.834326 -1.4950986 -1.199257 0
-22.863592 -1.5740181 -1.2010645 0
-22.845501 -1.6497505 -1.200398 0
-22.838688 -1.7262506 -1.2003373 0
-22.839577 -1.8033521 -1.200695 0
-22.813097 -1.878247 -1.1996273 0
-22.799355 -1.9540973 -1.1992425 0
-22.827507 -2.0336313 -1.2010751 0
-22.80266 -2.108501 -1.200133 0
-22.79796 -2.1851816 -1.2002645 0
-22.766573 -2.2592318 -1.1990042 0
-22.759123 -2.335577 -1.1990174 0
-22.774546 -2.4143496 -1.2002497 0
-22.767334 -2.4908054 -1.200303 0
-22.771551 -2.568558 -1.2009726 0
-22.736845 -2.6418753 -1.1996026 0
-22.72751 -2.718051 -1.1995841 0
-22.715714 -2.7939224 -1.1994492 0
-22.700912 -2.8693974 -1.1991689 0
-22.713289 -2.9483652 -1.2003381 0
-22.682396 -3.0217204 -1.1992342 0
-22.685032 -3.099515 -1.1999162 0
-22.703127 -3.1795638 -1.2014306 0
-22.680262 -3.2539325 -1.2007911 0
-22.632833 -3.3246112 -1.1988635 0
-22.649649 -3.4046984 -1.2003521 0
-22.621885 -3.4781253 -1.199492 0
-22.621586 -3.5557587 -1.2001016 0
-22.604811 -3.6308255 -1.1998507 0
-22.599195 -3.7076914 -1.2002057 0
-22.577204 -3.7818611 -1.1997044 0
-22.576906 -3.8596756 -1.2003695 0
-22.552258 -3.9333303 -1.1997534 0
-22.530558 -4.0074301 -1.1993071 0
-22.530058 -4.0853171 -1.2000029 0
-22.502953 -4.1583786 -1.199295 0
-22.49169 -4.2343316 -1.1994447 0
-22.495071 -4.3131132 -1.2003895 0
-22.489925 -4.3903537 -1.2008935 0
-22.448704 -4.4604926 -1.1994842 0
-22.46472 -4.5420213 -1.201147 0
-22.441429 -4.6156836 -1.2007223 0
-22.402462 -4.6860123 -1.1994714 0
-22.389692 -4.7617497 -1.1996357 0
-22.377752 -4.8376884 -1.1998583 0
-22.382292 -4.9172778 -1.200979 0
-22.38648 -4.9969368 -1.2020959 0
-22.353249 -5.0682588 -1.2012172 0
-22.330801 -5.1419497 -1.2009306 0
-22.285355 -5.2102265 -1.1994193 0
-22.306818 -5.2941852 -1.2015229 0
-22.264174 -5.3629799 -1.2001878 0
-22.248795 -5.4382639 -1.200335 0
-22.222889 -5.5109577 -1.1999274 0
-22.17738 -5.5786676 -1.1984733 0
-22.17168 -5.656342 -1.1991835 0
-22.17716 -5.7370043 -1.2005136 0
-22.163149 -5.8127303 -1.2008033 0
-22.152193 -5.889308 -1.2012727 0
-22.120449 -5.9603477 -1.2006283 0
-22.079311 -6.028738 -1.1994859 0
-22.070751 -6.1059899 -1.2001263 0
-22.053782 -6.1809711 -1.2003236 0
-22.03183 -6.2545648 -1.2002635 0
-22.02212 -6.3316712 -1.2008842 0
-21.984369 -6.4006977 -1.1999892 0
-21.987045 -6.481523 -1.2013148 0
-21.914194 -6.5399857 -1.1985257 0
-21.916767 -6.6208615 -1.1998737 0
-21.883316 -6.6909041 -1.1992638 0
-21.846504 -6.7598262 -1.1984818 0
-21.839298 -6.837914 -1.1993374 0
-21.849688 -6.9216914 -1.2011757 0
-21.784824 -6.9816003 -1.19889 0
-21.75643 -7.0530243 -1.198622 0
-21.775833 -7.1400857 -1.2010031 0
-21.734406 -7.2072973 -1.2000443 0
-21.699858 -7.2766871 -1.1994771 0
-21.666639 -7.3464522 -1.1989957 0
-21.641953 -7.4190779 -1.1989993 0
-21.623985 -7.4940338 -1.1993892 0
-21.614515 -7.5720201 -1.2002654 0
-21.593826 -7.6461535 -1.2005333 0
-21.575537 -7.7211828 -1.200949 0
-21.531406 -7.7869244 -1.1999391 0
-21.509291 -7.8605747 -1.2001686 0
-21.503862 -7.9404197 -1.2013446 0
-21.431261 -7.9953651 -1.1987795 0
-21.39978 -8.0654583 -1.1985244 0
-21.424322 -8.156848 -1.2014239 0
-21.356834 -8.2132435 -1.1991768 0
-21.322412 -8.282176 -1.1987965 0
-21.317085 -8.3624697 -1.2000666 0
-21.292339 -8.4352465 -1.200259 0
-21.244535 -8.498826 -1.1991637 0
-21.243465 -8.5811329 -1.2007205 0
-21.198702 -8.6458368 -1.1998222 0
-21.16478 -8.71488 -1.1995492 0
-21.154034 -8.7935219 -1.2006044 0
-21.124718 -8.8645182 -1.2006208 0
-21.087048 -8.9319782 -1.200175 0
-21.062111 -9.0048227 -1.2004675 0
-21.031008 -9.0750465 -1.200422 0
-20.999685 -9.1451702 -1.2003777 0
-20.959654 -9.2114611 -1.1998481 0
-20.932014 -9.2831745 -1.2000409 0
-20.931084 -9.366868 -1.2017813 0
-20.856361 -9.4174862 -1.1992972 0
-20.84564 -9.4969149 -1.2005049 0
-20.81583 -9.5677414 -1.2006289 0
-20.767359 -9.6299314 -1.1996887 0
-20.73703 -9.7004776 -1.1998087 0
-20.704405 -9.7699575 -1.1998096 0
-20.719646 -9.8622217 -1.2026021 0
-20.635115 -9.9069834 -1.1996171 0
-20.610426 -9.980299 -1.2001204 0
-20.556688 -10.0395 -1.1989446 0
-20.542316 -10.117923 -1.2000781 0
-20.492714 -10.17901 -1.1991674 0
-20.50238 -10.269656 -1.2017412 0
-20.457817 -10.33328 -1.2011532 0
-20.394238 -10.387135 -1.1994581 0
-20.389807 -10.471123 -1.2012557 0
-20.340979 -10.532383 -1.2004528 0
-20.299606 -10.597419 -1.2001011 0
-20.256638 -10.661566 -1.1996676 0
-20.230312 -10.734481 -1.2002332 0
-20.192057 -10.801099 -1.2001053 0
-20.154896 -10.868289 -1.2000557 0
-20.110689 -10.931643 -1.1995991 0
-20.060642 -10.991731 -1.1988053 0
-20.033865 -11.064556 -1.1994154 0
-20.00848 -11.138247 -1.2001247 0
-19.964968 -11.201871 -1.1997608 0
-19.942045 -11.277086 -1.2006488 0
-19.913542 -11.349254 -1.2012169 0
-19.858467 -11.406242 -1.2001948 0
-19.833771 -11.480665 -1.2010218 0
-19.771297 -11.533176 -1.1995736 0
-19.741722 -11.604812 -1.2001332 0
-19.685265 -11.660607 -1.199071 0
-19.639423 -11.722582 -1.1986661 0
-19.637205 -11.810735 -1.2009408 0
-19.596497 -11.875903 -1.2008796 0
-19.55197 -11.938731 -1.2005972 0
-19.524353 -12.011923 -1.2013677 0
-19.451462 -12.057165 -1.1993632 0
-19.41116 -12.12246 -1.1993777 0
-19.36537 -12.184305 -1.1990658 0
-19.346054 -12.262885 -1.2004088 0
-19.310944 -12.331584 -1.2007891 0
-19.231672 -12.371932 -1.1984323 0
-19.189835 -12.436181 -1.1984168 0
-19.187971 -12.526526 -1.2009166 0
-19.128769 -12.579548 -1.1998444 0
-19.081413 -12.640251 -1.1995255 0
-19.051796 -12.712746 -1.2003363 0
-19.003719 -12.772958 -1.1999987 0
-18.968651 -12.841926 -1.2004964 0
-18.891588 -12.882336 -1.1983463 0
-18.872267 -12.962071 -1.1998706 0
-18.820442 -13.01956 -1.1993443 0
-18.793839 -13.094541 -1.20044 0
-18.749369 -13.157156 -1.2004105 0
-18.689701 -13.209026 -1.199419 0
-18.658381 -13.280919 -1.2002598 0
-18.602627 -13.335431 -1.1995429 0
-18.565018 -13.40293 -1.2000087 0
-18.521904 -13.466502 -1.2001337 0
-18.484648 -13.534383 -1.2006531 0
-18.41448 -13.57808 -1.1990458 0
-18.376858 -13.645689 -1.1995684 0
-18.3421 -13.715524 -1.2002945 0
-18.29764 -13.778171 -1.2004014 0
-18.235786 -13.827647 -1.1993784 0
-18.204712 -13.900461 -1.2003931 0
-18.15276 -13.957388 -1.2000464 0
-18.099209 -14.013022 -1.1996055 0
-18.050179 -14.072109 -1.1994761 0
-18.018803 -14.145037 -1.200536 0
-17.968763 -14.203385 -1.2003682 0
-17.895594 -14.243297 -1.1986637 0
-17.880859 -14.329761 -1.2008882 0
-17.814373 -14.374832 -1.199653 0
-17.797228 -14.459788 -1.2017565 0
-17.704784 -14.483496 -1.1987866 0
-17.668341 -14.552837 -1.1996161 0
-17.627932 -14.61903 -1.2001935 0
-17.571426 -14.67188 -1.199689 0
-17.527914 -14.735568 -1.2000846 0
-17.462215 -14.780544 -1.1989726 0
-17.443647 -14.865502 -1.2011132 0
-17.380171 -14.912289 -1.2001784 0
-17.335495 -14.975159 -1.2005537 0
-17.254795 -15.006763 -1.1984427 0
-17.256002 -15.109731 -1.2020385 0
-17.177601 -15.14313 -1.200107 0
-17.13604 -15.208899 -1.2007593 0
-17.090107 -15.270876 -1.2011217 0
-17.027662 -15.318062 -1.2003359 0
-16.966101 -15.365911 -1.1996211 0
-16.914591 -15.422804 -1.1996285 0
-16.850641 -15.46828 -1.1987644 0
-16.832611 -15.556045 -1.2011856 0
-16.764866 -15.597977 -1.2000763 0
-16.728886 -15.669471 -1.2012548 0
-16.6518 -15.702411 -1.1994933 0
-16.588339 -15.747976 -1.1987187 0
-16.566483 -15.833168 -1.2009686 0
-16.491224 -15.86738 -1.1993629 0
-16.441132 -15.925683 -1.1995964 0
-16.406981 -15.999574 -1.2010119 0
-16.34399 -16.045408 -1.2003322 0
-16.289543 -16.099566 -1.2002912 0
-16.234499 -16.15312 -1.200219 0
-16.179232 -16.206442 -1.2001436 0
-16.132124 -16.267979 -1.2006884 0
-16.084688 -16.329283 -1.201226 0
-16.010529 -16.363375 -1.1997782 0
-15.957005 -16.418432 -1.1998856 0
-15.906735 -16.476885 -1.200253 0
-15.847056 -16.525593 -1.199924 0
-15.792816 -16.57995 -1.2000194 0
-15.742516 -16.638491 -1.2004294 0
-15.671549 -16.675119 -1.1992745 0
-15.636316 -16.749813 -1.2008692 0
-15.580527 -16.802639 -1.2009045 0
-15.529675 -16.860832 -1.2013354 0
-15.46128 -16.899933 -1.2004211 0
-15.398469 -16.945005 -1.1999488 0
-15.326409 -16.979744 -1.198763 0
-15.291992 -17.05624 -1.2005372 0
-15.21882 -17.089561 -1.1992843 0
-15.178004 -17.159222 -1.2005948 0
-15.112323 -17.200834 -1.1999544 0
-15.04685 -17.242565 -1.1993394 0
-14.999776 -17.305403 -1.2002053 0
-14.933303 -17.345877 -1.1995332 0
-14.875891 -17.396818 -1.1996 0
-14.813493 -17.441902 -1.1992773 0
-14.788617 -17.531406 -1.2020154 0
-14.70715 -17.553913 -1.2001709 0
-14.64509 -17.599371 -1.1999151 0
-14.591048 -17.654482 -1.2003303 0
-14.520104 -17.689087 -1.1993663 0
-14.476424 -17.756941 -1.2006692 0
-14.413119 -17.800823 -1.2003621 0
-14.347421 -17.841667 -1.1998658 0
-14.281065 -17.881588 -1.1993237 0
-14.217105 -17.924419 -1.1989925 0
-14.169675 -17.988169 -1.2000722 0
-14.109278 -18.035566 -1.2000716 0
-14.044834 -18.077759 -1.1997389 0
-13.987581 -18.129202 -1.2000338 0
-13.910217 -18.154461 -1.198612 0
-13.873095 -18.232307 -1.2006738 0
-13.813066 -18.280279 -1.2007763 0
-13.731525 -18.299604 -1.1990148 0
-13.67847 -18.356783 -1.1997496 0
-13.612293 -18.396389 -1.1993484 0
-13.559031 -18.453485 -1.2001003 0
-13.510056 -18.516621 -1.2012537 0
-13.439327 -18.549984 -1.2004881 0
-13.358963 -18.569788 -1.1988643 0
-13.300105 -18.619343 -1.199178 0
-13.235154 -18.660378 -1.198956 0
-13.194062 -18.735245 -1.2009172 0
-13.121574 -18.76565 -1.2000395 0
-13.051916 -18.799936 -1.1994269 0
-12.99536 -18.853094 -1.2000316 0
-12.931416 -18.895592 -1.1999704 0
-12.846378 -18.907036 -1.1979551 0
-12.792194 -18.963758 -1.1988248 0
-12.742266 -19.027037 -1.2001175 0
-12.689346 -19.086117 -1.2011536 0
-12.610006 -19.105408 -1.1997002 0
-12.54662 -19.148714 -1.1997712 0
-12.481271 -19.189016 -1.1996676 0
-12.416285 -19.229858 -1.1996117 0
-12.355606 -19.277411 -1.1999871 0
-12.286421 -19.311684 -1.1995496 0
-12.219922 -19.350105 -1.1993845 0
-12.166299 -19.409031 -1.2005017 0
-12.098475 -19.445406 -1.2002358 0
-12.035642 -19.489798 -1.2004783 0
-11.961037 -19.515045 -1.1995565 0
-11.913766 -19.585001 -1.2013944 0
-11.824698 -19.586182 -1.1990283 0
-11.776008 -19.654165 -1.2007662 0
-11.689184 -19.658457 -1.1986272 0
-11.631677 -19.711889 -1.1995006 0
-11.573482 -19.764372 -1.2003261 0
-11.506818 -19.802492 -1.2002915 0
-11.442086 -19.843956 -1.2004727 0
-11.374693 -19.880817 -1.2003887 0
-11.306959 -19.917057 -1.200281 0
-11.245585 -19.964561 -1.2008649 0
-11.170548 -19.987774 -1.2000016 0
-11.101403 -20.021387 -1.1997783 0
-11.039676 -20.068426 -1.2003722 0
-10.974892 -20.110025 -1.2006527 0
-10.902826 -20.138252 -1.2001487 0
-10.835855 -20.175829 -1.2002163 0
-10.754862 -20.187107 -1.1987354 0
-10.689348 -20.227272 -1.1989855 0
-10.630075 -20.279415 -1.1999569 0
-10.564443 -20.319597 -1.2002319 0
-10.490721 -20.344172 -1.199599 0
-10.426001 -20.386169 -1.2000074 0
-10.364548 -20.434727 -1.2008135 0
-10.2998 -20.476965 -1.2012595 0
-10.207697 -20.464491 -1.1985133 0
-10.160835 -20.542692 -1.2010912 0
-10.074738 -20.541647 -1.1990484 0
-10.013391 -20.590902 -1.199957 0
-9.9470959 -20.630163 -1.2002946 0
-9.8815937 -20.671188 -1.2007471 0
-9.8067007 -20.692532 -1.2000703 0
-9.7445164 -20.740725 -1.2009636 0
-9.6714087 -20.765736 -1.2005275 0
-9.5900059 -20.772648 -1.1990616 0
-9.5330086 -20.832445 -1.2006615 0
-9.4631319 -20.864344 -1.2006645 0
-9.3863373 -20.880856 -1.199797 0
-9.3168926 -20.913595 -1.1998765 0
-9.2403088 -20.930193 -1.1990446 0
-9.179122 -20.981718 -1.2002265 0
-9.1080351 -21.010792 -1.2001359 0
-9.0290813 -21.021521 -1.1990129 0
-8.9604988 -21.056257 -1.1992738 0
-8.8942652 -21.096651 -1.1998693 0
-8.8247213 -21.12932 -1.2000378 0
-8.7551069 -21.161879 -1.200213 0
-8.6853476 -21.194143 -1.2003846 0
-8.611124 -21.215469 -1.1999506 0
-8.5292654 -21.217657 -1.1984501 0
-8.4669323 -21.268375 -1.1997045 0
-8.3987989 -21.304819 -1.2001652 0
-8.3326426 -21.346493 -1.2009321 0
-8.2482386 -21.341227 -1.1990733 0
-8.1808472 -21.379761 -1.1996905 0
-8.1084671 -21.405348 -1.199594 0
-8.040822 -21.443531 -1.2002163 0
-7.9725609 -21.480284 -1.2007705 0
-7.8947415 -21.491228 -1.1998959 0
-7.8236856 -21.520449 -1.200056 0
-7.746212 -21.531897 -1.1992394 0
-7.6754093 -21.561773 -1.1994632 0
-7.5993366 -21.576775 -1.1988738 0
-7.5347047 -21.624386 -1.2001086 0
-7.4585123 -21.638943 -1.199522 0
-7.3887653 -21.672176 -1.1999843 0
-7.3096666 -21.677866 -1.1989355 0
-7.2420611 -21.717598 -1.1997833 0
-7.1645236 -21.727558 -1.1989998 0
-7.0976782 -21.769993 -1.2000215 0
-7.0286493 -21.806084 -1.2007052 0
-6.954227 -21.825537 -1.2004857 0
-6.8783841 -21.840389 -1.2000273 0
-6.8059421 -21.865974 -1.2001725 0
-6.7310758 -21.883743 -1.1999024 0
-6.6538439 -21.893612 -1.1992136 0
-6.5873909 -21.939077 -1.2004874 0
-6.5140104 -21.961761 -1.2005268 0
-6.4405761 -21.984283 -1.2005708 0
-6.3602867 -21.983135 -1.1993368 0
-6.2938142 -22.029778 -1.2007235 0
-6.2126007 -22.024818 -1.1993111 0
-6.1482954 -22.079908 -1.2011817 0
-6.0668035 -22.073374 -1.1997129 0
-5.9975052 -22.11108 -1.2006625 0
-5.9191098 -22.115271 -1.1998057 0
-5.8458872 -22.138622 -1.2000024 0
-5.7680378 -22.144316 -1.1992561 0
-5.6970544 -22.176355 -1.1999501 0
-5.6278701 -22.215862 -1.2010599 0
-5.551229 -22.226103 -1.2006006 0
-5.4692516 -22.214426 -1.1989726 0
-5.4008212 -22.257702 -1.2003242 0
-5.3208475 -22.253445 -1.1991259 0
-5.2492032 -22.283884 -1.1998109 0
-5.1769047 -22.311893 -1.2003777 0
-5.1033573 -22.334768 -1.2006811 0
-5.0284357 -22.351715 -1.2006791 0
-4.9559422 -22.379629 -1.201279 0
-4.8729658 -22.359808 -1.1993314 0
-4.8001199 -22.386044 -1.1998687 0
-4.730895 -22.429789 -1.2013564 0
-4.6480079 -22.408604 -1.1993803 0
-4.5723901 -22.421808 -1.1992598 0
-4.5062509 -22.482225 -1.2016764 0
-4.4247398 -22.466202 -1.2000202 0
-4.3497977 -22.483015 -1.2001326 0
-4.2777963 -22.515392 -1.2010885 0
-4.1978912 -22.506065 -1.1998334 0
-4.1204534 -22.509331 -1.1992643 0
-4.0454302 -22.525635 -1.1994034 0
-3.9742076 -22.563622 -1.2007099 0
-3.8997557 -22.583897 -1.2010863 0
-3.8179853 -22.561218 -1.1991926 0
-3.7452357 -22.591478 -1.2001269 0
-3.6700127 -22.607254 -1.2003045 0
-3.5960846 -22.631329 -1.2009357 0
-3.5184743 -22.632248 -1.2003518 0
-3.4414368 -22.636446 -1.1999557 0
-3.3629694 -22.63068 -1.1990457 0
-3.2866919 -22.639196 -1.1989063 0
-3.216651 -22.691586 -1.2011029 0
-3.1356969 -22.667145 -1.1992459 0
-3.0607471 -22.685436 -1.1996639 0
-2.9836586 -22.687881 -1.1992574 0
-2.9098566 -22.715578 -1.200199 0
-2.8335736 -22.724361 -1.2001543 0
-2.7575407 -22.735163 -1.2002299 0
-2.6833527 -22.761707 -1.2011493 0
-2.6055849 -22.758022 -1.2004873 0
-2.5284328 -22.759125 -1.2000915 0
-2.4499304 -22.747223 -1.199024 0
-2.3766439 -22.784014 -1.2005365 0
-2.2994695 -22.78422 -1.2001344 0
-2.2196894 -22.757189 -1.1983118 0
-2.1468477 -22.801373 -1.2002525 0
-2.0700893 -22.805164 -1.20008 0
-1.9911814 -22.784113 -1.1986142 0
-1.9183551 -22.833223 -1.2008526 0
-1.840433 -22.822714 -1.1999686 0
-1.7640123 -22.830177 -1.2000434 0
-1.687825 -22.840942 -1.200305 0
-1.6105573 -22.836876 -1.1998008 0
-1.5343095 -22.847046 -1.2000581 0
-1.4568499 -22.838749 -1.1993591 0
-1.3798741 -22.836992 -1.199017 0
-1.3038495 -22.851151 -1.1995242 0
-1.2282752 -22.874924 -1.2005491 0
-1.152243 -22.892225 -1.2012476 0
-1.0740907 -22.866316 -1.1996924 0
-0.99824941 -22.888845 -1.2006921 0
-0.92032272 -22.862772 -1.1991557 0
-0.84426862 -22.882145 -1.2000166 0
-0.76751578 -22.883995 -1.1999719 0
-0.69098258 -22.89296 -1.2003138 0
-0.61332732 -22.861765 -1.1985636 0
-0.53700298 -22.877764 -1.1993012 0
-0.46030045 -22.879698 -1.1993151 0
-0.38386169 -22.897524 -1.2001753 0
-0.30696818 -22.889715 -1.1997052 0
-0.23024893 -22.893337 -1.1998478 0
-0.15358379 -22.907881 -1.2005764 0
-0.076766625 -22.905132 -1.200412 0
3.0416786e-05 -22.925009 -1.201447 0
0.076828659 -22.905506 -1.2004317 0
0.15357792 -22.897942 -1.2000555 0
0.23060417 -22.922609 -1.201382 0
0.30726519 -22.90733 -1.2006285 0
0.38375056 -22.887274 -1.199638 0
0.46010974 -22.867201 -1.19866 0
0.53741533 -22.89274 -1.2000865 0
0.61420488 -22.89221 -1.2001599 0
0.69063556 -22.87945 -1.1996056 0
0.76778817 -22.890303 -1.2003028 0
0.84369558 -22.864965 -1.1991158 0
0.92030925 -22.860928 -1.1990591 0
0.99749959 -22.870258 -1.1997172 0
1.0741118 -22.865471 -1.1996481 0
1.1518873 -22.883947 -1.2008135 0
1.2276907 -22.862906 -1.1999186 0
1.3049449 -22.869282 -1.2004761 0
1.3819209 -22.869858 -1.2007428 0
1.4577677 -22.852184 -1.2000648 0
1.5337652 -22.838034 -1.199585 0
1.6113023 -22.846575 -1.2003106 0
1.6848664 -22.800081 -1.1981579 0
1.7653486 -22.846682 -1.2009112 0
1.8413903 -22.833828 -1.2005532 0
1.9151934 -22.794865 -1.1988356 0
1.9932466 -22.807049 -1.199821 0
2.0671825 -22.772469 -1.1983597 0
2.1469686 -22.80201 -1.2002864 0
2.2204235 -22.76409 -1.1986755 0
2.2979975 -22.76903 -1.1993346 0
2.3748088 -22.765837 -1.199579 0
2.4510314 -22.756878 -1.1995332 0
2.5286431 -22.760466 -1.2001625 0
2.6051404 -22.753607 -1.2002547 0
2.6821861 -22.751291 -1.2006001 0
2.7563252 -22.724638 -1.1996746 0
2.8340964 -22.728062 -1.2003503 0
2.908242 -22.702497 -1.1995083 0
2.9840822 -22.690636 -1.1994035 0
3.0633276 -22.704107 -1.2006518 0
3.1370866 -22.676748 -1.1997544 0
3.2165213 -22.690239 -1.2010319 0
3.2881043 -22.648502 -1.1993996 0
3.3661838 -22.651899 -1.2001704 0
3.44117 -22.634287 -1.1998417 0
3.5150642 -22.609919 -1.199168 0
3.5931859 -22.6127 -1.1999477 0
3.668855 -22.599743 -1.1999062 0
3.7462749 -22.597376 -1.2004406 0
3.823463 -22.593224 -1.2008944 0
3.896138 -22.562588 -1.1999536 0
3.968188 -22.529097 -1.1988732 0
4.0529504 -22.567163 -1.2016153 0
4.1224866 -22.5201 -1.1998385 0
4.1998858 -22.516428 -1.2003864 0
4.2723813 -22.486567 -1.1995515 0
4.3525691 -22.497021 -1.2008808 0
4.4208374 -22.446072 -1.1989456 0
4.4996357 -22.448914 -1.1998965 0
4.5740366 -22.429577 -1.199676 0
4.6502838 -22.419277 -1.1999522 0
4.7267075 -22.409639 -1.2002779 0
