# .PCD v0.7 - Point Cloud Data file format
VERSION 0.7
FIELDS x y z intensity
SIZE 4 4 4 4
TYPE F F F F
COUNT 1 1 1 1
WIDTH 1415
HEIGHT 1
VIEWPOINT 0 0 0 1 0 0 0
POINTS 1415
DATA ascii
15.782454 -16.568983 -1.1992286 0
15.842903 -16.521173 -1.1996062 0
15.915086 -16.485447 -1.2008798 0
15.953568 -16.41481 -1.1996239 0
16.020657 -16.373638 -1.2005339 0
16.061335 -16.305489 -1.1994787 0
16.111694 -16.24729 -1.1991646 0
16.190985 -16.218128 -1.2010121 0
16.235159 -16.15369 -1.2002646 0
16.290375 -16.100302 -1.2003492 0
16.337875 -16.03932 -1.19988 0
16.38731 -15.980308 -1.1995689 0
16.458282 -15.942211 -1.2008446 0
16.50382 -15.879416 -1.2002759 0
16.532825 -15.800917 -1.1985255 0
16.602444 -15.761283 -1.1997348 0
16.661585 -15.711555 -1.2001952 0
16.703272 -15.645396 -1.1994126 0
16.766016 -15.598966 -1.2001559 0
16.817804 -15.542277 -1.2001259 0
16.851591 -15.46907 -1.1988293 0
16.929724 -15.436521 -1.2006989 0
16.971338 -15.370572 -1.1999885 0
17.021666 -15.312584 -1.1999102 0
17.070154 -15.252966 -1.1997164 0
17.135706 -15.208522 -1.2007329 0
17.18895 -15.153055 -1.2008972 0
17.216209 -15.074806 -1.1992637 0
17.291336 -15.038464 -1.2009779 0
17.320786 -14.962373 -1.1995323 0
17.381105 -14.913011 -1.2002401 0
17.420654 -14.845827 -1.1995273 0
17.473282 -14.789832 -1.1997297 0
17.503693 -14.715125 -1.1984235 0
17.576283 -14.675854 -1.2000178 0
17.638121 -14.6274 -1.2008847 0
17.654991 -14.541763 -1.198707 0
17.718681 -14.494786 -1.199725 0
17.755333 -14.425672 -1.1989249 0
17.821976 -14.380889 -1.2001624 0
17.885731 -14.333588 -1.2012128 0
17.914539 -14.258298 -1.1999301 0
17.944555 -14.184172 -1.1987485 0
18.001455 -14.131341 -1.1993777 0
18.057892 -14.078047 -1.1999863 0
18.1078 -14.019596 -1.2001724 0
18.150389 -13.955488 -1.1998872 0
18.198238 -13.895442 -1.1999638 0
18.253973 -13.841361 -1.200572 0
18.299353 -13.779385 -1.2005113 0
18.342525 -13.715766 -1.20032 0
18.385448 -13.651993 -1.2001268 0
18.421757 -13.58337 -1.1995173 0
18.455648 -13.513074 -1.1987672 0
18.527592 -13.470561 -1.2004998 0
18.549282 -13.391496 -1.1989893 0
18.608953 -13.339892 -1.1999485 0
18.672611 -13.290974 -1.2011731 0
18.690392 -13.209439 -1.199461 0
18.753349 -13.159874 -1.2006631 0
18.803652 -13.101304 -1.2010646 0
18.825207 -13.022782 -1.1996456 0
18.878185 -12.966063 -1.2002447 0
18.926743 -12.906235 -1.2005739 0
18.966644 -12.840493 -1.2003673 0
19.003633 -12.772826 -1.1999912 0
19.078312 -12.730366 -1.2020049 0
19.081272 -12.640086 -1.1995145 0
19.136665 -12.584667 -1.2003375 0
19.177565 -12.51966 -1.2002633 0
19.211903 -12.450411 -1.199793 0
19.242247 -12.378662 -1.1990893 0
19.302139 -12.32589 -1.2002395 0
19.342876 -12.260799 -1.2002096 0
19.377388 -12.191794 -1.1998079 0
19.42416 -12.130508 -1.200179 0
19.461693 -12.063436 -1.1999922 0
19.528894 -12.014645 -1.2016451 0
19.540224 -11.931489 -1.199874 0
19.589815 -11.871782 -1.2004682 0
19.624258 -11.802877 -1.2001472 0
19.668114 -11.739636 -1.2004153 0
19.692699 -11.66494 -1.199522 0
19.71983 -11.591871 -1.1988004 0
19.786697 -11.542089 -1.2005062 0
19.830683 -11.478807 -1.200833 0
19.866564 -11.410823 -1.2006823 0
19.910999 -11.347733 -1.2010617 0
19.935081 -11.273079 -1.2002276 0
19.987291 -11.214326 -1.2011005 0
19.996914 -11.131739 -1.1994293 0
20.046057 -11.07122 -1.2001436 0
20.097481 -11.011847 -1.2010051 0
20.101236 -10.926435 -1.1990336 0
20.166838 -10.87466 -1.200765 0
20.174122 -10.791436 -1.1990377 0
20.228497 -10.733449 -1.2001238 0
20.242947 -10.654291 -1.198855 0
20.28701 -10.590775 -1.1993549 0
20.335894 -10.52968 -1.2001508 0
20.363661 -10.457627 -1.1997136 0
20.403111 -10.391585 -1.1999784 0
20.454199 -10.331384 -1.2009391 0
20.488407 -10.262589 -1.2009206 0
20.502405 -10.183757 -1.199733 0
20.537966 -10.115712 -1.1998224 0
20.587038 -10.054254 -1.200713 0
20.597948 -9.9741888 -1.1993923 0
20.64398 -9.9111719 -1.2001309 0
20.672035 -9.8394928 -1.1998372 0
20.700472 -9.7680349 -1.1995802 0
20.73135 -9.697753 -1.1994785 0
20.782204 -9.6367483 -1.2005446 0
20.813696 -9.5666924 -1.2005042 0
20.847792 -9.4978294 -1.2006274 0
20.838827 -9.409502 -1.1982874 0
5.1499424 -2.3046339 -0.29568925 0
5.1268678 -2.2737069 -0.29392508 0
5.139523 -2.2587287 -0.29421476 0
5.1531811 -2.2441468 -0.29456425 0
5.1272635 -2.2124386 -0.29265708 0
5.145051 -2.199681 -0.29324976 0
5.1608672 -2.1860061 -0.29373184 0
5.1553974 -2.1633317 -0.29300606 0
5.1314573 -2.13308 -0.29123732 0
5.1176453 -2.1072428 -0.29005077 0
5.1435924 -2.0977852 -0.2911211 0
5.1407924 -2.0765674 -0.29056692 0
5.2261248 -2.0906827 -0.29499221 0
5.2710071 -2.0881641 -0.29712877 0
5.2742739 -2.0690262 -0.29692021 0
5.3530374 -2.0792415 -0.30096009 0
5.4139829 -2.0820506 -0.30399242 0
5.4590688 -2.0784061 -0.30613098 0
21.427805 -8.0759563 -1.2000928 0
21.469282 -8.0094843 -1.200905 0
21.479752 -7.9314508 -1.1999964 0
21.511827 -7.8614373 -1.200309 0
21.539305 -7.7897167 -1.2003782 0
21.551109 -7.7123766 -1.1995882 0
21.5926 -7.6456547 -1.200464 0
21.616201 -7.5725465 -1.2003579 0
21.645723 -7.501503 -1.2005938 0
21.646664 -7.420629 -1.1992593 0
21.708954 -7.3607354 -1.2013363 0
21.713118 -7.2810698 -1.200209 0
21.744606 -7.2106156 -1.2006063 0
21.767971 -7.1374435 -1.2005684 0
21.768612 -7.05691 -1.1992922 0
21.794075 -6.9845009 -1.199398 0
21.842726 -6.9194226 -1.200792 0
21.855698 -6.8429847 -1.2002369 0
21.875004 -6.7685809 -1.2000442 0
21.860233 -6.6837835 -1.1979978 0
21.931875 -6.6253619 -1.2006998 0
21.960953 -6.5538769 -1.201082 0
21.96767 -6.4757481 -1.2002552 0
21.966623 -6.3954678 -1.1990197 0
21.989702 -6.322288 -1.1991156 0
22.022764 -6.2519283 -1.1997687 0
22.034554 -6.175519 -1.1992762 0
22.064817 -6.1042852 -1.1998026 0
22.082047 -6.0294218 -1.1996336 0
1.9330477 -0.52085358 -0.10491966 0
1.9298358 -0.51305419 -0.10465138 0
1.9172274 -0.50282592 -0.10387564 0
1.9573916 -0.50635159 -0.10595917 0
1.9215516 -0.49021244 -0.10392949 0
1.9020234 -0.47844413 -0.10278594 0
1.9151579 -0.47492629 -0.1034091 0
1.9176512 -0.46872532 -0.10345829 0
1.9155639 -0.46141446 -0.10326163 0
1.9183296 -0.45528111 -0.10332786 0
1.9428785 -0.45423177 -0.10456753 0
1.9227471 -0.44273147 -0.10340356 0
1.9443284 -0.44084144 -0.10448411 0
1.919803 -0.42851821 -0.10308838 0
1.9511775 -0.42865855 -0.10469534 0
1.9305626 -0.41734937 -0.10351354 0
1.9340545 -0.41132152 -0.10362624 0
1.9378 -0.40533197 -0.10375352 0
1.939358 -0.39887577 -0.10376475 0
1.9606707 -0.39641207 -0.10483338 0
1.9416316 -0.38579124 -0.10374565 0
1.9424938 -0.37919709 -0.1037232 0
1.9715813 -0.37801754 -0.10520812 0
1.9542149 -0.36789918 -0.104215 0
1.9360974 -0.35777113 -0.10318427 0
1.9641241 -0.35614416 -0.10461373 0
1.9548938 -0.34770465 -0.10405943 0
1.9667833 -0.34302053 -0.1046305 0
1.9751799 -0.33766505 -0.10501637 0
1.9602295 -0.3283487 -0.10416237 0
1.9690208 -0.32303807 -0.10457138 0
1.9528251 -0.31366098 -0.10365482 0
1.9844744 -0.31192288 -0.10527864 0
1.9710252 -0.30304068 -0.10451066 0
1.962612 -0.2950148 -0.10401153 0
1.989179 -0.29219165 -0.10536698 0
2.0046253 -0.28759775 -0.10613349 0
1.9658718 -0.27531421 -0.10403226 0
1.9776698 -0.27020884 -0.10460807 0
1.9645343 -0.26170748 -0.10386627 0
1.9941033 -0.25884506 -0.10538313 0
1.9906989 -0.25161916 -0.10515805 0
1.9720697 -0.24254967 -0.10413042 0
1.9881674 -0.23776554 -0.10493773 0
1.9758201 -0.22957228 -0.10424481 0
1.9847138 -0.22386403 -0.10467386 0
1.9908191 -0.21779543 -0.10495675 0
1.9944721 -0.21143039 -0.10511138 0
2.0158761 -0.20686695 -0.10620224 0
2.0235317 -0.20079893 -0.1065695 0
1.9784465 -0.18962856 -0.10416101 0
1.9780358 -0.1828984 -0.10410652 0
2.0130076 -0.17932718 -0.10591488 0
2.001869 -0.17157173 -0.10529797 0
2.0134537 -0.16576621 -0.10587749 0
2.0189049 -0.15940195 -0.10613544 0
2.0082746 -0.15178905 -0.10554925 0
1.998113 -0.14428513 -0.10498917 0
2.0050726 -0.1380316 -0.10532995 0
2.0217137 -0.13236818 -0.10618022 0
1.9847037 -0.12326358 -0.10421417 0
1.9895494 -0.11686958 -0.10444745 0
2.0163128 -0.11165936 -0.10583223 0
2.0315642 -0.10567284 -0.10661355 0
1.9968748 -0.097156331 -0.10477541 0
1.9834539 -0.089838505 -0.10405483 0
2.0233717 -0.084849633 -0.10613345 0
2.0210817 -0.077966295 -0.10599902 0
2.0215838 -0.071198434 -0.10601225 0
2.0126543 -0.064128287 -0.10553212 0
2.0379057 -0.058093898 -0.10684534 0
2.022048 -0.050857402 -0.10600439 0
2.0157902 -0.043937709 -0.10566803 0
2.0313089 -0.037462592 -0.10647433 0
2.0671628 -0.031191055 -0.10834758 0
2.0458477 -0.02400884 -0.10722555 0
2.053277 -0.017211061 -0.10761131 0
2.0288911 -0.010203837 -0.10633086 0
2.0583963 -0.0034507168 -0.10787597 0
2.0341127 0.0034100073 -0.10660332 0
2.0344265 0.010231677 -0.10662096 0
2.0468946 0.01715756 -0.1072768 0
2.0385194 0.02392284 -0.10684147 0
2.0216804 0.03050478 -0.10596368 0
2.0278134 0.037398126 -0.10629112 0
2.0752912 0.045234635 -0.10878707 0
2.0558531 0.051707651 -0.10777661 0
2.0712724 0.059045073 -0.10859472 0
2.0668941 0.065856501 -0.10837614 0
2.06516 0.072733149 -0.10829739 0
2.0559011 0.079309508 -0.10782519 0
2.0580664 0.086304553 -0.10795332 0
2.0894866 0.094641142 -0.10961746 0
2.0554018 0.10000391 -0.1078463 0
2.079114 0.10814616 -0.10910888 0
2.0788054 0.11512008 -0.10911234 0
2.0620806 0.12113018 -0.10825519 0
2.0630779 0.12813115 -0.1083295 0
2.0650735 0.13520709 -0.10845747 0
2.0346196 0.14006564 -0.1068821 0
2.0857673 0.15061471 -0.10959489 0
2.1023526 0.15889964 -0.11049372 0
2.0855272 0.16466209 -0.10963783 0
2.0911248 0.1721608 -0.10996182 0
2.0731933 0.17768463 -0.10904961 0
2.0676813 0.18419774 -0.10879155 0
2.0832961 0.19263126 -0.1096465 0
2.0991201 0.20119479 -0.11051422 0
2.0809474 0.20649639 -0.10959329 0
2.0908809 0.21456388 -0.11015372 0
2.0875115 0.22129332 -0.11001468 0
2.0915823 0.22881891 -0.11026902 0
2.1005497 0.23692963 -0.11078305 0
2.1100099 0.24516392 -0.11132471 0
2.1026044 0.2514511 -0.11097785 0
2.1125228 0.25982437 -0.11154671 0
2.1109531 0.26681897 -0.11151043 0
2.1324821 0.27680734 -0.11269608 0
2.1225851 0.28276238 -0.11222252 0
22.683651 3.0992651 -1.1998428 0
22.676653 3.1757948 -1.2000291 0
22.657232 3.2505672 -1.1995714 0
22.645617 3.3264275 -1.1995401 0
22.629072 3.4015441 -1.1992612 0
22.63578 3.4802003 -1.2002283 0
22.589647 3.5506771 -1.1984067 0
22.604933 3.6307836 -1.1998566 0
22.587128 3.7056501 -1.1995643 0
22.578949 3.7820921 -1.1997967 0
22.582333 3.8605418 -1.2006575 0
22.576738 3.9375384 -1.2010553 0
22.558573 4.012351 -1.2007977 0
22.531513 4.0855193 -1.2000798 0
22.503767 4.1584673 -1.1993378 0
22.528004 4.2411065 -1.2013806 0
22.483938 4.3109169 -1.1997948 0
22.493174 4.3909259 -1.2010664 0
22.478859 4.4664226 -1.201095 0
22.437555 4.5364671 -1.1996939 0
22.419765 4.611166 -1.1995627 0
22.408144 4.6871386 -1.199775 0
22.392397 4.7622623 -1.19978 0
22.368179 4.835557 -1.1993444 0
22.356836 4.911623 -1.1996124 0
22.339121 4.9863038 -1.1995522 0
22.30864 5.0580821 -1.1988193 0
22.30489 5.1359205 -1.1995363 0
22.287203 5.2105961 -1.199518 0
22.270933 5.2856064 -1.1995894 0
22.251804 5.3599381 -1.1995202 0
22.249973 5.4384899 -1.2003978 0
22.242849 5.5158448 -1.2010044 0
22.175753 5.578196 -1.1983846 0
22.157146 5.6525722 -1.1983966 0
22.156021 5.7314725 -1.1993684 0
22.154833 5.8104863 -1.200352 0
22.115772 5.8795629 -1.199297 0
22.106674 5.9565735 -1.1998799 0
22.096586 6.033392 -1.2004235 0
22.037474 6.0967202 -1.1983159 0
22.038363 6.1765866 -1.1994835 0
22.032202 6.2546077 -1.2002828 0
21.992935 6.3232174 -1.1992919 0
21.994507 6.4035859 -1.2005416 0
21.955578 6.4721832 -1.1995945 0
21.946598 6.5495925 -1.2002969 0
21.90988 6.6187177 -1.1994957 0
21.889954 6.6928701 -1.1996266 0
21.880077 6.7701511 -1.2003226 0
21.852139 6.8418708 -1.2000415 0
21.832321 6.9161263 -1.20022 0
21.826185 6.9947915 -1.2011652 0
21.784681 7.062119 -1.2001774 0
21.756948 7.1338296 -1.1999605 0
21.735373 7.2075539 -1.2000966 0
21.684765 7.2715621 -1.1986418 0
21.705122 7.359436 -1.2011242 0
4.7576933 1.6309708 -0.26358372 0
4.6838207 1.6232165 -0.25979111 0
4.6553168 1.6308416 -0.25851193 0
4.6000142 1.6288043 -0.25574279 0
4.539094 1.6243806 -0.25265723 0
4.4780941 1.6195084 -0.24956267 0
4.4549932 1.6280649 -0.24857807 0
4.4545107 1.644839 -0.24885745 0
4.4443331 1.6580348 -0.24859807 0
4.4445739 1.6751218 -0.24892429 0
4.4677987 1.7010043 -0.250543 0
4.464395 1.7168684 -0.25067356 0
4.4394679 1.7243903 -0.24959712 0
4.4551163 1.7476819 -0.25080496 0
4.4532304 1.7641934 -0.25103039 0
4.4420419 1.7770146 -0.25073412 0
4.4479418 1.796698 -0.25140575 0
4.4541206 1.8165882 -0.25209785 0
4.4525328 1.8333759 -0.25235444 0
21.143951 8.7892647 -1.2000309 0
21.134699 8.8686399 -1.2011867 0
21.092472 8.9342108 -1.2004825 0
21.034307 8.9928694 -1.1988813 0
21.018866 9.0697412 -1.1997277 0
20.982868 9.1377802 -1.1994151 0
20.981686 9.221077 -1.2011079 0
20.941114 9.2871428 -1.2005612 0
20.887245 9.3471832 -1.1992627 0
20.887487 9.4314747 -1.2010856 0
20.838615 9.4936476 -1.2000989 0
20.803278 9.561904 -1.1999034 0
20.785328 9.6381969 -1.2007252 0
20.719772 9.692337 -1.1988087 0
20.707973 9.771574 -1.2000148 0
20.666586 9.8368988 -1.1995211 0
20.640816 9.9096527 -1.199947 0
20.612135 9.9810591 -1.2002183 0
20.591642 10.056502 -1.2009816 0
20.555508 10.124352 -1.2008471 0
20.516733 10.190873 -1.2005714 0
20.483072 10.259916 -1.2006079 0
20.441509 10.324975 -1.2001941 0
20.406496 10.393311 -1.2001776 0
20.364311 10.457961 -1.199752 0
20.332314 10.527827 -1.1999397 0
20.311846 10.60374 -1.2008232 0
20.285992 10.676947 -1.2014042 0
20.220379 10.729142 -1.1996422 0
20.182606 10.795975 -1.1995419 0
20.141565 10.861032 -1.1992602 0
20.129622 10.941865 -1.2007267 0
20.097624 11.011925 -1.2010137 0
20.041189 11.068532 -1.1998522 0
20.012617 11.140479 -1.200371 0
19.984379 11.212692 -1.2009256 0
19.954309 11.283952 -1.2013853 0
19.911921 11.348259 -1.2011173 0
19.875626 11.416027 -1.20123 0
19.791183 11.455944 -1.1984411 0
19.793682 11.546164 -1.2009299 0
19.759007 11.614902 -1.2011821 0
19.67094 11.652052 -1.1981966 0
19.663502 11.736884 -1.2001338 0
19.614098 11.796766 -1.1995257 0
19.595366 11.875147 -1.2008084 0
19.56424 11.946153 -1.2013488 0
19.524288 12.01181 -1.2013618 0
19.49119 12.081719 -1.201811 0
19.414042 12.124188 -1.1995537 0
19.401892 12.207212 -1.2013252 0
19.325274 12.24964 -1.1991174 0
19.265751 12.302652 -1.1979767 0
19.264395 12.392911 -1.2004695 0
19.207632 12.447643 -1.1995263 0
19.184406 12.524127 -1.2006915 0
19.139147 12.586299 -1.2004932 0
19.089077 12.645256 -1.2000052 0
19.058657 12.71725 -1.2007666 0
19.014364 12.78004 -1.2006689 0
18.97401 12.845481 -1.2008336 0
18.893969 12.883885 -1.198495 0
18.90238 12.98268 -1.2017829 0
18.843105 13.035163 -1.2007862 0
18.811752 13.106948 -1.2015821 0
18.734192 13.146432 -1.1994365 0
18.69911 13.215602 -1.2000207 0
18.663759 13.284674 -1.2006037 0
18.610558 13.341042 -1.200052 0
18.575235 13.410232 -1.2006668 0
18.521576 13.466187 -1.2001101 0
18.469002 13.522852 -1.1996346 0
18.425539 13.586159 -1.1997634 0
18.4002 13.662945 -1.2010896 0
18.350706 13.721884 -1.2008553 0
18.304342 13.783141 -1.2008387 0
18.265007 13.849728 -1.2012976 0
18.2113 13.905416 -1.200825 0
18.14332 13.950053 -1.1994199 0
18.09877 14.012606 -1.199574 0
18.05241 14.073772 -1.199622 0
18.000799 14.130826 -1.1993339 0
17.952442 14.190407 -1.1992754 0
17.908569 14.253546 -1.1995302 0
17.861298 14.314006 -1.1995717 0
17.805473 14.367572 -1.199051 0
17.768929 14.436717 -1.1998429 0
17.736261 14.509167 -1.2009152 0
17.671116 14.555045 -1.1998019 0
17.602541 14.597895 -1.1984622 0
17.578176 14.677436 -1.2001472 0
17.515627 14.72516 -1.1992407 0
17.460793 14.779262 -1.1988722 0
17.419613 14.844939 -1.1994555 0
17.396797 14.926474 -1.2013237 0
17.33255 14.972534 -1.2003469 0
17.267885 15.018067 -1.199349 0
17.237349 15.093315 -1.2007362 0
17.182762 15.1476 -1.2004648 0
17.117672 15.192516 -1.1994693 0
17.07361 15.256054 -1.1999594 0
17.025425 15.315966 -1.2001752 0
16.981092 15.379406 -1.2006782 0
16.900982 15.410313 -1.1986604 0
16.860538 15.477283 -1.1994656 0
16.834833 15.558016 -1.2013413 0
16.756355 15.589977 -1.1994643 0
16.718332 15.659504 -1.2004942 0
16.654633 15.704999 -1.1996944 0
16.614698 15.772916 -1.2006203 0
16.55282 15.820026 -1.1999751 0
16.493031 15.869033 -1.1994911 0
16.438196 15.922754 -1.1993791 0
16.379496 15.972688 -1.1989969 0
16.345037 16.04635 -1.200406 0
16.318571 16.128168 -1.2024268 0
16.244902 16.163385 -1.200985 0
16.197926 16.225082 -1.2015271 0
16.105873 16.241421 -1.1987314 0
16.065483 16.3097 -1.1997885 0
16.005663 16.358316 -1.1994104 0
15.95506 16.416346 -1.1997361 0
15.899856 16.469671 -1.1997306 0
15.851419 16.530054 -1.200251 0
15.78896 16.575815 -1.1997231 0
15.73806 16.633694 -1.2000864 0
15.683308 16.687544 -1.200171 0
15.616426 16.728416 -1.1993382 0
15.55512 16.77515 -1.1989428 0
15.521025 16.851349 -1.2006629 0
15.456319 16.894421 -1.2000325 0
15.402745 16.949621 -1.2002785 0
15.359364 17.016163 -1.2013371 0
15.279141 17.041817 -1.1995248 0
15.216078 17.086391 -1.1990646 0
15.184911 17.166939 -1.2011375 0
15.128351 17.218987 -1.2012235 0
15.065524 17.26387 -1.2008241 0
15.001184 17.306934 -1.2003143 0
14.937178 17.350286 -1.1998408 0
14.874237 17.394791 -1.199463 0
14.811134 17.439032 -1.1990826 0
14.755389 17.491922 -1.1993109 0
14.722722 17.572403 -1.2014377 0
14.626693 17.577168 -1.1984038 0
14.586906 17.649376 -1.1999856 0
14.526168 17.696379 -1.1998633 0
14.472216 17.751682 -1.2003163 0
14.415515 17.803686 -1.2005577 0
14.356938 17.853405 -1.2006578 0
14.293397 17.896933 -1.2003553 0
14.217872 17.925287 -1.1990532 0
14.184616 18.007038 -1.2013335 0
14.098866 18.02216 -1.1991819 0
14.047756 18.081421 -1.1999844 0
13.991476 18.13415 -1.2003638 0
13.927032 18.176308 -1.2000567 0
13.857728 18.212011 -1.1993397 0
13.813961 18.281363 -1.2008499 0
13.732869 18.301296 -1.199128 0
13.676591 18.35416 -1.1995806 0
13.636069 18.428419 -1.201439 0
13.581119 18.483442 -1.2020508 0
13.497039 18.498678 -1.2000918 0
13.434893 18.54376 -1.2000875 0
13.369184 18.583893 -1.1997772 0
13.303918 18.624577 -1.1995173 0
13.243913 18.672623 -1.1997451 0
13.174191 18.706924 -1.1991042 0
13.1245 18.769728 -1.2003025 0
13.061336 18.813396 -1.2002878 0
13.001029 18.86121 -1.2005506 0
12.932213 18.89665 -1.2000397 0
12.868966 18.940174 -1.2000568 0
12.805839 18.983877 -1.2000986 0
12.748237 19.035843 -1.200675 0
12.689107 19.085648 -1.2011262 0
12.615408 19.113483 -1.2002093 0
12.550345 19.154287 -1.2001225 0
12.487905 19.199104 -1.2003003 0
12.42313 19.240349 -1.2002681 0
12.365719 19.293076 -1.2009642 0
12.275757 19.294809 -1.1985034 0
12.220062 19.350214 -1.1993932 0
12.168237 19.41201 -1.2006879 0
12.109229 19.462574 -1.2012975 0
12.029819 19.480255 -1.1998925 0
11.967807 19.525974 -1.2002302 0
11.911913 19.581839 -1.2012024 0
11.830058 19.594942 -1.1995665 0
11.771227 19.646069 -1.2002734 0
11.709752 19.692926 -1.2007308 0
11.634346 19.716293 -1.1997705 0
11.579077 19.773806 -1.200901 0
11.514279 19.815212 -1.2010642 0
11.437974 19.836702 -1.2000357 0
11.373662 19.878893 -1.2002743 0
11.315772 19.932459 -1.2012111 0
11.23342 19.942842 -1.1995603 0
11.17613 19.997639 -1.2005956 0
11.099008 20.016941 -1.1995137 0
11.039043 20.06715 -1.2002977 0
10.969374 20.099787 -1.2000432 0
10.907326 20.146435 -1.2006381 0
10.832293 20.169067 -1.1998158 0
10.77057 20.216461 -1.2004801 0
10.701296 20.24975 -1.2003196 0
10.628695 20.276651 -1.199795 0
10.567355 20.325068 -1.2005566 0
10.498717 20.359547 -1.2005073 0
10.425933 20.385902 -1.1999935 0
10.359841 20.425312 -1.2002618 0
10.286229 20.449848 -1.1996703 0
10.224547 20.498137 -1.2004853 0
10.158303 20.537437 -1.2007855 0
10.084378 20.561165 -1.2001892 0
10.01589 20.595903 -1.2002499 0
9.9340992 20.603069 -1.1987199 0
9.8686657 20.644003 -1.1991695 0
9.7962961 20.670437 -1.1987903 0
9.7417107 20.73461 -1.2006111 0
9.6748428 20.772964 -1.2009469 0
9.5982008 20.790255 -1.2000793 0
9.5272303 20.819672 -1.1999269 0
9.4686508 20.876364 -1.2013577 0
9.3907318 20.890484 -1.2003516 0
9.3159132 20.911247 -1.1997433 0
9.2476988 20.946781 -1.1999962 0
9.1767979 20.976255 -1.1999154 0
9.1052895 21.004305 -1.1997669 0
9.0359488 21.037355 -1.1999174 0
8.9594479 21.053633 -1.1991258 0
8.8948269 21.097826 -1.1999376 0
8.8264818 21.133377 -1.2002696 0
8.755887 21.163605 -1.2003123 0
8.6777534 21.175453 -1.1993273 0
8.6245327 21.248344 -1.2018112 0
8.5489321 21.266418 -1.2012056 0
8.4781837 21.296474 -1.2012908 0
8.3990393 21.305264 -1.2001915 0
8.3254328 21.327854 -1.1998849 0
8.2507248 21.34749 -1.1994265 0
8.1847086 21.389683 -1.2002485 0
8.1214256 21.439386 -1.2015028 0
8.0425472 21.447958 -1.2004652 0
7.9586849 21.442724 -1.1986721 0
7.8945689 21.490582 -1.1998609 0
7.8242559 21.521839 -1.2001348 0
7.7553873 21.55722 -1.2006509 0
7.6765938 21.564919 -1.1996394 0
7.6131277 21.615749 -1.2010404 0
7.5421581 21.645592 -1.2012867 0
7.4584312 21.638523 -1.1994998 0
7.3948183 21.689743 -1.200958 0
7.3209291 21.711075 -1.2007732 0
7.2414727 21.715641 -1.1996763 0
7.1686182 21.739782 -1.1996753 0
7.093554 21.757149 -1.1993145 0
7.0217032 21.784336 -1.1995087 0
6.9550915 21.828049 -1.2006249 0
6.8737822 21.825575 -1.1992145 0
6.8066554 21.868061 -1.2002882 0
6.727025 21.870367 -1.19917 0
6.6578197 21.906485 -1.1999197 0
6.5805378 21.916042 -1.1992279 0
6.5064273 21.935982 -1.1991185 0
6.432528 21.956596 -1.1990597 0
6.3647947 21.998499 -1.2001759 0
6.2903628 22.017477 -1.2000539 0
6.2146034 22.031694 -1.1996864 0
6.1451755 22.06848 -1.2005607 0
6.0707517 22.087509 -1.200482 0
5.9972215 22.109802 -1.2005941 0
5.9220462 22.126005 -1.2003889 0
5.8477921 22.145597 -1.2003814 0
5.7712374 22.156359 -1.1999091 0
5.6950154 22.168175 -1.1995082 0
5.6224952 22.194397 -1.1999003 0
5.5531497 22.233543 -1.2010033 0
5.475431 22.239271 -1.2003143 0
5.4030008 22.266426 -1.2007955 0
5.3292747 22.288427 -1.2010117 0
5.2539487 22.303764 -1.2008821 0
5.1690893 22.277943 -1.1985519 0
5.1010089 22.324217 -1.2001146 0
5.0230379 22.327444 -1.199376 0
4.9499068 22.352093 -1.1998018 0
4.8753276 22.370359 -1.1998981 0
4.8006792 22.388363 -1.1999937 0
4.7254953 22.403893 -1.19997 0
4.6446967 22.392342 -1.1985105 0
4.5729632 22.424314 -1.1993945 0
4.5011635 22.456535 -1.2003039 0
4.4204097 22.443899 -1.1988297 0
4.3510823 22.489334 -1.2004706 0
4.2708187 22.478342 -1.1991127 0
4.1977758 22.505117 -1.1997834 0
4.1242652 22.529818 -1.2003564 0
4.0469403 22.533697 -1.1998334 0
3.9701791 22.5404 -1.1994747 0
3.8956354 22.559677 -1.1997988 0
3.8214457 22.581303 -1.2002608 0
3.7461004 22.596323 -1.2003847 0
3.6698704 22.605997 -1.2002382 0
3.588131 22.580887 -1.1982596 0
3.51794 22.628416 -1.2001492 0
3.4470227 22.672783 -1.2018825 0
3.3656647 22.648405 -1.1999853 0
3.2920539 22.675709 -1.2008404 0
3.2133651 22.667974 -1.1998534 0
3.1383002 22.68552 -1.2002184 0
3.0611985 22.688328 -1.1998173 0
2.984215 22.691647 -1.1994569 0
2.9083531 22.703363 -1.1995541 0
2.8298271 22.693823 -1.198542 0
2.7600944 22.755714 -1.201315 0
2.6803668 22.735859 -1.1997857 0
2.6020885 22.726952 -1.1988486 0
2.5283353 22.757696 -1.2000165 0
2.4520855 22.766665 -1.2000492 0
2.3761148 22.778358 -1.2002388 0
2.2997997 22.786886 -1.2002751 0
2.2225668 22.786066 -1.1998326 0
2.1496749 22.83075 -1.2017993 0
2.0707157 22.811392 -1.200408 0
1.9917349 22.789749 -1.1989111 0
1.9174132 22.821287 -1.2002251 0
1.8392708 22.807545 -1.1991714 0
1.7649647 22.841715 -1.2006501 0
1.6877503 22.839108 -1.2002088 0
1.6097965 22.825224 -1.1991889 0
1.5344882 22.848801 -1.2001505 0
1.4581574 22.858294 -1.2003856 0
1.3816054 22.864637 -1.2004688 0
1.3051347 22.872608 -1.2006507 0
1.2287881 22.883343 -1.2009912 0
1.1509166 22.864662 -1.1998016 0
1.074403 22.871668 -1.1999733 0
0.99807858 22.883533 -1.2004136 0
0.92079979 22.873114 -1.1996982 0
0.84462076 22.890039 -1.2004308 0
0.76750201 22.881771 -1.1998554 0
0.69110972 22.895157 -1.2004291 0
0.61383903 22.878574 -1.1994449 0
0.53713721 22.880894 -1.1994654 0
0.46097705 22.910305 -1.2009195 0
0.38385615 22.89357 -1.199968 0
0.30698255 22.886257 -1.199524 0
0.23049827 22.912083 -1.2008303 0
0.15362887 22.905539 -1.2004536 0
0.076728486 22.875641 -1.1988665 0
3.0383217e-05 22.899708 -1.200121 0
-0.076819964 22.921047 -1.2012461 0
-0.15357451 22.906496 -1.2005037 0
-0.23022763 22.891218 -1.1997368 0
-0.30703545 22.89473 -1.1999681 0
-0.38404551 22.908491 -1.20075 0
-0.46026841 22.878105 -1.1992315 0
-0.53739589 22.894503 -1.2001787 0
-0.61334872 22.862562 -1.1986054 0
-0.69023234 22.868103 -1.1990105 0
-0.7671293 22.872471 -1.1993676 0
-0.84462011 22.89167 -1.2005161 0
-0.92116588 22.883718 -1.2002543 0
-0.99750817 22.871849 -1.1998005 0
-1.0757089 22.900763 -1.2014997 0
-1.1521164 22.889711 -1.2011157 0
-1.2273837 22.858322 -1.1996778 0
-1.3042845 22.858774 -1.1999243 0
-1.3817414 22.867897 -1.2006396 0
-1.4596493 22.882635 -1.2016637 0
-1.5334467 22.834198 -1.1993833 0
-1.6122253 22.860527 -1.2010434 0
-1.6879281 22.842337 -1.2003783 0
-1.7641491 22.831947 -1.2001364 0
-1.8396565 22.813084 -1.1994623 0
-1.915436 22.798479 -1.1990254 0
-1.9939232 22.815487 -1.2002648 0
-2.0718637 22.824711 -1.2011087 0
-2.1468158 22.801035 -1.2002348 0
-2.2216017 22.776796 -1.1993443 0
-2.3023157 22.812422 -1.2016199 0
-2.3774209 22.791464 -1.200929 0
-2.4501574 22.749331 -1.1991351 0
-2.5289044 22.763369 -1.2003152 0
-2.6047413 22.750656 -1.2000986 0
-2.6836705 22.764402 -1.2012917 0
-2.7540758 22.706596 -1.1987218 0
-2.8367147 22.749552 -1.2014848 0
-2.9107988 22.722935 -1.2005876 0
-2.9853523 22.70076 -1.1999382 0
-3.0620477 22.695076 -1.2001737 0
-3.1361969 22.670759 -1.1994371 0
-3.2165058 22.690561 -1.2010486 0
-3.2894175 22.65797 -1.1999005 0
-3.3690307 22.671471 -1.2012068 0
-3.4383235 22.615969 -1.1988702 0
-3.5140729 22.603937 -1.1988503 0
-3.590452 22.595881 -1.1990547 0
-3.6730077 22.625702 -1.2012839 0
-3.7429492 22.577686 -1.1993942 0
-3.8218694 22.584171 -1.2004126 0
-3.8988678 22.578754 -1.2008128 0
-3.9712529 22.546846 -1.1998172 0
-4.0536056 22.571156 -1.2018273 0
-4.1241541 22.529545 -1.2003412 0
-4.1943898 22.487293 -1.1988326 0
-4.2785134 22.519167 -1.2012899 0
-4.3475118 22.471199 -1.1995019 0
-4.4249396 22.467215 -1.2000743 0
-4.5009522 22.45579 -1.2002635 0
-4.5716338 22.418097 -1.1990613 0
-4.6497025 22.416775 -1.1998177 0
-4.7335463 22.442358 -1.2020296 0
-4.8016129 22.393007 -1.2002419 0
-4.8703656 22.347874 -1.1986914 0
-4.9535751 22.36894 -1.2007054 0
-5.0261536 22.341572 -1.2001342 0
-5.1086216 22.357807 -1.2019196 0
-5.1762643 22.309135 -1.2002293 0
-5.250576 22.289711 -1.2001246 0
-5.3254757 22.272802 -1.2001688 0
-5.4048853 22.27445 -1.2012274 0
-5.4746189 22.236227 -1.2001493 0
-5.5520358 22.229334 -1.2007751 0
-5.6232991 22.197819 -1.2000844 0
-5.6900978 22.149277 -1.1984848 0
-5.7719688 22.159409 -1.2000734 0
-5.8472147 22.14365 -1.2002749 0
-5.9180942 22.111475 -1.1995997 0
-5.9991269 22.117058 -1.2009872 0
-6.0751896 22.103888 -1.2013712 0
-6.142632 22.05957 -1.2000751 0
-6.2228041 22.060991 -1.2012808 0
-6.2916126 22.022072 -1.2003036 0
-6.3557525 21.967464 -1.1984819 0
-6.4385638 21.977415 -1.2001957 0
-6.5126667 21.957232 -1.2002792 0
-6.5815954 21.919775 -1.1994312 0
-6.6523972 21.888851 -1.1989528 0
-6.7278514 21.87326 -1.1993277 0
-6.8061004 21.866482 -1.2002004 0
-6.8761964 21.833443 -1.1996458 0
-6.9488969 21.808809 -1.1995656 0
-7.0228419 21.788065 -1.199713 0
-7.104856 21.792009 -1.2012352 0
-7.1624413 21.721245 -1.1986513 0
-7.2533932 21.751581 -1.2016606 0
-7.3172278 21.700289 -1.2001758 0
-7.3996849 21.704206 -1.2017577 0
-7.4670243 21.663639 -1.200891 0
-7.5310869 21.614002 -1.1995325 0
-7.5984726 21.574322 -1.1987374 0
-7.6821976 21.580841 -1.2005241 0
-7.7504835 21.543768 -1.1999006 0
-7.8223181 21.516689 -1.1998463 0
-7.9016557 21.51005 -1.2009467 0
-7.9731359 21.481834 -1.2008572 0
-8.0441628 21.452438 -1.2007148 0
-8.108984 21.406712 -1.1996704 0
-8.1907148 21.405546 -1.2011374 0
-8.2475672 21.339491 -1.1989758 0
-8.3222322 21.319822 -1.1994318 0
-8.3995399 21.3067 -1.200271 0
-8.4699306 21.275906 -1.2001294 0
-8.5434856 21.253033 -1.2004482 0
-8.6085005 21.209005 -1.199585 0
-8.6904583 21.206614 -1.2010909 0
-8.7556934 21.163296 -1.2002934 0
-8.8365383 21.157616 -1.2016448 0
-8.8988609 21.107552 -1.2004893 0
-8.9673395 21.07233 -1.2001894 0
-9.0481901 21.06601 -1.2015504 0
-9.1052055 21.004265 -1.1997632 0
-9.1682682 20.956909 -1.1988074 0
-9.2471895 20.945778 -1.1999373 0
-9.3143654 20.907923 -1.1995511 0
-9.3958845 20.902096 -1.2010174 0
-9.4592428 20.85577 -1.2001711 0
-9.5272694 20.819902 -1.1999387 0
-9.6001339 20.794586 -1.2003279 0
-9.6578445 20.736612 -1.1988438 0
-9.7299328 20.709682 -1.1991663 0
-9.8085089 20.696346 -1.2002915 0
-9.8679972 20.642744 -1.1990949 0
-9.9525156 20.641403 -1.2009487 0
-10.018755 20.601933 -1.2005998 0
-10.081288 20.555004 -1.199828 0
-10.151809 20.524445 -1.2000242 0
-10.230294 20.509796 -1.2011665 0
-10.298213 20.47381 -1.2010744 0
-10.363311 20.432287 -1.2006701 0
-10.428027 20.390131 -1.2002407 0
-10.50631 20.374401 -1.2013816 0
-10.567425 20.325335 -1.2005707 0
-10.636559 20.291786 -1.200689 0
-10.696877 20.241522 -1.1998301 0
-10.765563 20.207193 -1.1999282 0
-10.845212 20.193251 -1.2012527 0
-10.903071 20.138704 -1.2001756 0
-10.963164 20.088537 -1.1993698 0
-11.037245 20.064007 -1.2001079 0
-11.108702 20.03455 -1.200567 0
-11.156627 19.962864 -1.1985061 0
-11.241153 19.956694 -1.2003917 0
-11.311064 19.924288 -1.2007169 0
-11.363693 19.861591 -1.1992278 0
-11.419373 19.804565 -1.1980896 0
-11.507694 19.803999 -1.2003828 0
-11.567759 19.754599 -1.1997325 0
-11.646955 19.737782 -1.201076 0
-11.701659 19.679436 -1.1999063 0
-11.761407 19.629797 -1.1992774 0
-11.839314 19.610392 -1.2005103 0
-11.910508 19.579645 -1.201066 0
-11.969872 19.529461 -1.2004427 0
-12.023955 19.470873 -1.1993127 0
-12.100964 19.449406 -1.2004827 0
-12.165036 19.407019 -1.2003771 0
-12.233891 19.372227 -1.2007555 0
-12.291056 19.318968 -1.200002 0
-12.367926 19.296633 -1.2011836 0
-12.425957 19.244839 -1.2005461 0
-12.482631 19.191107 -1.1997983 0
-12.550605 19.154795 -1.2001522 0
-12.608724 19.103466 -1.1995782 0
-12.67773 19.068645 -1.200054 0
-12.74107 19.025251 -1.2000048 0
-12.797234 18.97123 -1.1992971 0
-12.876139 18.950836 -1.2007303 0
-12.93267 18.897425 -1.2000867 0
-12.996426 18.854639 -1.2001301 0
-13.052661 18.801008 -1.1994953 0
-13.126478 18.772663 -1.200488 0
-13.194823 18.736326 -1.2009866 0
-13.238642 18.665297 -1.199272 0
-13.303207 18.623686 -1.1994576 0
-13.37225 18.588257 -1.2000567 0
-13.44197 18.553633 -1.2007241 0
-13.498523 18.500814 -1.2002282 0
-13.566541 18.463705 -1.2007649 0
-13.60887 18.391762 -1.1990467 0
-13.663902 18.337234 -1.1984719 0
-13.745448 18.318159 -1.2002306 0
-13.806147 18.271122 -1.2001748 0
-13.859984 18.215078 -1.1995392 0
-13.926476 18.175682 -1.2000129 0
-13.993659 18.137079 -1.2005552 0
-14.061829 18.099632 -1.2011906 0
-14.100566 18.024431 -1.1993306 0
-14.167519 17.985432 -1.1998895 0
-14.249639 17.965437 -1.2017363 0
-14.279918 17.880152 -1.1992273 0
-14.353953 17.849791 -1.2004122 0
-14.404964 17.790751 -1.199683 0
-14.473736 17.753643 -1.2004462 0
-14.520414 17.689465 -1.1993918 0
-14.583726 17.645622 -1.1997279 0
-14.646931 17.601583 -1.2000657 0
-14.700028 17.545412 -1.1995896 0
-14.771631 17.511271 -1.2006348 0
-14.823503 17.45369 -1.2000878 0
-14.886832 17.409615 -1.2004824 0
-14.948048 17.363005 -1.2007176 0
-14.996674 17.301823 -1.199957 0
-15.056924 17.254108 -1.2001424 0
-15.105322 17.192867 -1.1993985 0
-15.16764 17.147505 -1.199775 0
-15.22565 17.097231 -1.1998225 0
-15.288903 17.052795 -1.2002947 0
-15.319317 16.971886 -1.1982082 0
-15.399826 16.946499 -1.2000545 0
-15.454511 16.892532 -1.1998955 0
-15.505139 16.834192 -1.1994375 0
-15.549914 16.769625 -1.198545 0
-15.621092 16.733503 -1.1996999 0
-15.669952 16.673422 -1.1991524 0
-15.741437 16.637352 -1.2003473 0
-15.802296 16.589903 -1.2007397 0
-15.843956 16.52236 -1.1996893 0
-15.906718 16.476866 -1.2002517 0
-15.977869 16.439901 -1.2014545 0
-16.024235 16.377384 -1.2008054 0
-16.068409 16.312756 -1.2000102 0
-16.121868 16.257635 -1.1999251 0
-16.175282 16.202484 -1.1998506 0
-16.226891 16.14555 -1.1996565 0
-16.284779 16.094854 -1.19994 0
-16.329927 16.031601 -1.1992993 0
-16.391174 15.98416 -1.1998549 0
-16.439835 15.924426 -1.1995018 0
-16.489599 15.865815 -1.1992446 0
-16.567896 15.834519 -1.201071 0
-16.602837 15.76174 -1.1997663 0
-16.687937 15.736487 -1.2020963 0
-16.713774 15.655315 -1.2001697 0
-16.770393 15.603121 -1.2004721 0
-16.810362 15.535482 -1.1995978 0
-16.866625 15.482952 -1.1999016 0
-16.905802 15.41479 -1.1990051 0
-16.968618 15.368191 -1.1997991 0
-17.008602 15.300915 -1.1989921 0
-17.064035 15.247581 -1.1992893 0
-17.125883 15.199885 -1.2000475 0
-17.168623 15.135217 -1.1994798 0
-17.237398 15.093441 -1.2007425 0
-17.295317 15.042006 -1.2012571 0
-17.3151 14.957541 -1.1991413 0
-17.374729 14.907619 -1.1998025 0
-17.441597 14.863754 -1.200972 0
-17.492785 14.80642 -1.2010715 0
-17.532816 14.739689 -1.2004201 0
-17.551699 14.655406 -1.198342 0
-17.637077 14.626614 -1.2008162 0
-17.669838 14.554071 -1.1997176 0
-17.713675 14.490768 -1.1993885 0
-17.786085 14.450735 -1.201004 0
-17.814066 14.374583 -1.1996323 0
-17.883484 14.331864 -1.2010643 0
-17.922571 14.264769 -1.2004707 0
-17.957071 14.194143 -1.1995871 0
-18.002293 14.132075 -1.1994359 0
-18.048346 14.070681 -1.1993544 0
-18.084475 14.001615 -1.1986289 0
-18.151667 13.956547 -1.1999741 0
-18.202835 13.899029 -1.2002693 0
-18.262678 13.848039 -1.2011471 0
-18.275059 13.761168 -1.19892 0
-18.345919 13.71838 -1.2005445 0
-18.37347 13.643174 -1.1993473 0
-18.430489 13.589884 -1.2000881 0
-18.478834 13.530127 -1.2002755 0
-18.515051 13.461518 -1.1996895 0
-18.559753 13.39913 -1.1996684 0
-18.600082 13.333607 -1.1993787 0
-18.655001 13.278513 -1.2000425 0
-18.722542 13.232237 -1.2015266 0
-18.742887 13.152608 -1.1999955 0
-18.798304 13.097651 -1.2007252 0
-18.807604 13.010679 -1.1985261 0
-18.857031 12.951607 -1.1989019 0
-18.913126 12.897022 -1.1997124 0
-18.974762 12.846063 -1.2008833 0
-19.029222 12.790099 -1.2016093 0
-19.043379 12.707129 -1.1998061 0
-19.073265 12.634854 -1.1990134 0
-19.133381 12.582581 -1.2001336 0
-19.181025 12.521992 -1.2004819 0
-19.20989 12.449179 -1.1996694 0
-19.252771 12.385506 -1.1997472 0
-19.308359 12.329934 -1.2006283 0
-19.342403 12.260571 -1.2001823 0
-19.382534 12.195105 -1.2001286 0
-19.417511 12.126427 -1.1997701 0
-19.467518 12.067119 -1.2003534 0
-19.504274 11.999569 -1.2001321 0
-19.532141 11.926623 -1.1993797 0
-19.589027 11.871376 -1.2004218 0
-19.63274 11.808049 -1.2006677 0
-19.659937 11.734827 -1.199918 0
-19.692785 11.665062 -1.1995292 0
-19.707428 11.584653 -1.1980485 0
-19.7726 11.533937 -1.1996527 0
-19.806124 11.464663 -1.1993477 0
-19.849386 11.401026 -1.199646 0
-19.916708 11.351057 -1.2014078 0
-19.948383 11.28067 -1.2010303 0
-19.981903 11.211373 -1.2007786 0
-20.016598 11.142766 -1.2006116 0
-20.032072 11.063566 -1.199308 0
-20.053736 10.987947 -1.1983926 0
-20.112141 10.932432 -1.1996857 0
-20.137119 10.858704 -1.1989973 0
-20.192427 10.801297 -1.2001274 0
-20.218616 10.728275 -1.1995393 0
-20.260458 10.663576 -1.1998937 0
-20.243509 10.568133 -1.1967849 0
-20.324181 10.523685 -1.1994613 0
-20.358999 10.455302 -1.1994407 0
-20.376591 10.378147 -1.1984203 0
-20.465389 10.337104 -1.2015977 0
-20.459194 10.248023 -1.1992098 0
-20.48222 10.173798 -1.1985533 0
-20.543919 10.118712 -1.2001717 0
-20.581165 10.051454 -1.2003722 0
-20.606329 9.9783154 -1.1998818 0
-20.648075 9.9132061 -1.2003706 0
-20.670494 9.8388271 -1.1997494 0
-20.715946 9.775404 -1.2004784 0
-20.724655 9.6946888 -1.1990926 0
-20.781954 9.6366997 -1.2005317 0
-20.800419 9.5606575 -1.1997398 0
-20.816759 9.483757 -1.1988416 0
-20.887539 9.4315643 -1.2010899 0
-20.900167 9.3530321 -1.2000061 0
-20.942129 9.2876596 -1.2006207 0
-20.960306 9.2117481 -1.1998855 0
-20.979067 9.1361914 -1.1991991 0
-21.030392 9.0747814 -1.200387 0
-21.028315 8.9903727 -1.198541 0
-21.06081 8.9208651 -1.1986817 0
-21.124739 8.8645267 -1.2006218 0
-21.135525 8.7858276 -1.199554 0
-21.158062 8.7121153 -1.1991686 0
-21.214182 8.6521511 -1.2006984 0
-21.206699 8.5662823 -1.1986425 0
-21.258814 8.5045376 -1.1999696 0
-21.285686 8.4326105 -1.1998838 0
-21.314167 8.3613243 -1.1999023 0
-21.352119 8.2937145 -1.2004666 0
-21.385336 8.2242041 -1.2007771 0
-21.414494 8.1531057 -1.2008727 0
-21.410051 8.0693302 -1.1990997 0
-21.455147 8.0042763 -1.2001156 0
-21.467951 7.9271584 -1.1993382 0
-21.511574 7.8614097 -1.200296 0
-21.535303 7.7883339 -1.2001563 0
-21.555044 7.7138491 -1.1998084 0
-21.588634 7.6443152 -1.2002447 0
-21.606934 7.5693641 -1.1998444 0
-21.632971 7.4971476 -1.1998876 0
-21.66798 7.4280005 -1.2004414 0
-21.684212 7.3524103 -1.1999681 0
-21.712029 7.2807689 -1.2001499 0
-21.734386 7.2072911 -1.2000432 0
-21.741638 7.1288738 -1.1991172 0
-21.774719 7.0589533 -1.1996297 0
-21.810541 6.9898419 -1.2003052 0
-21.802351 6.9066958 -1.1985734 0
-21.859535 6.8442507 -1.2004488 0
-21.876196 6.7690139 -1.2001107 0
-21.907755 6.6983767 -1.2006031 0
-21.90844 6.6183457 -1.1994177 0
-21.943804 6.5488224 -1.2001451 0
-21.974293 6.4777632 -1.2006179 0
-21.983576 6.4004669 -1.1999459 0
-21.990818 6.3226719 -1.1991774 0
-22.031513 6.2544751 -1.2002462 0
-22.039408 6.1769428 -1.1995413 0
-22.074303 6.1069727 -1.2003194 0
-22.092253 6.0322719 -1.200189 0
-22.122124 5.9607992 -1.2007192 0
-22.143412 5.8869734 -1.2007965 0
-22.121313 5.8017578 -1.1985366 0
-22.151237 5.7302976 -1.1991102 0
-22.179506 5.658339 -1.1996068 0
-22.215485 5.588253 -1.2005327 0
-22.248999 5.5174327 -1.2013373 0
-22.252882 5.4392633 -1.2005556 0
-22.26763 5.3638124 -1.2003741 0
-22.281727 5.2882304 -1.2001715 0
-22.303446 5.2144561 -1.200393 0
-22.29516 5.1337428 -1.1990138 0
-22.330772 5.0631628 -1.2000093 0
-22.343355 4.9873109 -1.1997802 0
-22.367277 4.9139791 -1.2001733 0
-22.35162 4.8320389 -1.1984571 0
-22.388153 4.7614222 -1.1995533 0
-22.430779 4.6919351 -1.2009875 0
-22.428915 4.6131096 -1.2000529 0
-22.433432 4.5356956 -1.1994741 0
-22.438326 4.4584308 -1.1989298 0
-22.461021 4.3847113 -1.1993502 0
-22.484955 4.3111734 -1.1998496 0
-22.526293 4.2408462 -1.2012899 0
-22.527464 4.1629086 -1.2006013 0
-22.533054 4.0858603 -1.2001624 0
-22.538382 4.008822 -1.1997236 0
-22.551371 3.9331756 -1.1997063 0
-22.536581 3.8527818 -1.1982255 0
-22.639748 3.7923379 -1.2030278 0
-22.61244 3.7098644 -1.200909 0
-22.609888 3.6316411 -1.2001202 0
-22.635029 3.5578718 -1.2008147 0
-22.605484 3.4756036 -1.1986223 0
-22.644699 3.4039545 -1.2000898 0
-22.661535 3.3288271 -1.2003838 0
-22.661449 3.2512336 -1.1997951 0
-22.655529 3.1728976 -1.1989117 0
-22.636213 3.0928447 -1.1973341 0
-22.683308 3.0218418 -1.1992824 0
-22.689732 2.9453073 -1.1990932 0
-22.72224 2.8720932 -1.2002956 0
-22.715275 2.7938683 -1.1994261 0
-22.739626 2.7195001 -1.2002237 0
-22.74666 2.6430156 -1.2001204 0
-22.748314 2.565937 -1.1997471 0
-22.75596 2.4895611 -1.1997033 0
-22.754665 2.4122419 -1.1992019 0
-22.781563 2.3378797 -1.2001996 0
-22.783161 2.2608778 -1.1998777 0
-22.803644 2.1857264 -1.2005638 0
-22.798231 2.1080916 -1.1998999 0
-22.823788 2.0332999 -1.2008795 0
-22.829901 1.9567153 -1.2008492 0
-22.825092 1.8792347 -1.2002581 0
-22.833731 1.8028904 -1.2003877 0
-22.806339 1.7238055 -1.1986371 0
-22.879534 1.6522081 -1.2021861 0
-22.845932 1.5728023 -1.2001368 0
-22.857225 1.4965979 -1.2004596 0
-22.847555 1.4190493 -1.1996951 0
-22.841732 1.3418237 -1.1991464 0
-22.880375 1.2671303 -1.2009454 0
-22.856621 1.1889595 -1.1994826 0
-22.882639 1.1133971 -1.2006452 0
-22.879555 1.0363668 -1.2002944 0
-22.873421 0.95925248 -1.199797 0
-22.884266 0.88285613 -1.2002039 0
-22.891546 0.80628127 -1.2004373 0
-22.901735 0.72976834 -1.2008365 0
-22.891855 0.65263128 -1.200197 0
-22.894773 0.57589716 -1.200242 0
-22.889942 0.49898747 -1.1998943 0
-22.86788 0.42180353 -1.1986568 0
-22.909803 0.34574279 -1.2007868 0
-22.890036 0.26868448 -1.1996968 0
-22.886896 0.1919042 -1.1994917 0
-22.898863 0.1152253 -1.200092 0
-22.915218 0.038476117 -1.2009356 0
-22.909376 6.0792088e-05 -1.2006278 0
-68.726685 -0.11539649 -1.1996286 0
-68.767921 -0.34603482 -1.200362 0
-68.737053 -0.57635283 -1.1998501 0
-68.73143 -0.80677325 -1.1997925 0
-68.727699 -1.0372026 -1.1997813 0
-68.720596 -1.2675679 -1.1997247 0
-68.730873 -1.4982932 -1.199985 0
-68.73056 -1.7288545 -1.2000741 0
-68.720848 -1.9591848 -1.2000124 0
-68.690598 -2.1888394 -1.1996056 0
-68.695839 -2.4195905 -1.1998321 0
-68.690384 -2.6500185 -1.1998852 0
-68.695602 -2.8809173 -1.2001384 0
-68.668442 -3.1104491 -1.1998394 0
-68.664238 -3.3409855 -1.1999549 0
-68.6632 -3.571734 -1.2001393 0
-68.652641 -3.8020282 -1.2001708 0
-68.626068 -4.0313969 -1.1999358 0
-68.630478 -4.2626019 -1.2002561 0
-68.624954 -4.4932823 -1.2004162 0
-68.592064 -4.7221432 -1.200111 0
-68.576294 -4.9521246 -1.2001188 0
-68.585884 -5.1840296 -1.2005842 0
-68.549004 -5.412447 -1.2002496 0
-68.520264 -5.6414075 -1.2000707 0
-68.486618 -5.8698821 -1.1998194 0
-68.456841 -6.0986061 -1.1996491 0
-68.426407 -6.3272076 -1.1994809 0
-68.435883 -6.5595708 -1.2000258 0
-68.428688 -6.7904935 -1.2002921 0
-68.392227 -7.018518 -1.2000586 0
-68.355782 -7.2464561 -1.1998386 0
-68.363136 -7.479104 -1.2004011 0
-68.316833 -7.7059202 -1.200035 0
-68.310417 -7.9372311 -1.2003829 0
-68.251465 -8.1623964 -1.1998212 0
-68.236511 -8.3927593 -1.2000463 0
-68.226234 -8.6238022 -1.2003673 0
-68.201706 -8.8531227 -1.2004513 0
-68.178497 -9.082654 -1.200572 0
-68.111252 -9.3062181 -1.1999305 0
-68.086464 -9.5354815 -1.2000504 0
-68.04734 -9.7627373 -1.1999309 0
-68.00901 -9.9900665 -1.199839 0
-67.986809 -10.219788 -1.2000451 0
-67.962097 -10.449204 -1.2002206 0
-67.900009 -10.672817 -1.1997492 0
-67.854492 -10.898911 -1.1995839 0
-67.853645 -11.132272 -1.2002221 0
-67.80246 -11.357451 -1.1999835 0
-67.784157 -11.588162 -1.2003405 0
-67.740273 -11.814553 -1.200258 0
-67.676468 -12.037374 -1.199836 0
-67.615685 -12.260577 -1.1994804 0
-67.608383 -12.493527 -1.2000871 0
-67.546127 -12.716373 -1.1997322 0
-67.516953 -12.945424 -1.1999781 0
-67.486229 -13.174273 -1.2002105 0
-67.379333 -13.38808 -1.1991009 0
-67.400146 -13.627275 -1.2002776 0
-67.344925 -13.851295 -1.2001145 0
-67.297951 -14.07698 -1.2001117 0
-67.252052 -14.302896 -1.2001418 0
-67.178589 -14.522865 -1.1996928 0
-67.164177 -14.755635 -1.2003124 0
-67.081337 -14.973378 -1.1997223 0
-67.043098 -15.201002 -1.1999432 0
-66.993317 -15.426059 -1.1999711 0
-66.925095 -15.646819 -1.1996821 0
-66.897156 -15.877026 -1.2001287 0
-66.830803 -16.09816 -1.1998999 0
-66.774651 -16.321701 -1.1998675 0
-66.740776 -16.550755 -1.2002492 0
-66.663765 -16.769112 -1.1998687 0
-66.607933 -16.992725 -1.1998824 0
-66.563416 -17.219273 -1.2001138 0
-66.48172 -17.436163 -1.1996881 0
-66.428391 -17.660429 -1.1997875 0
-66.367073 -17.882586 -1.1997563 0
-66.318291 -18.108154 -1.1999652 0
-66.277725 -18.336082 -1.2003368 0
-66.169144 -18.545099 -1.1994897 0
-66.119377 -18.770475 -1.1997216 0
-66.069084 -18.995798 -1.199958 0
-65.982536 -19.210661 -1.1995492 0
-65.95723 -19.443417 -1.2002674 0
-65.885597 -19.662638 -1.2001568 0
-65.799797 -19.877537 -1.1998012 0
-65.739342 -20.100046 -1.199921 0
-65.642578 -20.311369 -1.199391 0
-65.602409 -20.540205 -1.1999087 0
-65.536575 -20.76112 -1.1999711 0
-65.469513 -20.981667 -1.2000244 0
-65.394585 -21.199692 -1.1999471 0
-65.312721 -21.415411 -1.1997557 0
-65.256569 -21.639584 -1.2000502 0
-65.160362 -21.850447 -1.1996216 0
-65.124252 -22.081516 -1.2003131 0
-65.053886 -22.301123 -1.2003875 0
-64.956017 -22.511234 -1.1999676 0
-64.891739 -22.732944 -1.2001815 0
-64.822098 -22.952845 -1.20031 0
-64.757957 -23.174768 -1.2005544 0
-64.664421 -23.386162 -1.2002672 0
-64.558044 -23.592752 -1.1997542 0
-64.492958 -23.814381 -1.2000217 0
-64.416893 -24.032024 -1.200099 0
-64.315697 -24.240231 -1.199721 0
-64.251976 -24.462553 -1.2000556 0
-64.157036 -24.67301 -1.1998206 0
-64.068657 -24.885921 -1.1997216 0
-64.008751 -25.109964 -1.2001696 0
-63.911938 -25.319572 -1.1999393 0
-63.835426 -25.53721 -1.2001035 0
-63.74506 -25.749325 -1.200021 0
-63.640778 -25.95573 -1.1996894 0
-63.567623 -26.174818 -1.199958 0
-63.466961 -26.382586 -1.1997207 0
-63.401585 -26.605064 -1.2001644 0
-63.30962 -26.816469 -1.2001188 0
-63.220764 -27.029188 -1.2001456 0
-63.140354 -27.245562 -1.2003465 0
-63.048355 -27.45698 -1.2003409 0
-62.931606 -27.657518 -1.1998769 0
-62.810673 -27.85601 -1.1993451 0
-62.738186 -28.075962 -1.1997517 0
-62.648708 -28.288414 -1.1998477 0
-62.556126 -28.499496 -1.1998978 0
-62.468616 -28.712933 -1.2000591 0
-62.382744 -28.927202 -1.2002659 0
-62.293995 -29.140215 -1.2004315 0
-62.160236 -29.33206 -1.1997422 0
-62.085239 -29.551588 -1.2002003 0
-61.956139 -29.745337 -1.1996258 0
-61.865631 -29.957531 -1.1998115 0
-61.787979 -30.176086 -1.2002609 0
-61.681461 -30.380619 -1.2001636 0
-61.573677 -30.584484 -1.200055 0
-61.463253 -30.786983 -1.1999079 0
-61.377544 -31.001905 -1.2002572 0
-61.263119 -31.202356 -1.2000586 0
-61.166229 -31.41173 -1.200217 0
-61.042194 -31.607119 -1.1998558 0
-60.942616 -31.815121 -1.1999885 0
-60.848801 -32.026218 -1.2002488 0
-60.725208 -32.22163 -1.1999352 0
-60.614071 -32.423569 -1.1998804 0
-60.489803 -32.618408 -1.1995786 0
-60.391209 -32.827076 -1.1997994 0
-60.287666 -33.033131 -1.1999359 0
-60.156181 -33.223816 -1.1995293 0
-60.075909 -33.442833 -1.2001578 0
-59.937172 -33.629326 -1.1996319 0
-59.849918 -33.844707 -1.20015 0
-59.723557 -34.038029 -1.1998979 0
-59.635185 -34.253063 -1.200423 0
-59.485077 -34.432598 -1.1997185 0
-59.368153 -34.63118 -1.1996955 0
-59.237637 -34.821766 -1.1994106 0
-59.125668 -35.023212 -1.1995143 0
-59.046829 -35.244484 -1.2003055 0
-58.91798 -35.436035 -1.2000947 0
-58.774681 -35.618736 -1.1996017 0
-58.675816 -35.82835 -1.2000288 0
-58.548031 -36.020367 -1.1998786 0
-58.447731 -36.229359 -1.2003057 0
-58.316715 -36.419365 -1.200116 0
-58.189964 -36.611969 -1.200027 0
-58.069485 -36.80851 -1.2000808 0
-57.9263 -36.990582 -1.1996781 0
-57.798618 -37.182446 -1.1996089 0
-57.699265 -37.392639 -1.200142 0
-57.534187 -37.560173 -1.1993212 0
-57.459396 -37.786705 -1.2003963 0
-57.314156 -37.967072 -1.2000147 0
-57.179562 -38.154366 -1.1998683 0
-57.082664 -38.366936 -1.2005277 0
-56.916988 -38.533249 -1.1997536 0
-56.799385 -38.731987 -1.2000053 0
-56.648815 -38.908199 -1.1995735 0
-56.532585 -39.107975 -1.1998821 0
-56.396255 -39.293888 -1.1997781 0
-56.279961 -39.49382 -1.2001144 0
-56.13884 -39.676365 -1.199935 0
-56.007069 -39.865482 -1.1999687 0
-55.875298 -40.054623 -1.200016 0
-55.738033 -40.239819 -1.1999589 0
-55.630264 -40.446438 -1.2005515 0
-55.471691 -40.616142 -1.2000614 0
-55.330151 -40.798176 -1.199952 0
-55.193741 -40.983971 -1.1999669 0
-55.032379 -41.151119 -1.1994517 0
-54.914085 -41.350452 -1.1998885 0
-54.780117 -41.538109 -1.1999975 0
-54.643467 -41.723782 -1.2000619 0
-54.495289 -41.90062 -1.1998862 0
-54.367062 -42.092823 -1.2001635 0
-54.20039 -42.255196 -1.199605 0
-54.084064 -42.456821 -1.2001742 0
-53.936737 -42.63422 -1.2000701 0
-53.787594 -42.810127 -1.1999387 0
-53.634251 -42.982609 -1.199726 0
-53.470478 -43.146572 -1.1992918 0
-53.362129 -43.355354 -1.2001153 0
-53.206059 -43.525509 -1.1998806 0
-53.076992 -43.717793 -1.2002687 0
-52.899715 -43.870293 -1.1995794 0
-52.773861 -44.065384 -1.200069 0
-52.606747 -44.226044 -1.1996341 0
-52.483341 -44.423481 -1.2002096 0
-52.323929 -44.590527 -1.1999763 0
-52.169224 -44.761497 -1.1998634 0
-52.028206 -44.944241 -1.2000792 0
-51.90052 -45.138691 -1.2006181 0
-51.735714 -45.300915 -1.2003125 0
-51.585327 -45.475697 -1.2003541 0
-51.407566 -45.626209 -1.1997707 0
-51.253086 -45.797226 -1.1997422 0
-51.082985 -45.954182 -1.1993604 0
-50.949253 -46.143879 -1.1998463 0
-50.805622 -46.324806 -1.2001147 0
-50.653656 -46.49823 -1.2002009 0
-50.482677 -46.654125 -1.1998492 0
-50.338657 -46.834927 -1.2001518 0
-50.17672 -46.999104 -1.2000411 0
-50.004368 -47.153412 -1.1996934 0
-49.87027 -47.343849 -1.2002778 0
-49.690643 -47.491089 -1.1997801 0
-49.538494 -47.664509 -1.1999584 0
-49.363865 -47.81625 -1.1996051 0
-49.199421 -47.977737 -1.1995113 0
-49.062862 -48.166553 -1.2001125 0
-48.881195 -48.311111 -1.1996241 0
-48.746132 -48.501785 -1.2002937 0
-48.5854 -48.66711 -1.2003469 0
