# .PCD v0.7 - Point Cloud Data file format
VERSION 0.7
FIELDS x y z intensity
SIZE 4 4 4 4
TYPE F F F F
COUNT 1 1 1 1
WIDTH 1413
HEIGHT 1
VIEWPOINT 0 0 0 1 0 0 0
POINTS 1413
DATA ascii
3.816133 -4.8444915 -1.1987429 0
3.8319128 -4.8311129 -1.1986047 0
3.8420937 -4.8107309 -1.1967373 0
3.8697045 -4.8121266 -1.2003052 0
3.8678193 -4.7768974 -1.1947459 0
3.8983078 -4.7816815 -1.1992047 0
3.9199376 -4.7754302 -1.2009263 0
3.9401925 -4.7674217 -1.2022278 0
3.9512045 -4.7482357 -1.2007236 0
3.9792156 -4.7494197 -1.2043899 0
3.9868386 -4.7262373 -1.2018942 0
4.0031557 -4.7134242 -1.2020423 0
4.0226998 -4.7043772 -1.203168 0
4.022645 -4.6725049 -1.1984591 0
4.0546365 -4.6778522 -1.2033108 0
4.084075 -4.6800194 -1.2073839 0
4.0897307 -4.6549039 -1.2044352 0
4.0776582 -4.609899 -1.1963212 0
4.1138897 -4.6195564 -1.2024001 0
4.1343713 -4.6113324 -1.2038608 0
4.144856 -4.5919576 -1.2024239 0
4.1560597 -4.5734472 -1.201219 0
4.1709108 -4.5589843 -1.2010866 0
4.1778426 -4.5359302 -1.1986965 0
4.2035213 -4.5332146 -1.2016965 0
4.2135272 -4.5135579 -1.200224 0
4.2172365 -4.4872751 -1.1969883 0
4.2442985 -4.4858365 -1.2003937 0
4.2484665 -4.4601917 -1.1973363 0
4.2973642 -4.4813442 -1.2068759 0
4.2972341 -4.4512372 -1.2026411 0
4.3159113 -4.440691 -1.2036947 0
4.3139176 -4.4089661 -1.1990091 0
4.3420334 -4.4080381 -1.2027091 0
4.3348212 -4.3713036 -1.1966449 0
4.362185 -4.3694983 -1.2001479 0
4.3846488 -4.3626471 -1.2022971 0
4.380898 -4.3297825 -1.1972812 0
4.3876395 -4.3074608 -1.1951699 0
4.4179525 -4.3082261 -1.1994855 0
4.4250541 -4.2863002 -1.1975051 0
4.4662552 -4.2972789 -1.2047491 0
4.4697771 -4.2719002 -1.2018288 0
4.4756064 -4.2488503 -1.1995591 0
4.4967203 -4.2403212 -1.2014009 0
4.5137367 -4.2278662 -1.2021532 0
4.5195665 -4.204968 -1.1999443 0
4.5414238 -4.1969848 -1.2020044 0
4.5779095 -4.202333 -1.2079253 0
4.5599318 -4.1577454 -1.1994967 0
4.5629883 -4.1325994 -1.1966492 0
4.608243 -4.1455469 -1.2048655 0
4.5972996 -4.1078978 -1.1983963 0
4.6324968 -4.1114988 -1.2039711 0
4.6252108 -4.0773911 -1.1985178 0
4.6412306 -4.0639405 -1.1991315 0
4.654952 -4.0484624 -1.1991628 0
4.6809497 -4.0435872 -1.2023607 0
4.6721334 -4.0086966 -1.1966373 0
4.7045527 -4.0092049 -1.2014909 0
4.693768 -3.9729254 -1.195328 0
4.7291837 -3.9757631 -1.2009456 0
4.7229228 -3.9435489 -1.1959913 0
4.7516336 -3.9405587 -1.1999093 0
4.775712 -3.9335775 -1.2026526 0
4.7901053 -3.9185507 -1.2029618 0
4.7841048 -3.8869407 -1.1981753 0
4.7990794 -3.8724678 -1.1986672 0
4.8298321 -3.8706172 -1.2031001 0
4.8220987 -3.8379397 -1.1979617 0
4.8415117 -3.8269455 -1.19959 0
4.8514333 -3.8084285 -1.1988778 0
4.8676591 -3.7948577 -1.1997366 0
4.8933272 -3.7885594 -1.2029254 0
4.9134483 -3.7778571 -1.2047513 0
4.8979282 -3.7398608 -1.1978645 0
4.9074693 -3.7211657 -1.19714 0
4.9343143 -3.7155311 -1.2006429 0
4.9526114 -3.7033539 -1.202067 0
4.9556274 -3.6797683 -1.1997977 0
4.9640026 -3.6602309 -1.1988475 0
4.9715552 -3.640132 -1.1977173 0
4.9730434 -3.6156719 -1.1951486 0
5.0013833 -3.6107059 -1.1990433 0
5.0166388 -3.5961947 -1.1998032 0
5.036099 -3.5846438 -1.2015761 0
5.0421467 -3.5635386 -1.2001616 0
5.0401907 -3.5368764 -1.1968668 0
5.0599837 -3.5255058 -1.1987532 0
5.0801716 -3.514329 -1.2007376 0
5.0980535 -3.5014849 -1.2021825 0
5.0937266 -3.4734359 -1.1984092 0
5.1194301 -3.4658747 -1.2017158 0
5.1189494 -3.4405766 -1.1988884 0
5.1429968 -3.4317622 -1.2018189 0
5.1320381 -3.3996372 -1.1965878 0
5.162972 -3.3952773 -1.2011393 0
5.1947956 -3.3913102 -1.2058908 0
5.1908073 -3.3639398 -1.2023401 0
5.1806865 -3.3327694 -1.1974008 0
5.2060657 -3.3244705 -1.2006837 0
5.2098083 -3.3023224 -1.1989865 0
5.2399349 -3.2968435 -1.2033693 0
5.2299981 -3.266166 -1.1985655 0
5.2607493 -3.2609041 -1.2031004 0
5.2566547 -3.2340202 -1.1996776 0
5.2664719 -3.2157688 -1.1994506 0
5.2662134 -3.1914208 -1.1969481 0
5.2820115 -3.1768303 -1.1981112 0
5.3131618 -3.171356 -1.2027582 0
5.3084059 -3.1444263 -1.1992884 0
5.3113141 -3.1221402 -1.1975735 0
5.3343639 -3.1116714 -1.2004117 0
5.3281426 -3.0841463 -1.196678 0
5.3589883 -3.0780597 -1.2012812 0
5.3667865 -3.0586543 -1.2007236 0
5.3520803 -3.026545 -1.1951565 0
5.3914261 -3.0249827 -1.201671 0
5.410387 -3.0118153 -1.2036396 0
5.4040065 -2.9845743 -1.1999872 0
5.4131899 -2.9660044 -1.1998115 0
5.4622083 -2.9690943 -1.2084628 0
5.4288716 -2.9274361 -1.1989093 0
5.4308014 -2.9050159 -1.1971776 0
5.4508052 -2.8922534 -1.1994429 0
5.4768147 -2.8825634 -1.2030327 0
5.471168 -2.8562074 -1.1996822 0
5.4791274 -2.8370261 -1.199335 0
5.5230336 -2.8363185 -1.2068573 0
5.5068827 -2.8047314 -1.2012665 0
5.5115237 -2.7838621 -1.2002361 0
5.5562825 -2.7831273 -1.2079443 0
5.5055571 -2.7346671 -1.1949165 0
5.5169001 -2.7172787 -1.1953943 0
5.561296 -2.7160139 -1.2030339 0
5.5383387 -2.6818416 -1.196116 0
5.5766397 -2.6773441 -1.2024424 0
5.582149 -2.656996 -1.2017027 0
5.5897384 -2.6376576 -1.2014259 0
5.6062765 -2.6225154 -1.2030839 0
5.605782 -2.5994122 -1.2011008 0
5.6090641 -2.5781195 -1.1999451 0
5.5996308 -2.5510776 -1.1960906 0
5.6133866 -2.5346522 -1.1972069 0
5.1237035 -2.292892 -1.091123 0
5.1225638 -2.2717981 -1.089252 0
5.1233864 -2.251637 -1.0878155 0
5.1241961 -2.231524 -1.0863928 0
5.127933 -2.2127275 -1.085606 0
5.1309342 -2.1936457 -1.0846783 0
5.1515803 -2.1820724 -1.0874901 0
5.1365108 -2.1554065 -1.0827773 0
5.1146483 -2.1260927 -1.0766599 0
5.1407781 -2.1167681 -1.0806603 0
5.1279554 -2.0914078 -1.0764848 0
5.1483202 -2.0796082 -1.07929 0
5.2105327 -2.0844452 -1.090861 0
5.2603645 -2.0839479 -1.0998247 0
5.286788 -2.0739355 -1.1038891 0
5.3710775 -2.0862489 -1.1200221 0
5.4104981 -2.0807104 -1.1267813 0
5.4859252 -2.0886309 -1.1410248 0
5.7460089 -2.1656215 -1.193603 0
5.7919331 -2.1607802 -1.2016311 0
5.7930298 -2.1390905 -1.2003639 0
5.7760053 -2.1108248 -1.195363 0
5.8181987 -2.1041589 -1.2026284 0
5.8113589 -2.079679 -1.1997665 0
5.8246837 -2.0624437 -1.2010832 0
5.7970066 -2.0307963 -1.1939652 0
5.8456268 -2.0258501 -1.2025734 0
5.8602629 -2.0089393 -1.2041919 0
5.8565326 -1.9857422 -1.2020506 0
5.8863482 -1.9738718 -1.2068051 0
5.8479185 -1.9391978 -1.1975865 0
5.8605366 -1.9215963 -1.1988444 0
5.8909006 -1.9097016 -1.2037393 0
5.8900824 -1.8876362 -1.2022721 0
5.8957658 -1.8676833 -1.2021472 0
5.8938417 -1.8453528 -1.2004867 0
5.913311 -1.8297015 -1.2031959 0
5.8857436 -1.7995706 -1.1963522 0
5.9036269 -1.7834164 -1.1987652 0
5.9259315 -1.7684945 -1.2020833 0
5.9241447 -1.7463512 -1.2005265 0
5.9144497 -1.7219611 -1.1973851 0
5.9348283 -1.7063302 -1.2003458 0
5.9242206 -1.6817962 -1.1970531 0
5.9373503 -1.6640328 -1.198572 0
5.9362288 -1.6422721 -1.1972274 0
5.9527493 -1.6253763 -1.1994534 0
5.9675608 -1.6079403 -1.2013448 0
5.9520559 -1.5823767 -1.1971487 0
5.9598842 -1.5630822 -1.1976625 0
5.989399 -1.5493791 -1.2025428 0
5.9877806 -1.5275595 -1.2011828 0
5.964613 -1.5003675 -1.1955194 0
5.9682436 -1.480022 -1.1952457 0
6.0187788 -1.4711508 -1.2043718 0
6.011415 -1.4480089 -1.20192 0
6.0079975 -1.4258904 -1.2002741 0
5.9964786 -1.4019358 -1.1970271 0
6.0508237 -1.3932618 -1.2069362 0
1.6619852 -0.37682521 -0.33125639 0
1.6539189 -0.36917037 -0.32940012 0
1.6615468 -0.36502892 -0.33067369 0
1.6824603 -0.36371455 -0.33459124 0
1.673353 -0.35587731 -0.3325409 0
1.7029994 -0.35621843 -0.33819321 0
1.7054453 -0.35076597 -0.33844349 0
1.7364992 -0.35108867 -0.34437054 0
1.7087888 -0.33952668 -0.33864754 0
1.7296324 -0.3376441 -0.34255207 0
1.7229056 -0.33033815 -0.34099856 0
1.6993411 -0.31991678 -0.33612049 0
1.738938 -0.32133809 -0.34373748 0
1.7303246 -0.31375054 -0.34182501 0
1.7366209 -0.30888185 -0.34286234 0
1.7624441 -0.30738235 -0.34775519 0
1.760703 -0.30099934 -0.34721056 0
1.7715595 -0.29674548 -0.34915331 0
1.7735462 -0.29096845 -0.34935063 0
1.7827424 -0.28634244 -0.35097098 0
1.7859004 -0.2807107 -0.35140544 0
1.7937464 -0.27578446 -0.35276535 0
1.7974204 -0.27018359 -0.35330775 0
1.7990628 -0.26426536 -0.35345447 0
1.825125 -0.26184535 -0.35840029 0
1.8258866 -0.25570974 -0.35837948 0
1.8293291 -0.24994107 -0.35888866 0
1.8375928 -0.24479686 -0.36034682 0
1.8557516 -0.24088629 -0.3637473 0
1.8515446 -0.23403043 -0.36276683 0
1.8643346 -0.22929907 -0.36512005 0
1.8788475 -0.22469193 -0.36781272 0
1.8403373 -0.21383041 -0.36013138 0
1.8998151 -0.21428795 -0.37162778 0
1.8584621 -0.20331559 -0.36340323 0
1.9148958 -0.20299464 -0.37430307 0
1.8995198 -0.1949266 -0.37116769 0
1.9147263 -0.19000195 -0.37401247 0
1.9278136 -0.18477553 -0.37644577 0
1.957478 -0.18099752 -0.38211769 0
1.9418597 -0.17298903 -0.37895352 0
1.9586473 -0.16786739 -0.38211763 0
1.9634261 -0.16164747 -0.38294205 0
1.9709857 -0.1556185 -0.38431251 0
1.9908421 -0.15047148 -0.38808367 0
2.0014801 -0.14452828 -0.39006075 0
1.9849945 -0.1366494 -0.38675645 0
2.0033987 -0.13116904 -0.39025444 0
2.0096743 -0.12481443 -0.39139321 0
2.0286372 -0.11916567 -0.39500627 0
2.0062959 -0.11110464 -0.39058137 0
2.0306361 -0.10562456 -0.39524868 0
2.0369203 -0.099104702 -0.39640495 0
2.0623074 -0.09341009 -0.40128231 0
2.0612991 -0.086440109 -0.40102747 0
2.0851297 -0.080437049 -0.40560901 0
2.0687323 -0.072858959 -0.40236953 0
2.0717218 -0.066010326 -0.40290567 0
2.1238627 -0.060544249 -0.41300416 0
2.0968745 -0.052739397 -0.4077194 0
2.1182208 -0.046170358 -0.41183758 0
2.1425164 -0.039513543 -0.41653317 0
2.1276584 -0.032103863 -0.41362134 0
2.1555307 -0.025296016 -0.41902095 0
2.1477177 -0.018002685 -0.41748807 0
2.1605349 -0.01086591 -0.4199701 0
2.2069032 -0.0036996754 -0.4289785 0
2.2183797 0.0037189147 -0.43120927 0
2.1972921 0.011050772 -0.42711508 0
2.2121735 0.018542968 -0.43001741 0
2.2052491 0.02587948 -0.42868587 0
6.1530538 0.09284234 -1.1961669 0
6.161612 0.11363607 -1.1978979 0
6.1731825 0.13455541 -1.2002283 0
6.1757126 0.15532802 -1.2008147 0
6.1804357 0.17618361 -1.2018412 0
6.1720834 0.19665827 -1.2003385 0
6.1762176 0.21752104 -1.2012776 0
6.1658597 0.2378574 -1.1994113 0
6.1664715 0.2585896 -1.1996922 0
6.1580276 0.27892151 -1.1982247 0
6.1623931 0.29982626 -1.199263 0
6.1831536 0.32161987 -1.2035062 0
6.1659551 0.34145823 -1.2003748 0
6.1624327 0.36199197 -1.1999186 0
6.1640749 0.38283092 -1.2004815 0
6.1590018 0.40324992 -1.1997502 0
6.1427283 0.42287281 -1.1968496 0
6.1473355 0.44390336 -1.1980305 0
6.1353822 0.46372336 -1.1959972 0
6.1590943 0.48628923 -1.2009306 0
6.1400537 0.50550628 -1.1975418 0
6.1818962 0.5298242 -1.2060423 0
6.1572142 0.54851055 -1.201579 0
6.1567979 0.56928617 -1.2018635 0
6.1624751 0.59065598 -1.2033516 0
6.1598339 0.61125213 -1.2032293 0
6.1308651 0.62914252 -1.197976 0
6.1563663 0.65262526 -1.2033798 0
6.1205177 0.66958404 -1.1968045 0
6.1212945 0.69044596 -1.1974024 0
6.1458597 0.71409285 -1.2026691 0
6.1423573 0.73456639 -1.2024591 0
6.1136312 0.75193048 -1.1973224 0
6.1348376 0.77542752 -1.2019778 0
6.1187449 0.79424512 -1.1993399 0
6.1282763 0.81638473 -1.2017379 0
6.1155972 0.83557343 -1.1997942 0
6.1130605 0.8561151 -1.1998529 0
6.1249466 0.87872821 -1.2027574 0
6.1066628 0.89701116 -1.1997509 0
6.1281509 0.92116791 -1.2045726 0
6.1069784 0.93893415 -1.2010229 0
6.1100817 0.96039242 -1.2022597 0
6.0975146 0.97937721 -1.2004262 0
6.0831017 0.99799526 -1.1982408 0
6.0929036 1.0205932 -1.2008388 0
6.1020517 1.0431706 -1.2033244 0
6.1044154 1.064652 -1.2044877 0
6.0911627 1.0833968 -1.2025827 0
6.0711961 1.1008576 -1.1993626 0
6.0472608 1.1174723 -1.1953676 0
6.0751524 1.1437041 -1.2016323 0
6.0563111 1.1611958 -1.198669 0
6.0626388 1.1834967 -1.2006999 0
6.0499287 1.2020867 -1.1989741 0
6.065773 1.2263894 -1.2029223 0
6.0367451 1.2416024 -1.1979846 0
6.0348501 1.2623168 -1.1984416 0
6.0452018 1.2856523 -1.2013465 0
6.0422015 1.3062042 -1.2016139 0
6.0524116 1.3296678 -1.2045243 0
6.0133052 1.3422267 -1.1976303 0
6.0191317 1.3647298 -1.1996953 0
6.0037856 1.3824309 -1.1975538 0
5.9966974 1.4019871 -1.1970708 0
6.0069323 1.4256376 -1.2000613 0
6.0061817 1.4467484 -1.2008736 0
5.9926639 1.4647677 -1.1991462 0
5.9951954 1.4867055 -1.2006433 0
5.9786949 1.5039098 -1.198342 0
5.9897318 1.5280573 -1.2015742 0
5.9760089 1.5459154 -1.1998545 0
5.948175 1.5600113 -1.1953094 0
5.9671116 1.5863794 -1.2001768 0
5.9713001 1.6089479 -1.2020975 0
5.9501853 1.6246762 -1.1989367 0
5.9367337 1.6424118 -1.1973293 0
5.9703903 1.6732928 -1.2052418 0
5.9394341 1.6861151 -1.2001271 0
5.9174237 1.7013261 -1.1968256 0
5.9233303 1.7245468 -1.199183 0
5.8997951 1.7391733 -1.195592 0
5.9173646 1.7659378 -1.2003456 0
5.9031549 1.7832738 -1.1986692 0
5.9255943 1.8117551 -1.2044524 0
5.8749924 1.8178447 -1.195399 0
5.8926916 1.8449926 -1.2002523 0
5.8867965 1.8648419 -1.2003183 0
5.8578157 1.8772954 -1.1956859 0
5.8702679 1.903013 -1.1995232 0
5.8759317 1.9266441 -1.2019937 0
5.8692036 1.946256 -1.2019455 0
5.8542852 1.9631202 -1.2002317 0
5.8477902 1.9827781 -1.2002562 0
4.7230525 1.6190957 -0.97051311 0
4.6859441 1.6239524 -0.9640013 0
4.655458 1.6308911 -0.95884913 0
4.5978031 1.6280215 -0.9480933 0
4.5505037 1.6284636 -0.93946046 0
4.4870715 1.6227551 -0.9274829 0
4.45046 1.6264082 -0.92103726 0
4.4490957 1.6428397 -0.92188966 0
4.4580092 1.663137 -0.92488682 0
4.4611797 1.6813804 -0.92670888 0
4.4652429 1.7000312 -0.92873174 0
4.4615378 1.7157696 -0.92915243 0
4.4452167 1.7266234 -0.92695385 0
4.4496202 1.7455258 -0.92908728 0
4.4499822 1.7629066 -0.93039179 0
4.455215 1.7822846 -0.93273002 0
4.4556284 1.7998029 -0.9340747 0
4.4553428 1.8170865 -0.9352867 0
4.4623442 1.8374159 -0.93804443 0
5.6973009 2.3682938 -1.1993114 0
5.6874542 2.3865957 -1.1989162 0
5.6858106 2.4083581 -1.2002652 0
5.6976318 2.4359281 -1.204478 0
5.6728172 2.4478478 -1.2009604 0
5.6620016 2.4657319 -1.2004142 0
5.6526308 2.4842305 -1.2001866 0
5.6504698 2.5059183 -1.2015049 0
5.644352 2.5258856 -1.2019981 0
5.6242814 2.5395715 -1.1995305 0
5.5993958 2.5509706 -1.1960404 0
5.5776062 2.5636604 -1.1932154 0
5.6080494 2.6004634 -1.2015866 0
5.5828619 2.6115627 -1.1980592 0
5.6256437 2.6546006 -1.2091433 0
5.5889707 2.660243 -1.2031713 0
5.5515437 2.6652954 -1.1970311 0
5.5414538 2.6833501 -1.1967887 0
5.5550728 2.7129745 -1.2016877 0
5.5534439 2.7352779 -1.2033125 0
5.5218711 2.7427704 -1.1984572 0
5.5190959 2.7645006 -1.1998599 0
5.5007434 2.7784169 -1.1978885 0
5.5195165 2.811166 -1.2040224 0
5.5047197 2.8269136 -1.2028555 0
5.4592419 2.8267298 -1.1949822 0
5.4699621 2.8555777 -1.1994178 0
5.4602389 2.8738394 -1.1993918 0
5.4431229 2.8881772 -1.1977525 0
5.4346218 2.9070597 -1.1980199 0
5.4291592 2.9275913 -1.1989727 0
5.434556 2.9540634 -1.2023451 0
5.4235182 2.9716637 -1.2021008 0
5.4154286 2.9908826 -1.2025236 0
5.3982329 3.0050495 -1.2009357 0
5.3534079 3.0036516 -1.1931973 0
5.3768048 3.0405264 -1.2006775 0
5.3729239 3.0621521 -1.2020968 0
5.3702173 3.0845091 -1.2037983 0
5.363843 3.1048112 -1.2046962 0
5.3322983 3.1104667 -1.1999469 0
5.3360043 3.1366539 -1.2031407 0
5.3053789 3.142633 -1.1986043 0
5.3157296 3.1728885 -1.2033395 0
5.2894573 3.1813083 -1.1998 0
5.2651391 3.1907699 -1.1967039 0
5.2798772 3.2239544 -1.2025037 0
5.2518182 3.2310445 -1.1985738 0
5.2430882 3.2499568 -1.1990615 0
5.2261715 3.2637763 -1.1976886 0
5.2143674 3.280757 -1.1974975 0
5.2428741 3.3232815 -1.2065963 0
5.1973257 3.3188891 -1.198668 0
5.171279 3.3267176 -1.1952266 0
5.1841936 3.3596535 -1.2008082 0
5.1549172 3.3652766 -1.1966337 0
5.163084 3.3953512 -1.2011654 0
5.1574812 3.4164917 -1.2025201 0
5.145947 3.4337306 -1.2025083 0
5.1260757 3.4453664 -1.2005575 0
5.0978708 3.4512787 -1.196655 0
5.1110821 3.4852707 -1.2024926 0
5.0804186 3.4893727 -1.198024 0
5.0778418 3.5127172 -1.200187 0
5.0681124 3.5311692 -1.2006789 0
5.0541849 3.5466967 -1.2001898 0
5.0621042 3.5776439 -1.2049121 0
5.0169783 3.571034 -1.1970141 0
5.0072503 3.5894644 -1.1975577 0
5.0032468 3.612051 -1.19949 0
4.9843292 3.6238773 -1.1978608 0
4.9855995 3.6504152 -1.2011007 0
4.9497938 3.649754 -1.195416 0
4.9448671 3.6717782 -1.1971925 0
4.9526296 3.7033675 -1.2020714 0
4.9341807 3.7154307 -1.2006104 0
4.9327922 3.7403669 -1.2033172 0
4.9178514 3.7550733 -1.2027371 0
4.8894029 3.7593687 -1.1988554 0
4.9047627 3.7974129 -1.2057366 0
4.8823953 3.8063459 -1.2033685 0
4.8488822 3.8064263 -1.1982474 0
4.8393016 3.8251984 -1.1990424 0
4.8062329 3.8253119 -1.19402 0
4.8524981 3.8887818 -1.2087462 0
4.8016939 3.8745773 -1.1993202 0
4.7990308 3.8990676 -1.2019135 0
4.7706347 3.9026227 -1.198072 0
4.7697096 3.9286332 -1.2011409 0
4.7545958 3.9430151 -1.2006574 0
4.7363601 3.9547687 -1.199394 0
4.7181067 3.9664507 -1.1981326 0
4.704987 3.9824214 -1.198185 0
4.6944346 4.0005827 -1.1989069 0
4.6824794 4.0175734 -1.1992871 0
4.6775522 4.0406523 -1.2014881 0
4.6746187 4.065567 -1.2042292 0
4.6481051 4.0699596 -1.2009076 0
4.6232204 4.0756369 -1.1980021 0
4.6126933 4.0939226 -1.1988243 0
4.6012254 4.1114058 -1.1994197 0
4.6067743 4.1442256 -1.2044815 0
4.5875816 4.1548734 -1.2030989 0
4.5725198 4.1692228 -1.202808 0
4.541111 4.1685538 -1.1982157 0
4.5221548 4.1791773 -1.1969044 0
4.5127535 4.1986289 -1.1981353 0
4.5064692 4.2210593 -1.2002176 0
4.5005774 4.2439585 -1.2024313 0
4.4721708 4.2455888 -1.1986382 0
4.4551382 4.2579093 -1.1978927 0
4.4461842 4.277967 -1.199335 0
4.4428282 4.3035169 -1.2023151 0
4.4172044 4.3074965 -1.1992825 0
4.4029579 4.3224988 -1.1993426 0
4.3907003 4.3394704 -1.1999601 0
4.3722038 4.3502641 -1.1988845 0
4.3785934 4.3859339 -1.2046622 0
4.3562636 4.3929262 -1.2025641 0
4.334589 4.4004803 -1.200647 0
4.3316031 4.4270406 -1.2039245 0
4.3062263 4.4307261 -1.2009935 0
4.2912135 4.4450006 -1.2009562 0
4.2722855 4.4551916 -1.1998327 0
4.2588081 4.4710493 -1.200251 0
4.2291112 4.4697847 -1.1960984 0
4.2282624 4.4990072 -1.2001178 0
4.1942983 4.4929595 -1.1947466 0
4.2040286 4.533762 -1.2018416 0
4.1787806 4.5369487 -1.1989655 0
4.1732764 4.5615702 -1.2017678 0
4.1541681 4.5713654 -1.2006721 0
4.1516528 4.5994873 -1.2043957 0
4.1036706 4.5770898 -1.1949213 0
4.1108994 4.6161985 -1.2015262 0
4.0961475 4.6308022 -1.2017457 0
4.0563083 4.6168628 -1.1945922 0
4.0568099 4.6487761 -1.1993235 0
4.0314269 4.6510754 -1.1964229 0
4.0261941 4.6766276 -1.1995165 0
4.0134153 4.6935191 -1.2003911 0
3.9907646 4.6988349 -1.1983217 0
3.9863932 4.7257094 -1.2017601 0
3.9572294 4.7231774 -1.1977353 0
3.9520788 4.7492862 -1.2009892 0
3.9302878 4.7554379 -1.1992058 0
3.8960154 4.7462873 -1.1935974 0
3.9012012 4.7852302 -1.2000947 0
3.8968627 4.812767 -1.2037172 0
3.8741593 4.8176665 -1.2016871 0
3.8364365 4.803648 -1.1949753 0
3.8254333 4.8229437 -1.1965779 0
3.8178101 4.8466206 -1.1992697 0
3.8018341 4.8597713 -1.1993628 0
3.7699473 4.8524475 -1.1944292 0
3.7790258 4.8979406 -1.2025018 0
3.7559006 4.9018626 -1.2003663 0
3.7461679 4.923264 -1.2025244 0
3.7166219 4.9185681 -1.1983271 0
3.7208283 4.9586124 -1.205037 0
3.6941087 4.9575415 -1.2017599 0
3.6756866 4.967494 -1.2011783 0
3.6444898 4.9600272 -1.1964114 0
3.6281838 4.9726911 -1.196525 0
3.6264102 5.0054202 -1.201468 0
3.6097181 5.0177045 -1.2015047 0
3.6011455 5.041358 -1.2042707 0
3.568392 5.0310841 -1.1989517 0
3.549087 5.039588 -1.1981359 0
3.5295584 5.0477242 -1.1972499 0
3.5238435 5.0757036 -1.2010772 0
3.5034311 5.0825939 -1.1999214 0
3.4990485 5.1128373 -1.2042849 0
3.456003 5.0864453 -1.1953325 0
3.448077 5.1115646 -1.1985121 0
3.4240854 5.1128917 -1.1961247 0
3.4288938 5.1573887 -1.2038381 0
3.393436 5.1413617 -1.1974347 0
3.3773866 5.1545539 -1.197863 0
3.359447 5.1648674 -1.1976355 0
3.3609142 5.2052226 -1.2043735 0
3.3187189 5.177887 -1.1954672 0
3.2940874 5.1775861 -1.1928411 0
3.2919981 5.2128105 -1.1984067 0
3.2744553 5.2237444 -1.1983896 0
3.2562745 5.2336516 -1.1981511 0
3.235204 5.2388649 -1.1968546 0
3.2270927 5.2651358 -1.2003778 0
3.2151096 5.2852764 -1.2025052 0
3.1900744 5.2839403 -1.1997609 0
3.1663311 5.2845769 -1.1974882 0
3.1555083 5.3067899 -1.2001175 0
3.1422014 5.3249717 -1.20184 0
3.112314 5.3149571 -1.1972178 0
3.099694 5.334341 -1.1992364 0
3.0844781 5.3493633 -1.2002819 0
3.0705638 5.3667331 -1.2018626 0
3.0517693 5.3756175 -1.2015541 0
3.033077 5.3846622 -1.2012959 0
3.0158956 5.3963928 -1.2016503 0
2.9876812 5.3882508 -1.1975999 0
2.9783051 5.4140649 -1.2011112 0
2.9584346 5.4209023 -1.2004209 0
2.9364452 5.4237771 -1.1988704 0
2.9223175 5.4411769 -1.200544 0
2.8987169 5.4409194 -1.1983361 0
2.8798146 5.4493899 -1.1980683 0
2.8531663 5.4430633 -1.1945674 0
2.8421311 5.4665055 -1.1976143 0
2.8310978 5.4901814 -1.2007149 0
2.8018105 5.4784007 -1.1960771 0
2.7947121 5.5100136 -1.2009267 0
2.7725382 5.5120282 -1.199333 0
2.7585299 5.5302911 -1.2012875 0
2.7401309 5.5398293 -1.2013569 0
2.7306283 5.5675125 -1.205368 0
2.7064261 5.5652857 -1.2029147 0
2.6703124 5.5381603 -1.1951097 0
2.6655707 5.5760374 -1.2013481 0
2.6466134 5.5844221 -1.201236 0
2.6318676 5.6017623 -1.2030611 0
2.6175199 5.6201067 -1.2051092 0
2.5828702 5.5946455 -1.197786 0
2.5751414 5.6274071 -1.2029448 0
2.5480289 5.6178627 -1.1990715 0
2.5344455 5.6380906 -1.2015685 0
2.5127645 5.6403532 -1.2002485 0
2.4834764 5.6252737 -1.195261 0
2.479676 5.668025 -1.2025715 0
2.4628274 5.6813107 -1.2036315 0
2.4274535 5.6515598 -1.1955975 0
2.4297726 5.7096748 -1.2061619 0
2.3999026 5.69238 -1.2008016 0
2.3761458 5.6892414 -1.1984524 0
2.3519137 5.6847434 -1.195837 0
2.3304899 5.6868606 -1.1946319 0
2.320049 5.7159271 -1.199097 0
2.3048341 5.733531 -1.2011621 0
2.2866311 5.7438221 -1.2017051 0
2.2616434 5.7369547 -1.1986753 0
2.2490053 5.7614374 -1.2022084 0
2.2215641 5.7479582 -1.1978347 0
2.2142751 5.7867227 -1.2043592 0
2.1900609 5.7814426 -1.2017252 0
2.1586227 5.75664 -1.1950587 0
2.1444414 5.7776718 -1.1979253 0
2.128803 5.7950239 -1.2000365 0
2.1032693 5.7853718 -1.1965706 0
2.0901561 5.8098907 -1.2001858 0
2.0694222 5.8133759 -1.1994656 0
2.0540323 5.8319588 -1.2018721 0
2.0311301 5.8292356 -1.1999006 0
2.0017269 5.8074427 -1.1940267 0
1.9920601 5.8429117 -1.1999391 0
1.9682742 5.8371487 -1.1973937 0
1.9568402 5.8681483 -1.2024001 0
1.9379123 5.8769751 -1.2028706 0
1.9167163 5.8788981 -1.2019421 0
1.8890245 5.8605642 -1.1968921 0
1.8759843 5.8876405 -1.2011305 0
1.8468182 5.8640018 -1.1950381 0
1.839098 5.9085565 -1.2028545 0
1.8227921 5.926116 -1.2051784 0
1.7995386 5.9210925 -1.2029229 0
1.7778627 5.9210529 -1.2016971 0
1.7607455 5.936235 -1.2035735 0
1.7354959 5.9238892 -1.1998839 0
1.71838 5.9391985 -1.2018111 0
1.6939592 5.9291821 -1.1986282 0
1.674059 5.9347887 -1.1986202 0
1.6582043 5.9549232 -1.201557 0
1.6329793 5.9413476 -1.1977065 0
1.6182146 5.9658303 -1.2015413 0
1.5980825 5.9707713 -1.2014505 0
1.5778636 5.9753718 -1.201305 0
1.5612032 5.9936161 -1.2039137 0
1.5415633 6.0006237 -1.2042764 0
1.51508 5.98067 -1.1992456 0
1.4950473 5.9858279 -1.1992681 0
1.4737718 5.9859424 -1.1982942 0
1.4599783 6.0167489 -1.2034745 0
1.4332126 5.9940724 -1.1979709 0
1.4099672 5.9855123 -1.1953086 0
1.3994553 6.0314269 -1.2035339 0
1.3750488 6.017807 -1.1998894 0
1.3530612 6.0143681 -1.1982925 0
1.3388035 6.0455809 -1.2036102 0
1.3070511 5.9973817 -1.193135 0
1.2916533 6.0237312 -1.1975088 0
1.2766376 6.0526247 -1.2023951 0
1.2581676 6.0656958 -1.204147 0
1.2329893 6.0461755 -1.1994444 0
1.2195516 6.0844054 -1.2062105 0
1.1999571 6.0925841 -1.2070276 0
1.1698085 6.0463614 -1.1970865 0
1.1527948 6.0674353 -1.2004868 0
1.1303649 6.060112 -1.1982812 0
1.1151772 6.0919304 -1.2038265 0
1.0905398 6.072216 -1.1992016 0
1.0708669 6.0797682 -1.1999773 0
1.0503286 6.0824676 -1.1998082 0
1.0294842 6.083324 -1.1992896 0
1.0053715 6.0643592 -1.1948794 0
0.98850906 6.089107 -1.1990958 0
0.96729094 6.0873718 -1.1981088 0
0.95152587 6.120492 -1.2039927 0
0.92704928 6.0976644 -1.198884 0
0.90608418 6.0972686 -1.1982023 0
0.88545805 6.0990462 -1.1979613 0
0.8645879 6.0990443 -1.1973848 0
0.84561551 6.1126175 -1.1994863 0
0.82819009 6.1381998 -1.2039547 0
0.80311793 6.1068215 -1.1972651 0
0.78325731 6.1143112 -1.1982119 0
0.76314068 6.1200137 -1.1988213 0
0.74564356 6.1474895 -1.203707 0
0.72268194 6.1300545 -1.1998119 0
0.70310193 6.140976 -1.2014813 0
0.68310183 6.1486402 -1.2025261 0
0.66284418 6.1542511 -1.203182 0
0.64129996 6.1477499 -1.2014838 0
0.62039441 6.1469946 -1.200923 0
0.59759551 6.1266322 -1.1965467 0
0.5781045 6.1397929 -1.1987317 0
0.55610144 6.1261172 -1.1956909 0
0.53725266 6.1473312 -1.1994731 0
0.51662564 6.1489415 -1.1994425 0
0.4952814 6.1416473 -1.1976891 0
0.47502422 6.1476402 -1.1985403 0
0.45549324 6.1638613 -1.2013984 0
0.43577671 6.1788564 -1.2040296 0
0.41529006 6.1837425 -1.2047036 0
0.39239395 6.151226 -1.1981057 0
0.37369588 6.1844149 -1.2043192 0
0.3519465 6.1678958 -1.200866 0
0.33083725 6.1610799 -1.1993161 0
0.31096229 6.1777267 -1.2023469 0
0.28994718 6.1723356 -1.2011017 0
0.26835769 6.1527948 -1.1971173 0
0.24911174 6.1880565 -1.2038088 0
0.22772138 6.1714697 -1.2004267 0
0.20680621 6.1655765 -1.1991389 0
0.18670306 6.1851192 -1.2028111 0
0.16535839 6.1631207 -1.1984186 0
0.14528835 6.188972 -1.2033439 0
0.12384703 6.1551294 -1.1966763 0
0.10305578 6.1463513 -1.1948957 0
0.082939819 6.1833549 -1.2020288 0
0.062162433 6.1790953 -1.2011534 0
0.041364379 6.1672873 -1.1988243 0
0.020714225 6.1756873 -1.2004369 0
8.1846101e-06 6.1687078 -1.1990734 0
-0.020650193 6.1614718 -1.1976737 0
-0.041360009 6.1690764 -1.1991721 0
-0.062050678 6.1696143 -1.1993104 0
-0.083103716 6.1967998 -1.2046423 0
-0.10340205 6.1679792 -1.1991004 0
-0.12434465 6.1806765 -1.2016431 0
-0.14482208 6.1698079 -1.1996176 0
-0.1654157 6.1658669 -1.1989526 0
-0.18622515 6.1698294 -1.1998377 0
-0.20702796 6.1726766 -1.2005196 0
-0.2269161 6.1500888 -1.1962677 0
-0.24871686 6.1786551 -1.2019798 0
-0.2685371 6.1572833 -1.1979905 0
-0.2890715 6.1540427 -1.1975418 0
-0.30963784 6.1517396 -1.197289 0
-0.331222 6.168551 -1.2007703 0
-0.35199776 6.1690817 -1.2010967 0
-0.37321028 6.1766505 -1.2028071 0
-0.39229405 6.1499171 -1.1978506 0
-0.41162613 6.1294289 -1.1941221 0
-0.43335852 6.1448016 -1.1973933 0
-0.45608377 6.1720753 -1.2029991 0
-0.47716883 6.1756086 -1.2039928 0
-0.49774066 6.1723475 -1.2036757 0
-0.51680547 6.1512775 -1.199898 0
-0.53790748 6.1550126 -1.2009716 0
-0.5576697 6.1435747 -1.199098 0
-0.5782972 6.1420145 -1.1991651 0
-0.59773272 6.1282072 -1.1968539 0
-0.61986279 6.1418905 -1.1999254 0
-0.64279318 6.1622229 -1.204312 0
-0.66011465 6.1290612 -1.198257 0
-0.68318826 6.1495667 -1.2027069 0
-0.70352185 6.1447878 -1.2022268 0
-0.72154248 6.1205292 -1.1979471 0
-0.7461952 6.152174 -1.2046238 0
-0.76512331 6.1360459 -1.2019614 0
-0.78053015 6.0931506 -1.1940647 0
-0.80400622 6.1137013 -1.1986135 0
-0.82375568 6.1054559 -1.1975318 0
-0.84427643 6.1030569 -1.1976097 0
-0.86374009 6.0931797 -1.1962332 0
-0.88447225 6.0923696 -1.1966496 0
-0.90241587 6.0726943 -1.1933726 0
-0.93536884 6.1524959 -1.2096641 0
-0.94800675 6.0979624 -1.1995604 0
-0.96897388 6.0980673 -1.2002133 0
-0.9904775 6.1013346 -1.2015033 0
-1.0111833 6.0995159 -1.2018059 0
-1.0320802 6.098763 -1.2023326 0
-1.050035 6.080863 -1.1994911 0
-1.0726533 6.0900049 -1.2019972 0
-1.0935761 6.0892153 -1.2025582 0
-1.113845 6.0847445 -1.202406 0
-1.1309336 6.0632505 -1.1989012 0
-1.1541488 6.0746493 -1.2019135 0
-1.1735114 6.0655866 -1.2008921 0
-1.1965125 6.0751791 -1.2035787 0
-1.2087259 6.0304785 -1.1955191 0
-1.2342436 6.0524082 -1.2006803 0
-1.2521179 6.0366106 -1.1983724 0
-1.2704085 6.0231714 -1.1965433 0
-1.2962443 6.0452199 -1.2017801 0
-1.3125602 6.022737 -1.1981785 0
-1.3321341 6.0155396 -1.1976286 0
-1.3577932 6.0354767 -1.2024974 0
-1.3753986 6.0194116 -1.2002087 0
-1.4017079 6.0412078 -1.2054849 0
-1.4148196 6.0061831 -1.1994357 0
-1.4357231 6.004642 -1.2000825 0
-1.4482756 5.9685898 -1.193841 0
-1.4819208 6.0191092 -1.2049329 0
-1.4904001 5.9672885 -1.1955528 0
-1.5150825 5.9807463 -1.1992601 0
-1.5340722 5.9715295 -1.1984366 0
-1.5542208 5.9668746 -1.1985414 0
-1.5803418 5.9848213 -1.2032039 0
-1.5961645 5.9636683 -1.2000204 0
-1.6103226 5.9367971 -1.195693 0
-1.6330222 5.9415655 -1.1977494 0
-1.6595162 5.9596953 -1.2025192 0
-1.6785986 5.950943 -1.2018819 0
-1.705061 5.9681005 -1.2064949 0
-1.7237253 5.9577327 -1.2055606 0
-1.7392167 5.9366479 -1.2024672 0
-1.7527516 5.9093413 -1.1981199 0
-1.7714918 5.8998914 -1.1974014 0
-1.7933732 5.9008622 -1.1988121 0
-1.8122015 5.8917403 -1.1981865 0
-1.8306909 5.8816018 -1.1973661 0
-1.8585168 5.9012017 -1.2026181 0
-1.876254 5.8885412 -1.2013133 0
-1.8946961 5.8782139 -1.2004956 0
-1.9135939 5.8693738 -1.1999938 0
-1.9286609 5.8489714 -1.1971378 0
-1.9511307 5.851079 -1.1989014 0
-1.969378 5.8404732 -1.1980745 0
-1.9933903 5.8468642 -1.2007499 0
-2.0073633 5.8238454 -1.1973979 0
-2.0303993 5.8271875 -1.199478 0
-2.0468028 5.8114815 -1.197651 0
-2.0717957 5.8200917 -1.2008501 0
-2.0885522 5.805481 -1.1992737 0
-2.1100028 5.8039408 -1.2004101 0
-2.1387451 5.8221359 -1.2056497 0
-2.1537132 5.8026991 -1.2031133 0
-2.1632535 5.7690363 -1.1976309 0
-2.1825185 5.7615781 -1.1975949 0
-2.2045996 5.7614832 -1.1991049 0
-2.2239206 5.7541008 -1.1991135 0
-2.24683 5.7559099 -1.2010537 0
-2.2705028 5.7594724 -1.2033788 0
-2.277009 5.7196965 -1.1966565 0
-2.3129003 5.7536402 -1.2053738 0
-2.3157356 5.7053437 -1.1968756 0
-2.338177 5.7056618 -1.1985801 0
-2.3589482 5.7017894 -1.1994214 0
-2.3824129 5.7042894 -1.2016208 0
-2.3949862 5.6807604 -1.1983491 0
-2.4213016 5.6898112 -1.2019643 0
-2.4419799 5.685421 -1.2027596 0
-2.4564548 5.6666512 -1.2005244 0
-2.4732459 5.6533675 -1.1994603 0
-2.4970317 5.6560178 -1.2017921 0
-2.5093868 5.6328115 -1.1986423 0
-2.5328586 5.6346002 -1.2008232 0
-2.5435877 5.6081104 -1.1969886 0
-2.5846908 5.648315 -1.2074127 0
-2.5998023 5.6313605 -1.205645 0
-2.6137798 5.6121154 -1.2033941 0
-2.6167536 5.5696311 -1.1961589 0
-2.6421952 5.5751376 -1.1992373 0
-2.6594849 5.563344 -1.1986119 0
-2.6760983 5.5501976 -1.1977059 0
-2.7097204 5.5720973 -1.2043854 0
-2.711587 5.5287261 -1.1969693 0
-2.716306 5.4916983 -1.1909178 0
-2.7504957 5.5142207 -1.1977952 0
-2.7706096 5.5082307 -1.198505 0
-2.7870255 5.494895 -1.1976298 0
-2.8252017 5.5241737 -1.206069 0
-2.8230951 5.4746981 -1.197327 0
-2.8430688 5.4683447 -1.1980155 0
-2.8645678 5.4648495 -1.1993473 0
-2.8819351 5.4534373 -1.1989565 0
-2.9056237 5.453918 -1.2011973 0
-2.9181757 5.4334998 -1.1988484 0
-2.9482932 5.4456954 -1.2037135 0
-2.9508512 5.4070411 -1.1973495 0
-2.9697587 5.3985629 -1.1976703 0
-2.9940658 5.3997993 -1.200165 0
-3.0097921 5.3855052 -1.1992241 0
-3.0255792 5.3713851 -1.198332 0
-3.0355861 5.3471441 -1.1951879 0
-3.0655782 5.3580523 -1.1999167 0
-3.0853446 5.3508983 -1.2006246 0
-3.0958281 5.3277206 -1.1977462 0
-3.1159675 5.3212285 -1.1986287 0
-3.1403816 5.3219199 -1.2011495 0
-3.1681747 5.328124 -1.2049403 0
-3.1761041 5.30092 -1.2011896 0
-3.1920776 5.2872901 -1.2005197 0
-3.2022407 5.264153 -1.1976972 0
-3.2429698 5.2910714 -1.2062888 0
-3.2440515 5.2532225 -1.2001327 0
-3.2520981 5.2269702 -1.1966195 0
-3.2783513 5.22999 -1.1998205 0
-3.2986238 5.2233329 -1.2008238 0
-3.3138587 5.2086926 -1.2000057 0
-3.3420858 5.2143745 -1.2038895 0
-3.3468227 5.1834288 -1.1993288 0
-3.3489883 5.1488175 -1.1939118 0
-3.3817184 5.1611948 -1.1994042 0
-3.4033616 5.1564298 -1.2009419 0
-3.4217904 5.1467338 -1.201349 0
-3.4358478 5.1304846 -1.2002383 0
-3.4555047 5.1226048 -1.2010986 0
-3.4651196 5.0998921 -1.1984904 0
-3.4978445 5.1111069 -1.2038751 0
-3.4961424 5.0720487 -1.1974297 0
-3.5265262 5.0795965 -1.2019962 0
-3.536818 5.0581346 -1.199717 0
-3.5664949 5.0643353 -1.2040172 0
-3.574182 5.0392756 -1.2009016 0
-3.5935736 5.0307856 -1.2017429 0
-3.6067417 5.0135946 -1.2005184 0
-3.6278427 5.0074253 -1.2019469 0
-3.6437252 4.994019 -1.2016547 0
-3.6560593 4.9758005 -1.2002138 0
-3.6739621 4.9651909 -1.2006191 0
-3.6948376 4.9585466 -1.2020013 0
-3.7007303 4.9318557 -1.1985322 0
-3.7200706 4.9231596 -1.1994432 0
-3.7327335 4.9056354 -1.1982161 0
-3.7525017 4.8974538 -1.1992841 0
-3.7786133 4.8974328 -1.2023746 0
-3.7832558 4.8696041 -1.1986499 0
-3.8091531 4.869153 -1.2016758 0
-3.8234253 4.853775 -1.2010375 0
-3.8530777 4.8578229 -1.205229 0
-3.8525648 4.8238683 -1.2000028 0
-3.8775473 4.8219056 -1.2027419 0
-3.8907804 4.8052812 -1.2018423 0
-3.8941383 4.7765927 -1.1979259 0
-3.9160728 4.7707477 -1.1997461 0
-3.9264021 4.750762 -1.1980239 0
-3.9397407 4.7344851 -1.1972437 0
-3.9592826 4.7256536 -1.1983607 0
-3.9609675 4.6955934 -1.1940988 0
-3.9889352 4.6967063 -1.1977761 0
-4.0057006 4.6845226 -1.1980873 0
-4.0391955 4.6917548 -1.2033938 0
-4.0442042 4.6658416 -1.2002186 0
-4.0590839 4.6514068 -1.1999993 0
-4.0864482 4.6511922 -1.203472 0
-4.0883193 4.6219769 -1.1994526 0
-4.1143312 4.6200767 -1.2025326 0
-4.1104431 4.5846677 -1.1968967 0
-4.1261373 4.5712438 -1.196997 0
-4.1509867 4.5678883 -1.1997561 0
-4.1713376 4.5594749 -1.201213 0
-4.1823077 4.5408025 -1.1999812 0
-4.1916986 4.5204887 -1.1983202 0
-4.2075672 4.5071974 -1.1985297 0
-4.2289691 4.499783 -1.2003218 0
-4.2420669 4.4835014 -1.1997659 0
-4.2462778 4.4579177 -1.1967229 0
-4.2543302 4.436491 -1.1947933 0
-4.2973304 4.4513607 -1.2026715 0
-4.3190322 4.4439259 -1.2045684 0
-4.321219 4.4164515 -1.2010416 0
-4.3483734 4.4144979 -1.2044685 0
-4.3427854 4.3793573 -1.1988466 0
-4.3545246 4.3618479 -1.1980433 0
-4.361165 4.339304 -1.1958609 0
-4.3909678 4.3397574 -1.2000363 0
-4.4143162 4.333673 -1.2024397 0
-4.4278321 4.3178835 -1.2021711 0
-4.450387 4.3108621 -1.2043638 0
-4.451643 4.2832422 -1.2008107 0
-4.4751344 4.2770433 -1.2032723 0
-4.4805779 4.2535925 -1.2008946 0
-4.4807701 4.2253027 -1.1971424 0
-4.5221734 4.2357912 -1.204403 0
-4.5100641 4.1961493 -1.1974243 0
-4.5319452 4.1882477 -1.1994987 0
-4.5477705 4.1746888 -1.1999757 0
-4.5728292 4.1695275 -1.2028923 0
-4.576694 4.1450343 -1.2002465 0
-4.5865297 4.1260357 -1.1991912 0
-4.594964 4.1058331 -1.1977904 0
-4.6167164 4.0975151 -1.1998727 0
-4.6462445 4.0959554 -1.203971 0
-4.6320977 4.0559649 -1.1967746 0
-4.665031 4.05725 -1.2017621 0
-4.6658649 4.0305781 -1.1984888 0
-4.6918354 4.0256224 -1.201686 0
-4.6786146 3.9871221 -1.1948692 0
-4.7054009 3.9827933 -1.1982931 0
-4.7121568 3.9614699 -1.1966244 0
-4.7101588 3.9329123 -1.1927617 0
-4.7512507 3.9402623 -1.1998153 0
-4.7561274 3.9174671 -1.1977232 0
-4.773129 3.9046843 -1.198701 0
-4.7929935 3.8941836 -1.200404 0
-4.8012342 3.8742273 -1.1992079 0
-4.8075919 3.8528149 -1.1975627 0
-4.8386931 3.8511684 -1.2020868 0
-4.8516121 3.8349502 -1.2020952 0
-4.8497725 3.8071456 -1.1984698 0
-4.8535242 3.7838588 -1.1962552 0
-4.855371 3.7591929 -1.1935971 0
-4.8971763 3.7653661 -1.2007638 0
-4.9005423 3.7418771 -1.1985062 0
-4.913693 3.7259052 -1.1986605 0
-4.9304066 3.7126093 -1.1996944 0
-4.9505301 3.701818 -1.2015642 0
-4.9406042 3.6686332 -1.1961628 0
-4.9829283 3.6742063 -1.2034205 0
-4.9887791 3.6527634 -1.201869 0
-5.0058994 3.63958 -1.2030469 0
-5.015728 3.6210818 -1.2024845 0
-5.0075259 3.5896821 -1.197626 0
-5.044095 3.5903556 -1.2034862 0
-5.0356398 3.5589602 -1.1986151 0
-5.0591307 3.5501871 -1.2013665 0
-5.0819745 3.5408478 -1.2039652 0
-5.0750198 3.5107851 -1.1995223 0
-5.1019249 3.5041637 -1.2030977 0
-5.0994906 3.4773862 -1.1997676 0
-5.1225638 3.4680159 -1.2024536 0
-5.1182761 3.4401438 -1.1987329 0
-5.1570745 3.4411755 -1.2051107 0
-5.1389227 3.4042172 -1.1981951 0
-5.1632967 3.3955104 -1.2012171 0
-5.1736951 3.3775549 -1.2009947 0
-5.1678233 3.3490641 -1.1970184 0
-5.19239 3.340318 -1.2001079 0
-5.2067575 3.3249316 -1.2008452 0
-5.2125578 3.3040845 -1.1996213 0
-5.2255177 3.2877917 -1.2000602 0
-5.2581539 3.2837689 -1.2050201 0
-5.2349091 3.2449062 -1.1971929 0
-5.2538157 3.2322929 -1.1990316 0
-5.2775502 3.2225528 -1.2019757 0
-5.2858305 3.2033281 -1.2014086 0
-5.3179836 3.1984844 -1.2062725 0
-5.3157411 3.1729147 -1.203344 0
-5.3081293 3.1442814 -1.1992277 0
-5.3130398 3.1231737 -1.1979645 0
-5.3446693 3.117702 -1.2027327 0
-5.3365784 3.0890481 -1.1985744 0
-5.3687215 3.0836689 -1.2034649 0
-5.3662148 3.0583472 -1.2005975 0
-5.3938389 3.0501781 -1.2044832 0
-5.3976464 3.0284917 -1.2030592 0
-5.3933468 3.0023484 -1.1998504 0
-5.3651342 2.9631243 -1.1913571 0
-5.4078097 2.9630752 -1.1986207 0
-5.4458179 2.9602036 -1.2048384 0
-5.4220901 2.9237978 -1.1974133 0
-5.4219708 2.900311 -1.1952327 0
-5.4400992 2.8865914 -1.1970888 0
-5.4675951 2.8777294 -1.2010093 0
-5.4767513 2.8591404 -1.2009081 0
-5.4847851 2.8399742 -1.2005751 0
-5.4820223 2.8152759 -1.1978974 0
-5.501092 2.8018005 -1.2000049 0
-5.5113297 2.7837822 -1.2001954 0
-5.5212145 2.7655802 -1.200322 0
-5.521543 2.7426257 -1.1983876 0
-5.5360994 2.7267535 -1.199556 0
-5.5654154 2.7180443 -1.2039267 0
-5.5308833 2.6782496 -1.1945074 0
-5.5607419 2.6697297 -1.199016 0
-5.5789394 2.6554866 -1.2010133 0
-5.5764575 2.6314087 -1.1985729 0
-5.5875039 2.6137521 -1.1990569 0
-5.5744691 2.5849102 -1.194393 0
-5.62433 2.5851543 -1.2032125 0
-5.608613 2.5551877 -1.1980107 0
-5.6391201 2.5462897 -1.2026967 0
-5.6495538 2.5282314 -1.2031072 0
-5.6399736 2.5012813 -1.1992744 0
-5.6392102 2.4783502 -1.1973385 0
-5.6468477 2.4591503 -1.1972027 0
-5.6397796 2.4336095 -1.1939676 0
-5.6600275 2.4198685 -1.1965297 0
-5.6801205 2.4059658 -1.1990653 0
-5.7003026 2.3920052 -1.2016261 0
-5.6995931 2.3692644 -1.1997952 0
-5.6838179 2.3403881 -1.1948159 0
-5.7259812 2.3353271 -1.2020265 0
-5.7311068 2.3150363 -1.2014663 0
-5.7228565 2.2894151 -1.1981207 0
-5.7451048 2.2760003 -1.2011741 0
-5.7546573 2.2574918 -1.2015822 0
-5.7541094 2.2350447 -1.1998963 0
-5.7581635 2.2144294 -1.1991868 0
-5.7525797 2.1901705 -1.1964879 0
-5.8143158 2.1913834 -1.2077935 0
-5.7864895 2.1587667 -1.2005029 0
-5.8048682 2.1434793 -1.2028182 0
-5.8078775 2.1224902 -1.2019603 0
-5.7973771 2.0966461 -1.1983258 0
-5.8210649 2.0831699 -1.2017716 0
-5.8338642 2.0657117 -1.2029773 0
-5.8152628 2.037209 -1.1977265 0
-5.8285913 2.0199635 -1.19907 0
-5.817657 1.994351 -1.1954381 0
-5.853065 1.9845839 -1.20134 0
-5.8474674 1.9608512 -1.1988349 0
-5.8489046 1.9395421 -1.1977895 0
-5.8627763 1.9223479 -1.1993037 0
-5.8628345 1.9006203 -1.1980053 0
-5.8822436 1.8851414 -1.2006731 0
-5.8878679 1.8651985 -1.2005378 0
-5.8968849 1.8463228 -1.2011075 0
-5.8917923 1.8230603 -1.1988184 0
-5.9029441 1.8048469 -1.1998495 0
-5.9029818 1.7832386 -1.1986351 0
-5.9084616 1.763298 -1.1985406 0
-5.9175973 1.7444382 -1.1992005 0
-5.9210968 1.7239136 -1.1987318 0
-5.9362249 1.7067487 -1.2006291 0
-5.9128113 1.6785743 -1.1947486 0
-5.9191766 1.6589563 -1.1949042 0
-5.9441814 1.6444892 -1.1988322 0
-5.9599824 1.6273683 -1.2009118 0
-5.9584198 1.6054943 -1.1995056 0
-5.9477525 1.5812496 -1.1962841 0
-5.9855947 1.5698422 -1.2028298 0
-5.9536309 1.5401433 -1.1953622 0
-5.9866996 1.5273007 -1.2009668 0
-5.9859047 1.5057403 -1.1997879 0
-5.9740496 1.4814787 -1.1964093 0
-5.9828029 1.4623742 -1.1971737 0
-6.0091281 1.447475 -1.2014636 0
-5.9854865 1.4205647 -1.1957777 0
-6.0082355 1.4047014 -1.1993748 0
-6.0253983 1.3874242 -1.2018654 0
-6.0129895 1.3633538 -1.1984719 0
-6.0238743 1.3446026 -1.199736 0
-6.025661 1.3238077 -1.1992011 0
-6.0226502 1.3019943 -1.1977265 0
-6.0669217 1.2902883 -1.2056636 0
-6.0166669 1.2585301 -1.1948314 0
-6.0463943 1.2436037 -1.1999 0
-6.0765581 1.2285868 -1.2050618 0
-6.072525 1.2065933 -1.2034529 0
-6.0621367 1.1834154 -1.2006011 0
-6.0801082 1.1657752 -1.2033795 0
-6.0538096 1.1397027 -1.1974114 0
-6.0669746 1.1211319 -1.1992651 0
-6.0743165 1.1014401 -1.1999797 0
-6.0574675 1.0774201 -1.1959307 0
-6.0932703 1.0627248 -1.2022891 0
-6.0929251 1.041627 -1.2015252 0
-6.0919747 1.0204542 -1.2006563 0
-6.0875926 0.99874866 -1.199126 0
-6.0749898 0.97577584 -1.1959924 0
-6.0803499 0.95573568 -1.1964099 0
-6.0843797 0.93547618 -1.196579 0
-6.1102767 0.91849768 -1.2010596 0
-6.1269193 0.90000325 -1.2037309 0
-6.1300673 0.87947947 -1.2037635 0
-6.1083055 0.85546571 -1.19892 0
-6.1139145 0.83536005 -1.1994644 0
-6.122251 0.81559855 -1.2005568 0
-6.1470842 0.79794031 -1.2048951 0
-6.1373777 0.77576512 -1.2024759 0
-6.1314368 0.75413692 -1.2008098 0
-6.1338248 0.73356247 -1.2007891 0
-6.1108952 0.71004671 -1.1958275 0
-6.1292572 0.69136059 -1.1989604 0
-6.1378174 0.67149311 -1.2001877 0
-6.1439729 0.65132797 -1.2009575 0
-6.1436472 0.63047069 -1.2004739 0
-6.1337218 0.60867739 -1.1981291 0
-6.1519918 0.58966762 -1.2013048 0
-6.1291428 0.56674546 -1.1964653 0
-6.1404924 0.5470373 -1.1983161 0
-6.1198473 0.52452266 -1.1939373 0
-6.1644931 0.5075348 -1.2023087 0
-6.1487842 0.4854916 -1.1989205 0
-6.1607876 0.46566001 -1.2009499 0
-6.1639347 0.44511849 -1.2012657 0
-6.1549854 0.42373297 -1.1992379 0
-6.1347957 0.40168142 -1.1950351 0
-6.1817064 0.38394246 -1.2039156 0
-6.1757541 0.36279094 -1.2025127 0
-6.1605015 0.34117264 -1.1993134 0
-6.1842809 0.32169494 -1.2037258 0
-6.1832247 0.30085623 -1.2033172 0
-6.1849022 0.28015524 -1.2034541 0
-6.1698232 0.25874653 -1.2003444 0
-6.1506448 0.23728682 -1.1964518 0
-6.1403899 0.21627553 -1.1943092 0
-6.1719527 0.19667049 -1.2003131 0
-6.1611686 0.17565075 -1.1980946 0
-6.1544867 0.1548105 -1.1966877 0
-6.16856 0.13447103 -1.1993297 0
-6.1673093 0.11375751 -1.1990056 0
-6.2105803 0.093726836 -1.2073501 0
-6.1637988 0.072351001 -1.1982018 0
-6.1702142 0.05173659 -1.1994084 0
-6.1725044 0.031059563 -1.1998267 0
-6.1836901 0.010382812 -1.2019875 0
-6.1904898 1.642702e-05 -1.2033075 0
-7.56811 -0.012707341 -1.1986707 0
-7.5480514 -0.037981208 -1.1955073 0
-7.5556173 -0.063353047 -1.1967325 0
-7.5427833 -0.088537596 -1.1947401 0
-7.5813932 -0.11441443 -1.2009096 0
-7.5503149 -0.13926739 -1.196054 0
-7.5750055 -0.16513072 -1.2000463 0
-7.5799565 -0.19066688 -1.2009251 0
-7.5558705 -0.21541275 -1.1972167 0
-7.590764 -0.24188121 -1.2028673 0
-7.5638814 -0.26641345 -1.1987422 0
-7.5491309 -0.29123926 -1.1965525 0
-7.586781 -0.3181701 -1.2026825 0
-7.5636353 -0.3426072 -1.1991887 0
-7.5798278 -0.36881056 -1.2019453 0
-7.5571389 -0.39310852 -1.1985497 0
-7.5741577 -0.41946182 -1.2014651 0
-7.5717878 -0.44480008 -1.201319 0
-7.565486 -0.46988824 -1.2005625 0
-7.5690293 -0.49558917 -1.2013817 0
-7.5334234 -0.51863003 -1.1959995 0
-7.5461707 -0.54493439 -1.1983066 0
-7.5488739 -0.5705778 -1.1990328 0
-7.5513339 -0.59623319 -1.1997343 0
-7.5597339 -0.62240767 -1.2013936 0
-7.5702772 -0.64883673 -1.2034082 0
-7.534873 -0.67125833 -1.1981312 0
-7.5257077 -0.69588214 -1.1970382 0
-7.5469327 -0.72337258 -1.2007931 0
-7.5538883 -0.74960709 -1.202293 0
-7.5641403 -0.77624398 -1.2043322 0
-7.5291443 -0.79817116 -1.1991796 0
-7.5380545 -0.82468271 -1.2010324 0
-7.5427532 -0.85079837 -1.2022288 0
-7.5193152 -0.87369609 -1.1989533 0
-7.5107632 -0.89823467 -1.198063 0
-7.5463829 -0.92816842 -1.2042345 0
-7.5116148 -0.94946879 -1.1991875 0
-7.5104322 -0.97491372 -1.1995139 0
-7.5206447 -1.0018909 -1.2016747 0
-7.5374207 -1.0298574 -1.2049001 0
-7.4723878 -1.0465049 -1.1950585 0
-7.4855089 -1.0739443 -1.197726 0
-7.5228229 -1.1050521 -1.2042825 0
-7.4872074 -1.1254781 -1.1991785 0
-7.5051441 -1.1539193 -1.2026641 0
-7.505517 -1.1797496 -1.2033509 0
-7.489336 -1.2029506 -1.2013966 0
-7.4853544 -1.2280695 -1.2014116 0
-7.4945946 -1.2554042 -1.2035635 0
-7.4578362 -1.2749678 -1.1983402 0
-7.4853306 -1.3055135 -1.2034546 0
-7.4633818 -1.3274852 -1.2006346 0
-7.4524789 -1.3513386 -1.1996027 0
-7.4664569 -1.379746 -1.2025907 0
-7.4297833 -1.3987463 -1.1974324 0
-7.4117856 -1.4211055 -1.1952931 0
-7.4226394 -1.4490049 -1.1978202 0
-7.4275231 -1.4758275 -1.1993999 0
-7.4156828 -1.4993372 -1.1982931 0
-7.4344792 -1.5291007 -1.202152 0
-7.434546 -1.5551136 -1.2029992 0
-7.4166551 -1.5773442 -1.2009532 0
-7.4052458 -1.6008879 -1.1999681 0
-7.3992162 -1.6255709 -1.1998675 0
-7.3936572 -1.650355 -1.1998566 0
-7.3931632 -1.6762873 -1.2006818 0
-7.3706269 -1.6971802 -1.1979393 0
-7.4033408 -1.7308713 -1.2041925 0
-7.3675075 -1.7485664 -1.199311 0
-7.3837972 -1.7786044 -1.2029266 0
-7.3741636 -1.8024639 -1.202335 0
-7.3380113 -1.8197217 -1.1974286 0
-7.3391747 -1.8461522 -1.1986217 0
-7.3329763 -1.8707569 -1.198627 0
-7.3323712 -1.8968092 -1.1995609 0
-7.3147869 -1.9184495 -1.1977297 0
-7.3057022 -1.9422696 -1.1973017 0
-7.2977171 -1.9663675 -1.1970669 0
-7.2899957 -1.9905273 -1.1968883 0
-7.304884 -2.0209348 -1.2004384 0
-7.3214326 -2.0519638 -1.2042818 0
-7.2906785 -2.0697339 -1.2003578 0
-7.2996025 -2.0987391 -1.2029788 0
-7.27562 -2.1182797 -1.2001902 0
-7.2782226 -2.1455345 -1.2017995 0
-7.27982 -2.1725607 -1.2032592 0
-7.2820282 -2.1998363 -1.2048366 0
-7.2573996 -2.2189767 -1.201986 0
-7.2285466 -2.2366836 -1.1984425 0
-7.2209187 -2.2608795 -1.1984279 0
-7.2310834 -2.2907114 -1.2013829 0
-7.2147298 -2.3121765 -1.199947 0
-7.2218089 -2.3411741 -1.2024232 0
-7.1909633 -2.3578475 -1.198597 0
-7.1956077 -2.3861194 -1.2006979 0
-7.1692381 -2.4040852 -1.197636 0
-7.1752949 -2.432909 -1.2000037 0
-7.1780028 -2.4606912 -1.2018296 0
-7.1602755 -2.4814734 -1.2002478 0
-7.1696072 -2.5116644 -1.2032168 0
-7.1436644 -2.5294986 -1.2002796 0
-7.1335979 -2.5528827 -1.2000196 0
-7.1132793 -2.5725477 -1.1980458 0
-7.1438637 -2.6107264 -1.2046645 0
-7.0979958 -2.6209738 -1.1984049 0
-7.0822392 -2.6421723 -1.1972336 0
-7.1023717 -2.6768446 -1.2021474 0
-7.084312 -2.6971989 -1.2006145 0
-7.0606575 -2.7153323 -1.1981418 0
-7.0609422 -2.7426522 -1.1997437 0
-7.0555706 -2.7678266 -1.2004012 0
-7.0530095 -2.7941444 -1.2015525 0
-7.036428 -2.8149064 -1.2003288 0
-7.0195436 -2.8354902 -1.1990635 0
-7.015213 -2.8611369 -1.1999557 0
-7.0166473 -2.8891983 -1.2018512 0
-6.9982109 -2.9090869 -1.2003573 0
-6.9965682 -2.9359543 -1.2017572 0
-6.9649606 -2.9501939 -1.1980205 0
-6.942307 -2.9680901 -1.1958289 0
-6.928371 -2.9896469 -1.1951482 0
-6.9152713 -3.0115371 -1.1946236 0
-6.9460034 -3.0526667 -1.201694 0
-6.9432583 -3.0792773 -1.2029985 0
-6.9135008 -3.0938601 -1.1996331 0
-6.9169588 -3.1232853 -1.2020435 0
-6.910533 -3.1483202 -1.2027545 0
-6.8607879 -3.1534772 -1.19593 0
-6.8642392 -3.1829834 -1.1983852 0
-6.863997 -3.2108769 -1.2002157 0
-6.8716679 -3.2425902 -1.2034512 0
-6.8400512 -3.2557557 -1.1998191 0
-6.8173919 -3.2730513 -1.1977626 0
-6.8261676 -3.3054721 -1.2012448 0
-6.8138289 -3.3277457 -1.2010301 0
-6.8127875 -3.3555739 -1.2028229 0
-6.7731066 -3.3642943 -1.1978019 0
-6.7673292 -3.3897595 -1.1987834 0
-6.7741132 -3.4216166 -1.2020105 0
-6.7731471 -3.4496801 -1.2038847 0
-6.751348 -3.467134 -1.2020695 0
-6.7544622 -3.497402 -1.204705 0
-6.7155495 -3.5058558 -1.1998545 0
-6.7011232 -3.5269656 -1.199383 0
-6.6853943 -3.5473621 -1.1986898 0
-6.6951752 -3.5813713 -1.2025899 0
-6.6551886 -3.5887318 -1.1975619 0
-6.6599903 -3.6201959 -1.2006032 0
-6.6390982 -3.6377292 -1.1990291 0
-6.6282086 -3.6607108 -1.1992723 0
-6.6183162 -3.6842597 -1.1997106 0
-6.6003466 -3.7032983 -1.1986973 0
-6.6004891 -3.7325304 -1.2009892 0
-6.583179 -3.7519274 -1.2001219 0
-6.6062694 -3.7944875 -1.2066437 0
-6.539958 -3.7856176 -1.1968434 0
-6.5413375 -3.8157535 -1.1994303 0
-6.5329847 -3.840296 -1.200253 0
-6.5148296 -3.8590727 -1.1992879 0
-6.4925208 -3.8753231 -1.1975664 0
-6.5025721 -3.9109514 -1.2018323 0
-6.4822555 -3.9283876 -1.2005049 0
-6.4650249 -3.947643 -1.1997583 0
-6.4709754 -3.981123 -1.2033329 0
-6.4425268 -3.9934587 -1.2005258 0
-6.4209347 -4.0099368 -1.1990008 0
-6.3870683 -4.0186162 -1.1951861 0
-6.4016089 -4.0577884 -1.2004461 0
-6.3781528 -4.0729613 -1.1986017 0
-6.3537202 -4.0874138 -1.1965789 0
-6.3468385 -4.1131377 -1.1978732 0
-6.325923 -4.1297665 -1.1965322 0
-6.3382568 -4.1681933 -1.201502 0
-6.306108 -4.1774054 -1.198056 0
-6.2898507 -4.1970463 -1.197634 0
-6.2965202 -4.2320762 -1.201599 0
-6.2764926 -4.2492347 -1.200489 0
-6.2839208 -4.2850595 -1.2046511 0
-6.2523813 -4.2943335 -1.2013582 0
-6.2126637 -4.2977815 -1.1964887 0
-6.2537503 -4.3572783 -1.2072084 0
-6.2271223 -4.369812 -1.2048897 0
-6.2024798 -4.3836288 -1.2029586 0
-6.2016616 -4.4143043 -1.2056637 0
-6.1618605 -4.4171753 -1.2007984 0
-6.1454906 -4.4367089 -1.2005005 0
-6.1369624 -4.4619288 -1.2017502 0
-6.1071053 -4.4715972 -1.1988325 0
-6.1004839 -4.4982462 -1.2004867 0
-6.0936923 -4.5248556 -1.2021288 0
-6.0559525 -4.5284104 -1.1976722 0
-6.0574818 -4.5612998 -1.2009925 0
-6.0485458 -4.5864301 -1.2022629 0
-6.0455251 -4.6161447 -1.2047319 0
-6.0113087 -4.6220064 -1.2009948 0
-5.9936752 -4.6405067 -1.2005736 0
-5.9540963 -4.6418762 -1.1957564 0
-5.9491 -4.670135 -1.197891 0
-5.934145 -4.6906371 -1.1980397 0
-5.9347363 -4.7235208 -1.2013496 0
-5.9034114 -4.7310071 -1.1982127 0
-5.9045463 -4.7645154 -1.2016788 0
-5.8986311 -4.7924857 -1.2037383 0
-5.8772125 -4.8078861 -1.2026503 0
