# .PCD v0.7 - Point Cloud Data file format
VERSION 0.7
FIELDS x y z intensity
SIZE 4 4 4 4
TYPE F F F F
COUNT 1 1 1 1
WIDTH 1413
HEIGHT 1
VIEWPOINT 0 0 0 1 0 0 0
POINTS 1413
DATA ascii
5.2961726 -3.2095766 -1.2037574 0
5.2785258 -3.1747336 -1.1973205 0
5.3039231 -3.1658416 -1.2006669 0
5.3131156 -3.1472161 -1.2003523 0
5.3440776 -3.1413996 -1.2049611 0
5.3261704 -3.1068921 -1.1985679 0
5.360486 -3.1028678 -1.2039421 0
5.3561254 -3.0764153 -1.2006395 0
5.3691611 -3.0600078 -1.201255 0
5.366014 -3.0344243 -1.1982678 0
5.3836656 -3.0206285 -1.1999413 0
5.416163 -3.0150306 -1.2049246 0
5.4017091 -2.9833052 -1.199477 0
5.4078164 -2.9630601 -1.1986204 0
5.4272351 -2.950084 -1.2007254 0
5.4248929 -2.9252906 -1.1980306 0
5.4273043 -2.9031456 -1.1964068 0
5.4541178 -2.8940113 -1.2001719 0
5.4490924 -2.8679724 -1.1969433 0
5.4537106 -2.8470936 -1.1958542 0
5.4964523 -2.8459969 -1.2031273 0
5.4848151 -2.8166914 -1.198506 0
5.4673967 -2.7846208 -1.1926531 0
5.5166478 -2.7864501 -1.201352 0
5.5301456 -2.7700353 -1.202262 0
5.5268855 -2.745261 -1.1995455 0
5.530684 -2.7240677 -1.1983809 0
5.5538263 -2.7123659 -1.201418 0
5.5741577 -2.6991866 -1.2038518 0
5.549479 -2.664304 -1.196586 0
5.5752797 -2.6537263 -1.2002239 0
5.5915852 -2.6385291 -1.2018229 0
5.6049871 -2.6219125 -1.2028073 0
5.6149926 -2.603683 -1.2030742 0
5.5949373 -2.5716264 -1.196923 0
5.6133833 -2.557343 -1.1990281 0
5.6322207 -2.5431564 -1.2012237 0
5.1389003 -2.2996926 -1.0943592 0
5.1307049 -2.2754085 -1.090983 0
5.1298933 -2.2544968 -1.0891972 0
5.1475744 -2.2417049 -1.0913492 0
5.1248269 -2.2113872 -1.0849484 0
5.1512966 -2.2023513 -1.0889828 0
5.1317596 -2.1736767 -1.083306 0
5.1423731 -2.1578665 -1.0840131 0
5.1590676 -2.1445572 -1.0860105 0
5.1402822 -2.116564 -1.0805562 0
5.1289635 -2.0918188 -1.0766964 0
5.1352587 -2.0743322 -1.0765518 0
5.1983614 -2.0795763 -1.0883129 0
5.2846417 -2.0935657 -1.1049005 0
5.3067398 -2.0817623 -1.1080551 0
5.3461256 -2.0765569 -1.1148188 0
5.4104834 -2.0807047 -1.1267782 0
5.4849701 -2.0882673 -1.1408262 0
5.8049664 -2.1878421 -1.2058501 0
5.7677283 -2.1517501 -1.1966094 0
5.7817612 -2.1349297 -1.198029 0
5.8116713 -2.1238589 -1.2027442 0
5.7856364 -2.0923827 -1.1958978 0
5.8058696 -2.0777147 -1.1986333 0
5.8388929 -2.0674748 -1.2040131 0
5.8155184 -2.0372813 -1.197778 0
5.8447866 -2.0255587 -1.2024006 0
5.8390384 -2.0016634 -1.1998307 0
5.8579273 -1.9862152 -1.2023369 0
5.8757758 -1.9703265 -1.2046375 0
5.8619719 -1.943858 -1.2004645 0
5.8686695 -1.9242629 -1.2005081 0
5.8761249 -1.9049116 -1.20072 0
5.9010596 -1.8911542 -1.2045127 0
5.869957 -1.8595074 -1.1968848 0
5.8989153 -1.8469412 -1.20152 0
5.8966498 -1.8245461 -1.1998057 0
5.901927 -1.8045188 -1.1996417 0
5.9112968 -1.7857335 -1.2003226 0
5.9226637 -1.7675192 -1.2014205 0
5.9116626 -1.7426717 -1.197997 0
5.9138455 -1.7217853 -1.1972628 0
5.9184961 -1.7016345 -1.1970426 0
5.9393229 -1.6860836 -1.2001047 0
5.9587145 -1.6700205 -1.2028848 0
5.9561062 -1.6477712 -1.2012362 0
5.9784851 -1.6324034 -1.2046391 0
5.9774284 -1.6105992 -1.2033314 0
5.9587245 -1.5841497 -1.19849 0
5.9447532 -1.5591139 -1.1946218 0
5.9788227 -1.5466433 -1.2004194 0
6.0049229 -1.5319328 -1.2046217 0
6.008163 -1.5113223 -1.2042483 0
5.9982872 -1.4874723 -1.2012626 0
6.0014315 -1.4669107 -1.2009006 0
5.9995909 -1.4451607 -1.1995559 0
5.993722 -1.4225024 -1.1974221 0
6.0199046 -1.4074126 -1.2017034 0
6.0427203 -1.391396 -1.2053199 0
6.0055704 -1.361655 -1.1969924 0
6.0263395 -1.345136 -1.2002263 0
6.0390167 -1.326725 -1.2018584 0
6.0358181 -1.3048242 -1.2003444 0
2.3588011 -0.50165373 -0.46875817 0
2.330076 -0.4873848 -0.46272233 0
2.3409998 -0.48148313 -0.4645685 0
2.3230743 -0.46968353 -0.46069607 0
2.3225722 -0.46148199 -0.46028706 0
2.3171253 -0.45232949 -0.4589045 0
2.3228042 -0.4453586 -0.45973086 0
2.3052804 -0.43399051 -0.45597199 0
2.3297725 -0.4305183 -0.46052831 0
2.3014865 -0.41731629 -0.45465785 0
2.3062534 -0.41019881 -0.45532531 0
2.3061101 -0.40220147 -0.45502824 0
2.3019531 -0.39352825 -0.45394507 0
2.2993639 -0.38515547 -0.45317724 0
2.2931964 -0.3762224 -0.45171058 0
2.2975802 -0.36903521 -0.45232785 0
2.3089018 -0.36291686 -0.45431462 0
2.315011 -0.35592774 -0.45527935 0
2.2894542 -0.34414488 -0.4500238 0
2.2991934 -0.33772984 -0.45171306 0
2.2793593 -0.32701302 -0.4475984 0
2.3184614 -0.32469329 -0.45506054 0
2.2737229 -0.31065851 -0.44607246 0
2.3010263 -0.30653363 -0.45122483 0
2.3050854 -0.29921216 -0.45182157 0
2.295769 -0.29017922 -0.44980219 0
2.2940218 -0.28214735 -0.44927204 0
2.296314 -0.27461687 -0.44953808 0
2.2980745 -0.26701528 -0.44970492 0
2.2918818 -0.25851077 -0.44832096 0
2.2756765 -0.2489588 -0.44498521 0
2.2867286 -0.24241197 -0.44698495 0
2.2946026 -0.23546958 -0.44836721 0
2.2733862 -0.22559248 -0.4440712 0
2.2571819 -0.21634455 -0.44076174 0
2.2820015 -0.21100448 -0.44546768 0
2.2953019 -0.20447515 -0.44792768 0
2.2646992 -0.19409782 -0.44182611 0
2.2636533 -0.18636496 -0.44149765 0
2.2726264 -0.17943446 -0.44312793 0
2.2803044 -0.17234957 -0.44450983 0
2.2939196 -0.16564552 -0.44705313 0
2.2418795 -0.15433367 -0.43680793 0
2.2799675 -0.1492769 -0.44412902 0
2.2688012 -0.14090797 -0.44185936 0
2.268681 -0.13326624 -0.44174641 0
2.2587492 -0.12508501 -0.43972844 0
2.2656078 -0.11784674 -0.44098425 0
2.2306323 -0.1085296 -0.43410322 0
2.2389731 -0.10141199 -0.43565786 0
2.2500122 -0.09435375 -0.43774176 0
2.270741 -0.087597288 -0.44171497 0
2.243283 -0.079006486 -0.43631974 0
2.2512021 -0.071729019 -0.43781075 0
2.2805991 -0.065012284 -0.443483 0
2.2343824 -0.056197915 -0.43445662 0
2.2362506 -0.048743028 -0.43478566 0
2.2581353 -0.041645858 -0.43901101 0
2.2119377 -0.033375539 -0.4300054 0
2.2380154 -0.026264006 -0.43505543 0
2.234 -0.018725924 -0.43426019 0
2.2500114 -0.011315913 -0.43736282 0
2.2317636 -0.0037413517 -0.43381086 0
2.2544215 0.0037793354 -0.43821508 0
2.2043664 0.011086351 -0.42849019 0
2.2423868 0.018796226 -0.43589053 0
2.2337785 0.026214285 -0.43423179 0
2.1982222 0.033168588 -0.42733911 0
2.211628 0.040788144 -0.4299694 0
2.2131634 0.048239801 -0.4302969 0
2.2447259 0.056458075 -0.43646786 0
2.2301474 0.063574068 -0.43367219 0
2.2195685 0.070721097 -0.43165872 0
2.2068434 0.077723116 -0.42923221 0
2.232687 0.0861293 -0.43431255 0
2.2124283 0.092777677 -0.43042979 0
2.2256052 0.1008065 -0.43305671 0
2.2227848 0.10814779 -0.432576 0
2.2095678 0.11493179 -0.43007648 0
6.1622562 0.3412534 -1.1996547 0
6.1691241 0.36238503 -1.2012216 0
6.1746173 0.3834857 -1.2025348 0
6.1583009 0.40320399 -1.1996136 0
6.1367431 0.42246076 -1.1956835 0
6.1859598 0.44669247 -1.2055578 0
6.1165309 0.46229857 -1.1923225 0
6.1674328 0.4869476 -1.2025566 0
6.1420674 0.50567204 -1.1979345 0
6.1572623 0.52771294 -1.2012364 0
6.1577187 0.54855549 -1.2016776 0
6.1206121 0.56594026 -1.1947998 0
6.1522164 0.58967274 -1.2013484 0
6.1291409 0.60820639 -1.1972338 0
6.1477437 0.63087463 -1.2012742 0
6.1514935 0.65210867 -1.2024273 0
6.1302199 0.67064548 -1.1987017 0
6.1334705 0.69181937 -1.1997842 0
6.1123343 0.71019751 -1.1961087 0
6.1232686 0.73228353 -1.1987221 0
6.1584201 0.75743914 -1.206094 0
6.1362095 0.77560091 -1.2022467 0
6.105711 0.79255331 -1.1967851 0
6.1253982 0.81600136 -1.2011735 0
6.119297 0.836079 -1.20052 0
6.097394 0.85392106 -1.1967779 0
6.1011839 0.87531906 -1.1980911 0
6.1052032 0.89679676 -1.1994641 0
6.0839353 0.91452152 -1.1958814 0
6.1041451 0.93849856 -1.2004657 0
6.1084886 0.96014202 -1.2019463 0
6.0850148 0.97736949 -1.1979654 0
6.0813093 0.99770123 -1.1978878 0
6.0850453 1.019277 -1.19929 0
6.0625362 1.0364152 -1.1955318 0
6.0682764 1.0583491 -1.1973569 0
6.0843844 1.0821912 -1.2012445 0
6.0913363 1.1045095 -1.2033412 0
6.0775514 1.1230698 -1.2013552 0
6.0393434 1.1369625 -1.1945494 0
6.0413508 1.1583272 -1.1957079 0
6.050787 1.1811831 -1.1983527 0
6.0558124 1.2032558 -1.2001401 0
6.0605307 1.2253295 -1.2018827 0
6.0360312 1.2414554 -1.1978428 0
6.0608172 1.2677485 -1.2035984 0
6.0371518 1.2839403 -1.1997468 0
6.031517 1.3038944 -1.1994891 0
6.0290523 1.324536 -1.1998754 0
6.0267053 1.3452177 -1.2002991 0
6.018681 1.3646275 -1.1996055 0
6.0046401 1.3826276 -1.1977242 0
6.0445824 1.4131821 -1.2066296 0
5.9935026 1.4224503 -1.1973784 0
6.0014887 1.445618 -1.1999354 0
6.0001211 1.4665904 -1.2006384 0
5.9920888 1.4859353 -1.2000213 0
5.9912071 1.5070571 -1.2008498 0
5.9953966 1.5295024 -1.2027106 0
5.9781127 1.5464594 -1.2002767 0
5.9810534 1.5686342 -1.2019165 0
5.9545641 1.5830436 -1.1976532 0
5.9716201 1.6090341 -1.202162 0
5.9554157 1.6261044 -1.1999906 0
5.9561534 1.6477842 -1.2012458 0
5.9435124 1.6657599 -1.199816 0
5.9678946 1.6941947 -1.2058779 0
5.9451509 1.709298 -1.2024336 0
5.9327178 1.7272799 -1.2010835 0
5.9188533 1.7447914 -1.1994542 0
5.9038496 1.7619046 -1.1976042 0
5.9138989 1.7865195 -1.200851 0
5.9192123 1.8098037 -1.2031552 0
5.8964472 1.8244834 -1.1997645 0
5.888216 1.8435913 -1.1993407 0
5.8832679 1.8637242 -1.1995989 0
5.887413 1.8867807 -1.2017272 0
5.8776493 1.9054058 -1.2010314 0
5.8947678 1.9328202 -1.2058469 0
5.8276701 1.9324834 -1.19344 0
5.8492994 1.9614483 -1.1992095 0
5.867126 1.9893342 -1.2042249 0
4.7386627 1.624447 -0.97372079 0
4.6847386 1.6235347 -0.96375334 0
4.6444049 1.627019 -0.95657265 0
4.5751333 1.6199944 -0.94341868 0
4.5258255 1.6196322 -0.93436569 0
4.4711647 1.6170024 -0.92419493 0
4.4467487 1.6250519 -0.92026913 0
4.4272175 1.634761 -0.91735619 0
4.4408789 1.6567461 -0.92133284 0
4.4230242 1.6669999 -0.91878295 0
4.4416418 1.6910458 -0.92382294 0
4.4630632 1.7163563 -0.92947018 0
4.4373589 1.7235711 -0.9253152 0
4.4317322 1.7385086 -0.92535228 0
4.4492106 1.762601 -0.9302305 0
4.4497061 1.7800808 -0.93157673 0
4.4502988 1.79765 -0.93295729 0
4.460299 1.8191078 -0.9363271 0
4.4344702 1.8259386 -0.93218493 0
5.7013097 2.3699601 -1.2001553 0
5.669673 2.3791344 -1.1951679 0
5.6674404 2.4005771 -1.1963873 0
5.6580014 2.4189847 -1.1961001 0
5.641233 2.4342189 -1.1942738 0
5.672852 2.4704571 -1.2027146 0
5.6560469 2.4857318 -1.2009119 0
5.6392884 2.5009596 -1.1991273 0
5.6367702 2.5224926 -1.2003834 0
5.6200418 2.5376573 -1.1986263 0
5.6080499 2.554913 -1.1978889 0
5.5946388 2.5714891 -1.1968591 0
5.5918698 2.5929608 -1.1981199 0
5.5816774 2.6110086 -1.197805 0
5.5752096 2.6308019 -1.1983032 0
5.5792089 2.6555965 -1.2010697 0
5.5822592 2.6800418 -1.2036541 0
5.5472903 2.6861763 -1.1980492 0
5.5585933 2.714694 -1.2024493 0
5.5297279 2.723597 -1.1981738 0
5.5406942 2.75212 -1.2025425 0
5.5175967 2.7637496 -1.1995339 0
5.484715 2.7703209 -1.1943979 0
5.5139523 2.808332 -1.2028087 0
5.4887848 2.8187301 -1.1993735 0
5.4643884 2.8293946 -1.1961088 0
5.46453 2.852742 -1.1982267 0
5.4556875 2.8714437 -1.198392 0
5.4790764 2.9072545 -1.205664 0
5.4431548 2.9116242 -1.199901 0
5.4371533 2.9319019 -1.2007382 0
5.4308076 2.9520259 -1.2015158 0
5.4067359 2.9624681 -1.1983809 0
5.3900685 2.9768765 -1.1968923 0
5.3800783 2.9949434 -1.1968968 0
5.3966055 3.0278888 -1.2028253 0
5.3811636 3.0429914 -1.2016509 0
5.3790102 3.0656209 -1.2034584 0
5.3538384 3.0751016 -1.2001268 0
5.3395686 3.09076 -1.1992441 0
5.3288846 3.1084754 -1.1991787 0
5.3279667 3.1319292 -1.2013284 0
5.3043089 3.1419992 -1.1983627 0
5.3083754 3.168499 -1.2016747 0
5.2809243 3.1761761 -1.1978644 0
5.2919192 3.2069991 -1.2027906 0
5.2478824 3.2044179 -1.1952168 0
5.3003912 3.2609279 -1.2096591 0
5.2431931 3.2500217 -1.1990855 0
5.2230282 3.2618132 -1.1969682 0
5.2279134 3.2892799 -1.2006085 0
5.2229619 3.3106601 -1.2020137 0
5.1975665 3.3190429 -1.1987234 0
5.1812181 3.3331115 -1.1975237 0
5.1608338 3.3445153 -1.1953974 0
5.1693439 3.3746948 -1.1999826 0
5.154767 3.3898814 -1.1992304 0
5.1267552 3.3961375 -1.195356 0
5.1188765 3.4156673 -1.1961824 0
5.1289306 3.4472852 -1.2012261 0
5.1158385 3.463443 -1.2008728 0
5.1055527 3.4815001 -1.2011917 0
5.1001 3.5028903 -1.2026652 0
5.0608983 3.5009961 -1.1961823 0
5.0542655 3.5215216 -1.1973985 0
5.0455112 3.5406101 -1.1981301 0
5.0552812 3.5728214 -1.203288 0
5.0254025 3.5770302 -1.1990241 0
5.0304294 3.6060805 -1.2031014 0
5.0047355 3.6131258 -1.1998469 0
4.9883289 3.626785 -1.198822 0
4.9793043 3.6458056 -1.199584 0
4.9815145 3.6731436 -1.2030768 0
4.9382987 3.6669009 -1.1956023 0
4.9343042 3.6896646 -1.1976236 0
4.923739 3.7075679 -1.1980696 0
4.9137483 3.7259266 -1.1986716 0
4.9134483 3.7517114 -1.2016603 0
4.908711 3.7742143 -1.2035896 0
4.8663788 3.767695 -1.1963007 0
4.8816657 3.8057773 -1.2031888 0
4.8738923 3.8260593 -1.2044278 0
4.8204236 3.8102765 -1.194365 0
4.8211088 3.8371515 -1.1977156 0
4.8301182 3.8708465 -1.2031714 0
4.8131013 3.8837824 -1.2021694 0
4.7830729 3.8861024 -1.1979169 0
4.7894659 3.9180279 -1.2028012 0
4.758348 3.9192753 -1.1982797 0
4.7534842 3.9420934 -1.2003766 0
4.7552042 3.9705033 -1.2041659 0
4.7217827 3.9695408 -1.199066 0
4.7038589 3.9814663 -1.1978977 0
4.6892543 3.9961679 -1.1975838 0
4.6879611 4.0222764 -1.200691 0
4.6908741 4.0521603 -1.20491 0
4.6538296 4.0474863 -1.1988738 0
4.6491985 4.0709176 -1.2011901 0
4.635777 4.0867057 -1.2012558 0
4.6088533 4.0905147 -1.1978264 0
4.6247115 4.1323919 -1.205542 0
4.591104 4.1301289 -1.2003844 0
4.5824156 4.1501946 -1.2017441 0
4.569047 4.1660566 -1.2018945 0
4.541285 4.1687136 -1.1982617 0
4.5523033 4.2070394 -1.2048841 0
4.5281062 4.212913 -1.2022114 0
4.5162339 4.2302055 -1.2028183 0
4.496417 4.2400351 -1.2013198 0
4.474555 4.2478518 -1.1992773 0
4.4656444 4.2679505 -1.2007177 0
4.4498682 4.2815118 -1.2003288 0
4.436367 4.2972589 -1.2005666 0
4.426702 4.3167586 -1.2018611 0
4.3924789 4.3122115 -1.1964881 0
4.3799086 4.3288045 -1.1970108 0
4.3881235 4.3661041 -1.2032499 0
4.3799534 4.3872962 -1.2050363 0
4.364933 4.4016685 -1.2049574 0
4.3350616 4.40096 -1.2007778 0
4.3224263 4.4176621 -1.2013741 0
4.3279357 4.4530625 -1.2070482 0
4.2775631 4.430861 -1.1971359 0
4.2934651 4.4772782 -1.2057809 0
4.2566338 4.4687662 -1.1996381 0
4.2387419 4.4799633 -1.1988221 0
4.2231698 4.4935889 -1.1986724 0
4.2169061 4.5171776 -1.2011865 0
4.1987033 4.528019 -1.2003192 0
4.1827478 4.541256 -1.2001039 0
4.1595182 4.5465322 -1.197806 0
4.1593742 4.5770946 -1.2021769 0
4.1439838 4.590991 -1.2021708 0
4.1097245 4.5838418 -1.196684 0
4.1112933 4.6166406 -1.2016412 0
4.086885 4.6203303 -1.1990283 0
4.0746274 4.637713 -1.1999872 0
4.045682 4.636024 -1.1960337 0
4.0304828 4.6499858 -1.1961427 0
4.0329146 4.6844335 -1.2015188 0
4.0278115 4.7103548 -1.2046968 0
3.9969699 4.706141 -1.2001849 0
3.9756558 4.7129807 -1.198523 0
3.9547803 4.7202544 -1.1969942 0
3.9386523 4.7331514 -1.1969092 0
3.9367709 4.7632818 -1.2011839 0
3.9125588 4.7664409 -1.1986657 0
3.8954527 4.7781792 -1.1983263 0
3.8797886 4.7916799 -1.1984432 0
3.8702223 4.8127708 -1.2004659 0
3.8482199 4.8184018 -1.1986455 0
3.8245325 4.8218083 -1.1962962 0
3.8245227 4.8551421 -1.2013782 0
3.8176129 4.8799405 -1.2043405 0
3.7749541 4.858892 -1.1960155 0
3.7419624 4.8499036 -1.190708 0
3.7620964 4.9099493 -1.2023463 0
3.7497015 4.9279079 -1.2036587 0
3.7278121 4.9333773 -1.2019351 0
3.7055814 4.9382935 -1.200099 0
3.6786292 4.9367676 -1.1967241 0
3.6744485 4.9658208 -1.2007737 0
3.6584935 4.9790859 -1.2010086 0
3.6491668 5.0014496 -1.2034448 0
3.6124949 4.9862132 -1.1968577 0
3.6088333 5.0164742 -1.2012101 0
3.5736713 5.0028958 -1.1950829 0
3.5597103 5.0188437 -1.1960347 0
3.5500271 5.0409231 -1.1984532 0
3.5330482 5.0527148 -1.1984336 0
3.5173094 5.0662918 -1.1988502 0
3.4901724 5.0633588 -1.1953803 0
3.4764998 5.0798888 -1.1965241 0
3.4600337 5.0923777 -1.1967266 0
3.4612467 5.1310878 -1.2030897 0
3.4217284 5.1093721 -1.1953013 0
3.4224286 5.1476641 -1.2015682 0
3.3976924 5.1478109 -1.1989367 0
3.3941736 5.1801744 -1.203817 0
3.3698323 5.1808338 -1.2013378 0
3.3393745 5.1718631 -1.1966548 0
3.325388 5.1882925 -1.1978697 0
3.3265119 5.22855 -1.2045825 0
3.2822566 5.1973853 -1.1948605 0
3.2679276 5.2133303 -1.1960006 0
3.2724361 5.2596273 -1.2040979 0
3.2307911 5.2317185 -1.195222 0
3.2227221 5.2580051 -1.198752 0
3.2142136 5.2838035 -1.20217 0
3.1953447 5.2926702 -1.2017431 0
3.185827 5.3171158 -1.2048616 0
3.1521544 5.3011494 -1.198842 0
3.1493621 5.3371067 -1.204579 0
3.0996878 5.293395 -1.1923609 0
3.0909562 5.319304 -1.1958559 0
3.0763159 5.3352075 -1.1971056 0
3.0690708 5.3641233 -1.2012782 0
3.0599918 5.3901014 -1.2047915 0
3.0260577 5.372201 -1.1985159 0
3.0192263 5.4023523 -1.2029773 0
2.9920409 5.3961139 -1.1993475 0
2.9879451 5.4315886 -1.2049989 0
2.9500442 5.4055281 -1.1970162 0
2.9440014 5.4377337 -1.2019554 0
2.9232166 5.4428506 -1.2009133 0
2.9062319 5.4550252 -1.2014427 0
2.8875005 5.4639335 -1.2012657 0
2.858958 5.4541121 -1.1969924 0
2.8382869 5.4591117 -1.1959944 0
2.8176126 5.4640303 -1.1949956 0
2.809278 5.4930019 -1.199265 0
2.8063478 5.5329547 -1.2059267 0
2.774112 5.5151577 -1.2000139 0
2.7553363 5.5238886 -1.1998967 0
2.7321913 5.5237775 -1.197876 0
2.7173321 5.5404029 -1.1994989 0
2.6873701 5.5261002 -1.1944449 0
2.681576 5.5615206 -1.2001508 0
2.6682401 5.5816212 -1.2025511 0
2.6529202 5.5977297 -1.2040985 0
2.6302381 5.5982938 -1.2023162 0
2.6028004 5.5885019 -1.1983323 0
2.5823848 5.5935941 -1.1975608 0
2.5638783 5.6027937 -1.1976833 0
2.5512481 5.6249604 -1.2005864 0
2.5343351 5.637845 -1.2015162 0
2.5106144 5.6355271 -1.1992215 0
2.4980619 5.6583109 -1.2022808 0
2.4729192 5.6525803 -1.1992947 0
2.4495976 5.6507916 -1.197166 0
2.4233673 5.642046 -1.193585 0
2.4215431 5.6903367 -1.2020766 0
2.4042671 5.7027316 -1.2029853 0
2.3791735 5.6964908 -1.1999794 0
2.352021 5.6850028 -1.1958915 0
2.3377056 5.7044687 -1.1983309 0
2.3262534 5.7312126 -1.2023038 0
2.2969999 5.7140422 -1.1970793 0
2.2735677 5.7110081 -1.19484 0
2.268714 5.75489 -1.2024226 0
2.2410085 5.740952 -1.1979337 0
2.2258127 5.7589507 -1.2001255 0
2.1977081 5.7434273 -1.1953483 0
2.1951792 5.7949548 -1.2045338 0
2.159009 5.7576704 -1.1952726 0
2.1486135 5.7889118 -1.2002559 0
2.13785 5.8196521 -1.2051365 0
2.10901 5.8011622 -1.1998366 0
2.0924065 5.8161459 -1.2014779 0
2.0651283 5.8013129 -1.1969767 0
2.044868 5.8059387 -1.1965098 0
2.0245764 5.8104267 -1.1960291 0
2.0068204 5.8222203 -1.1970649 0
1.990968 5.8397083 -1.1992813 0
1.9644719 5.8258724 -1.1950804 0
1.9503032 5.8485456 -1.1983835 0
1.9203809 5.8238091 -1.1919888 0
1.9154518 5.8750196 -1.2011491 0
1.8992381 5.8922515 -1.2033635 0
1.8678892 5.8622346 -1.1959475 0
1.8561572 5.8936548 -1.201081 0
1.8374724 5.9033341 -1.2017914 0
1.8171602 5.9078064 -1.2014548 0
1.8022333 5.9299588 -1.2047242 0
1.7733592 5.906054 -1.1986531 0
1.7588412 5.9298148 -1.2022718 0
1.7423121 5.9471555 -1.2045964 0
1.714434 5.92556 -1.1990513 0
1.6925049 5.9240918 -1.1975992 0
1.6704776 5.922092 -1.1960559 0
1.6620464 5.9687209 -1.2043411 0
1.6355658 5.9507585 -1.1996034 0
1.6197776 5.9715924 -1.2027018 0
1.5923698 5.9494276 -1.1971557 0
1.5699482 5.9453964 -1.1952786 0
1.567992 6.0196786 -1.2091488 0
1.5319763 5.9633064 -1.1967871 0
1.5166539 5.9868827 -1.2004914 0
1.4990709 6.0019374 -1.2024956 0
1.4710233 5.9747787 -1.1960595 0
1.4595461 6.0149679 -1.2031183 0
1.4365548 6.00805 -1.2007644 0
1.4161646 6.0118213 -1.2005625 0
1.3913366 5.9964361 -1.1965518 0
1.3754413 6.0195251 -1.200232 0
1.362624 6.0568752 -1.2067615 0
1.3341786 6.0246964 -1.1994523 0
1.3170165 6.043108 -1.2022319 0
1.2918332 6.02457 -1.1976756 0
1.2729182 6.0349913 -1.198892 0
1.2555813 6.0532274 -1.2016717 0
1.230634 6.0346255 -1.1971532 0
1.2099329 6.0364175 -1.1966971 0
1.1953638 6.069262 -1.2024071 0
1.1767428 6.0822024 -1.2041824 0
1.1549923 6.0790009 -1.2027751 0
1.1324441 6.0712595 -1.2004853 0
1.113656 6.083621 -1.2021846 0
1.0941659 6.0924063 -1.2031889 0
1.0737432 6.0960979 -1.2032002 0
1.0495489 6.0779524 -1.1989175 0
1.029402 6.082839 -1.199194 0
1.0101608 6.0932479 -1.2005715 0
0.99029839 6.1001291 -1.2012664 0
0.96772116 6.0900793 -1.1986417 0
0.94991678 6.1101418 -1.2019566 0
0.9254784 6.0873318 -1.1968524 0
0.90823007 6.1117086 -1.2010399 0
0.88752925 6.1133127 -1.2007636 0
0.86715496 6.1171532 -1.2009401 0
0.84484833 6.1070719 -1.198398 0
0.82784969 6.1356769 -1.2034597 0
0.80457324 6.117887 -1.1994346 0
0.78113008 6.0977049 -1.1949577 0
0.76300836 6.1189523 -1.1986134 0
0.74440855 6.1373072 -1.2017132 0
0.72289878 6.1318936 -1.2001719 0
0.70126659 6.1249461 -1.1983452 0
0.68193805 6.1381645 -1.2004772 0
0.66084611 6.1357002 -1.1995552 0
0.63973778 6.1327744 -1.198557 0
0.62058622 6.1488953 -1.2012942 0
0.60066295 6.1580801 -1.2026885 0
0.58063209 6.1666379 -1.2039728 0
0.55826789 6.1499839 -1.2003491 0
0.53765577 6.1519437 -1.2003731 0
0.51929826 6.1807513 -1.2056476 0
0.49477938 6.1354222 -1.1964751 0
0.47489077 6.1459126 -1.1982037 0
0.45450851 6.1505356 -1.198801 0
0.43472949 6.1640077 -1.2011361 0
0.41422257 6.1678472 -1.2016069 0
0.39411736 6.1782427 -1.2033678 0
0.372381 6.1626539 -1.2000817 0
0.35102734 6.1517873 -1.1977296 0
0.33286446 6.1988325 -1.206665 0
0.31018803 6.1623449 -1.1993532 0
0.29087257 6.1920352 -1.2049352 0
0.26979801 6.1858172 -1.2035424 0
0.24868974 6.1775742 -1.2017695 0
0.22761278 6.1685266 -1.1998543 0
0.20755136 6.1877918 -1.2034594 0
0.18596357 6.1606212 -1.1980472 0
0.16512701 6.1544967 -1.1967417 0
0.1448662 6.1709895 -1.1998475 0
0.12462971 6.1940279 -1.2042389 0
0.10321482 6.1558371 -1.1967398 0
0.082788035 6.172039 -1.199829 0
0.062153716 6.1782289 -1.200985 0
0.041309703 6.1591349 -1.1972396 0
0.020651381 6.1569519 -1.1967951 0
8.1709823e-06 6.1584363 -1.1970769 0
-0.020679623 6.1702528 -1.1993805 0
-0.041530564 6.1945157 -1.2041171 0
-0.062164508 6.180932 -1.2015104 0
-0.082926109 6.1835561 -1.2020679 0
-0.10335994 6.1654677 -1.1986121 0
-0.12405899 6.1664772 -1.1988825 0
-0.14477704 6.1678891 -1.1992446 0
-0.16666676 6.2125001 -1.2080203 0
-0.18645303 6.1773796 -1.201306 0
-0.20706236 6.1737022 -1.2007191 0
-0.22720417 6.1578965 -1.1977865 0
-0.24837404 6.1701388 -1.200323 0
-0.26856592 6.1579437 -1.198119 0
-0.28963426 6.1660233 -1.1998732 0
-0.31020442 6.1629963 -1.1994798 0
-0.33131385 6.1702614 -1.2011033 0
-0.35385263 6.2015901 -1.2074258 0
-0.37265104 6.1673951 -1.2010047 0
-0.39477465 6.1888046 -1.2054249 0
-0.41448039 6.1719313 -1.2024022 0
-0.4329477 6.1389761 -1.1962581 0
-0.45461693 6.152225 -1.1991301 0
-0.47255301 6.1158695 -1.1923462 0
-0.49671516 6.1596308 -1.2011958 0
-0.51792103 6.1645555 -1.2024881 0
-0.5372982 6.1480403 -1.1996112 0
-0.55910718 6.159411 -1.2021888 0
-0.57774633 6.1361642 -1.1980228 0
-0.59794295 6.1303625 -1.1972748 0
-0.61988342 6.1420951 -1.1999655 0
-0.63997465 6.1352029 -1.1990314 0
-0.66048956 6.1325426 -1.1989375 0
-0.68360949 6.1533585 -1.2034484 0
-0.70045167 6.1179724 -1.1969804 0
-0.72290337 6.1320724 -1.2002065 0
-0.74417436 6.1355128 -1.2013614 0
-0.76482189 6.1336284 -1.2014879 0
-0.78556144 6.1324267 -1.2017616 0
-0.80445933 6.117147 -1.1992891 0
-0.8273592 6.1321645 -1.2027705 0
-0.84484762 6.1071858 -1.1984199 0
-0.86383265 6.093833 -1.1963613 0
-0.88885552 6.1225619 -1.2025799 0
-0.90782946 6.1091247 -1.2005316 0
-0.92497307 6.0841165 -1.1962199 0
-0.95362759 6.1341181 -1.2066727 0
-0.97019589 6.1057577 -1.2017269 0
-0.99114388 6.1054397 -1.2023116 0
-1.0101519 6.0932946 -1.2005802 0
-1.0321006 6.0988827 -1.2023563 0
-1.0535623 6.1012902 -1.2035205 0
-1.0699544 6.0746813 -1.1989727 0
-1.0902132 6.0704894 -1.19886 0
-1.1104712 6.0663142 -1.198764 0
-1.1315683 6.0666533 -1.199574 0
-1.1561551 6.0852094 -1.2040029 0
-1.1693844 6.0442553 -1.1966689 0
-1.1943605 6.0642533 -1.2014142 0
-1.2128016 6.0508127 -1.1995503 0
-1.2332451 6.0475121 -1.1997089 0
-1.2522852 6.0374174 -1.1985326 0
-1.2721951 6.031642 -1.198226 0
-1.2931515 6.0307965 -1.1989126 0
-1.3159333 6.0382152 -1.2012578 0
-1.3380718 6.0423527 -1.2029667 0
-1.3576014 6.0346241 -1.2023275 0
-1.3769152 6.0260491 -1.201532 0
-1.4001106 6.0343237 -1.2041112 0
-1.4110408 5.9901414 -1.1962322 0
-1.4316347 5.9875431 -1.1966652 0
-1.4491554 5.9722157 -1.1945662 0
-1.4729627 5.9827242 -1.1976492 0
-1.4977525 5.996727 -1.2014508 0
-1.5116534 5.9672103 -1.196546 0
-1.5400138 5.994658 -1.2030783 0
-1.5594243 5.9868512 -1.2025541 0
-1.5800525 5.983726 -1.2029837 0
-1.5935026 5.953723 -1.1980193 0
-1.621575 5.9782815 -1.2040482 0
-1.6428221 5.9772215 -1.2049372 0
-1.6563745 5.9484124 -1.2002425 0
-1.6769093 5.9449539 -1.2006723 0
-1.6949136 5.9325829 -1.1993147 0
-1.7166096 5.9331384 -1.2005839 0
-1.736441 5.9271731 -1.2005482 0
-1.7585778 5.9289846 -1.2021025 0
-1.7736048 5.906929 -1.1988298 0
-1.7979729 5.915997 -1.2018868 0
-1.8133402 5.8954425 -1.1989393 0
-1.8403009 5.9124761 -1.2036515 0
-1.8550323 5.8901377 -1.2003633 0
-1.8768346 5.8903637 -1.2016851 0
-1.8928012 5.8723345 -1.1992949 0
-1.9169004 5.8795152 -1.2020673 0
-1.9322795 5.8599453 -1.199384 0
-1.9465115 5.8372269 -1.1960632 0
-1.9773983 5.8642583 -1.2029537 0
-1.9930507 5.8458681 -1.2005453 0
-2.0078559 5.8252745 -1.1976918 0
-2.0395455 5.8534369 -1.2048812 0
-2.0519786 5.8261771 -1.2006794 0
-2.0687521 5.8115416 -1.1990861 0
-2.086134 5.7987595 -1.1978852 0
-2.1073415 5.7966208 -1.1988962 0
-2.1379538 5.8199821 -1.2052037 0
-2.1453283 5.780108 -1.1984293 0
-2.1716707 5.7914834 -1.2022908 0
-2.184262 5.766181 -1.1985518 0
-2.2023377 5.7555718 -1.1978747 0
-2.2253819 5.7578812 -1.1999013 0
-2.2354631 5.7267904 -1.1949775 0
-2.2628901 5.7401619 -1.199344 0
-2.2789245 5.7245078 -1.1976631 0
-2.3052974 5.7347269 -1.2014115 0
-2.3298051 5.7400069 -1.2041472 0
-2.353724 5.7436004 -1.2065498 0
-2.36238 5.710084 -1.2011663 0
-2.3835306 5.7069654 -1.2021846 0
-2.4051125 5.7047791 -1.203416 0
-2.4170363 5.6797881 -1.1998469 0
-2.4349897 5.6691465 -1.1993167 0
-2.4530227 5.6587343 -1.1988473 0
-2.4727671 5.6522732 -1.199228 0
-2.4938192 5.6487412 -1.2002461 0
-2.4996221 5.6108928 -1.1939781 0
-2.5347915 5.6388998 -1.2017395 0
-2.5565999 5.6367998 -1.203112 0
-2.5693061 5.6146946 -1.2002258 0
-2.5871398 5.6039324 -1.1997727 0
-2.6112781 5.6067433 -1.2022423 0
-2.6249926 5.5871677 -1.1999252 0
-2.6418819 5.5744767 -1.1990951 0
-2.6646228 5.5740919 -1.2009275 0
-2.6852469 5.5691714 -1.2018003 0
-2.6976347 5.547245 -1.1990137 0
-2.7280648 5.5623236 -1.2042431 0
-2.7500155 5.5598507 -1.2056972 0
-2.7479751 5.5091672 -1.1966974 0
-2.7697439 5.5065098 -1.1981306 0
-2.7993975 5.5192876 -1.2029463 0
-2.8071728 5.4889216 -1.1983726 0
-2.8368952 5.5014601 -1.2031798 0
-2.8511293 5.4838481 -1.201412 0
-2.8643062 5.4643507 -1.1992377 0
-2.8815992 5.4528017 -1.1988168 0
-2.8958139 5.4355054 -1.1971419 0
-2.9188533 5.4347615 -1.1991267 0
-2.9490077 5.4470153 -1.2040054 0
-2.9653387 5.4335876 -1.2032281 0
-2.9579494 5.3770957 -1.1929078 0
-2.994319 5.4002562 -1.2002665 0
-3.005518 5.3778572 -1.1975211 0
-3.0365853 5.390924 -1.2026911 0
-3.058028 5.3866754 -1.2040238 0
-3.0563452 5.3419147 -1.1963028 0
-3.0701072 5.3244724 -1.1946951 0
-3.1093719 5.3510289 -1.2029862 0
-3.1237414 5.3345041 -1.201619 0
-3.1208818 5.2888741 -1.193691 0
-3.1558018 5.3073153 -1.2002345 0
-3.1616352 5.2767715 -1.1957176 0
-3.1794419 5.2663608 -1.1957675 0
-3.1920857 5.2474594 -1.1938992 0
-3.2212071 5.2555647 -1.1981937 0
-3.2410476 5.2483587 -1.1990216 0
-3.2752118 5.2641196 -1.2051243 0
-3.2762051 5.2265663 -1.199035 0
-3.2958767 5.2189832 -1.1998237 0
-3.3215969 5.2208552 -1.2028077 0
-3.325109 5.1878872 -1.1977741 0
-3.3392322 5.1716728 -1.1966087 0
-3.3626037 5.1697507 -1.1987658 0
-3.375797 5.1521578 -1.1973041 0
-3.3984482 5.1489859 -1.1992081 0
-3.4086103 5.1269097 -1.1967217 0
-3.437937 5.133605 -1.2009683 0
-3.4454589 5.1077127 -1.1976068 0
-3.4725325 5.1108022 -1.2010543 0
-3.4724753 5.0740371 -1.1951437 0
-3.5021532 5.0807691 -1.1994883 0
-3.5322869 5.0878944 -1.2039597 0
-3.5424581 5.0662007 -1.2016301 0
-3.5425885 5.0303888 -1.1959466 0
-3.5623782 5.0226331 -1.1969357 0
-3.5875506 5.0223541 -1.1997287 0
-3.6133678 5.0228057 -1.202724 0
-3.6164577 4.9917111 -1.198175 0
-3.6382556 4.9865227 -1.1998509 0
-3.6511555 4.9691267 -1.1986039 0
-3.6831067 4.9775491 -1.2036074 0
-3.6960769 4.9602103 -1.2024045 0
-3.7112839 4.9459205 -1.2019502 0
-3.7308705 4.9374523 -1.2029254 0
-3.7344267 4.9078608 -1.1987597 0
-3.7623937 4.9103642 -1.2024455 0
-3.7591321 4.8721838 -1.1961756 0
-3.7923808 4.8813496 -1.2015409 0
-3.798872 4.8560109 -1.1984323 0
-3.8259399 4.8569674 -1.2018274 0
-3.8372893 4.8379178 -1.2002904 0
-3.8535602 4.8251147 -1.2003129 0
-3.8809557 4.8261442 -1.2037991 0
-3.8771961 4.7885041 -1.1976463 0
-3.8924594 4.7745333 -1.1974094 0
-3.9376636 4.7970505 -1.2063608 0
-3.9359643 4.762332 -1.2009417 0
-3.9424496 4.7377405 -1.1980668 0
-3.9602385 4.7267942 -1.1986499 0
-3.9816215 4.720078 -1.2003253 0
-4.0032191 4.7135243 -1.2020652 0
-4.0085154 4.6878142 -1.1989292 0
-4.0415411 4.694479 -1.2040926 0
-4.050035 4.6725688 -1.201949 0
-4.0457177 4.6360898 -1.1960479 0
-4.0754876 4.6387172 -1.2002442 0
-4.0805993 4.6132483 -1.1971877 0
-4.0985541 4.6023602 -1.1979214 0
-4.1361413 4.6133313 -1.2043798 0
-4.1488767 4.5964365 -1.2035939 0
-4.1441145 4.5603266 -1.1977699 0
-4.1677723 4.5555778 -1.2001863 0
-4.1769009 4.5349321 -1.1984298 0
-4.2134261 4.5439205 -1.2045317 0
-4.2119474 4.5118899 -1.1997775 0
-4.2357125 4.506958 -1.2022358 0
-4.2354288 4.4764857 -1.1978885 0
-4.2602563 4.4725933 -1.2006625 0
-4.2833028 4.4667048 -1.2029302 0
-4.2932677 4.4471526 -1.2015344 0
-4.2900648 4.4141207 -1.1964893 0
-4.3393855 4.4350185 -1.2060908 0
-4.3284097 4.3942304 -1.1989386 0
-4.3475308 4.3841429 -1.2001567 0
-4.3731356 4.3804903 -1.2031637 0
-4.3961897 4.3741531 -1.2054648 0
-4.4065552 4.3551631 -1.2042964 0
-4.4118581 4.3312597 -1.2017701 0
-4.4293604 4.3193736 -1.2025861 0
-4.4303837 4.2914858 -1.1989504 0
-4.4408841 4.2728901 -1.1979084 0
-4.4678946 4.2701235 -1.2013258 0
-4.4953489 4.2676153 -1.2048535 0
-4.4927921 4.236639 -1.2003543 0
-4.4845281 4.2005296 -1.1943768 0
-4.509973 4.1960645 -1.1974001 0
-4.5322175 4.188499 -1.1995707 0
-4.5597343 4.1856713 -1.2031325 0
-4.5614214 4.1591258 -1.1998916 0
-4.5828691 4.1506271 -1.2018658 0
-4.5773826 4.1178069 -1.1967996 0
-4.5957408 4.1065273 -1.1979929 0
-4.601666 4.084157 -1.1959611 0
-4.6449018 4.0947719 -1.2036232 0
-4.6406808 4.0634809 -1.1989923 0
-4.6639128 4.0562773 -1.201474 0
-4.6708379 4.0348744 -1.1997663 0
-4.6973433 4.0303483 -1.2030967 0
-4.695868 4.0018253 -1.1992756 0
-4.7099495 3.9866433 -1.1994514 0
-4.7207384 3.9686847 -1.1988037 0
-4.745163 3.9621401 -1.2016258 0
-4.7397728 3.9307435 -1.1969167 0
-4.7620077 3.9223111 -1.1992041 0
-4.7837529 3.9133754 -1.2013692 0
-4.8010373 3.9007187 -1.2024186 0
-4.8094711 3.8808739 -1.2012652 0
-4.8292012 3.8701327 -1.2029456 0
-4.8366189 3.8495173 -1.2015715 0
-4.846446 3.8308668 -1.2008152 0
-4.8360429 3.7963679 -1.1950771 0
-4.8866658 3.8096962 -1.2044237 0
-4.8764071 3.77548 -1.1987685 0
-4.9079151 3.7736232 -1.2033969 0
-4.9114738 3.7502244 -1.2011797 0
-4.9206014 3.7311437 -1.2003458 0
-4.9277701 3.7106237 -1.1990529 0
-4.9537854 3.704252 -1.2023543 0
-4.950119 3.6756983 -1.1984665 0
-4.9635768 3.6599374 -1.198747 0
-4.9881706 3.652318 -1.2017225 0
-4.9817524 3.6220238 -1.1972438 0
-4.9894109 3.6020825 -1.1961752 0
-5.0348802 3.6092911 -1.2041681 0
-5.0386009 3.5864449 -1.2021754 0
-5.0175529 3.5461769 -1.1943098 0
-5.0489268 3.5430267 -1.1989435 0
-5.0552177 3.5222049 -1.1976262 0
-5.0783582 3.5130942 -1.2003112 0
-5.093133 3.4981253 -1.2010245 0
-5.1021543 3.4792025 -1.2003942 0
-5.1010122 3.4534254 -1.1973946 0
-5.1195755 3.4410172 -1.1990373 0
-5.1383815 3.4287024 -1.2007426 0
-5.1470432 3.4095967 -1.2000885 0
-5.1579719 3.3920088 -1.1999782 0
-5.1661634 3.372638 -1.1992464 0
-5.1545534 3.3404644 -1.1939447 0
-5.1843724 3.33516 -1.1982548 0
-5.2061067 3.3245161 -1.2006952 0
-5.1987696 3.2953448 -1.1964481 0
-5.2318554 3.2917793 -1.2015157 0
-5.2438703 3.2748485 -1.2017466 0
-5.2478738 3.2529423 -1.2001579 0
-5.250339 3.2301538 -1.1982381 0
-5.2661691 3.2156034 -1.1993836 0
-5.2845583 3.2025571 -1.2011195 0
-5.295332 3.1848607 -1.2011344 0
-5.3131213 3.1713507 -1.2027509 0
-5.2973289 3.1378839 -1.1967877 0
-5.3466144 3.1429098 -1.2055348 0
-5.3106661 3.0978668 -1.1950806 0
-5.3430858 3.0928149 -1.2000359 0
-5.3561912 3.0764718 -1.2006559 0
-5.3511 3.0497329 -1.1972158 0
-5.3826156 3.0438313 -1.2019769 0
-5.3862944 3.0221221 -1.2005289 0
-5.394906 3.0032163 -1.2001973 0
-5.4271283 2.9973631 -1.2051233 0
-5.428678 2.9745095 -1.2032461 0
-5.4366002 2.9551933 -1.2027991 0
-5.4390531 2.932945 -1.2011595 0
-5.4639025 2.9227409 -1.2044764 0
-5.4533186 2.8936057 -1.1999977 0
-5.4642544 2.8759711 -1.2002754 0
-5.4959726 2.869175 -1.2051228 0
-5.4777465 2.8363295 -1.1990343 0
-5.4779029 2.8131602 -1.1969973 0
-5.4876251 2.7949414 -1.1970673 0
-5.521956 2.7891498 -1.2025095 0
-5.5216408 2.7657936 -1.2004147 0
-5.539865 2.7517264 -1.2023641 0
-5.5248747 2.7212245 -1.1971236 0
-5.534605 2.702997 -1.1972617 0
-5.5719967 2.6981583 -1.2033867 0
-5.5716186 2.6749516 -1.2013613 0
-5.5626922 2.6477532 -1.1975156 0
-5.5811572 2.6336265 -1.1995831 0
-5.5797143 2.6101081 -1.1973852 0
-5.5947518 2.5943153 -1.1987389 0
-5.5893769 2.5690885 -1.195735 0
-5.6331997 2.5663888 -1.2032623 0
-5.6319494 2.543052 -1.2011673 0
-5.6310229 2.5199387 -1.1991611 0
-5.6408906 2.501688 -1.1994694 0
-5.659276 2.487169 -1.2015989 0
-5.6555719 2.4629495 -1.1990523 0
-5.6527615 2.4392114 -1.196716 0
-5.6727495 2.4253078 -1.1992192 0
-5.6819167 2.4067266 -1.1994445 0
-5.6809354 2.3838782 -1.1975434 0
-5.7197061 2.377625 -1.2040291 0
-5.7150545 2.35325 -1.2013823 0
-5.7274752 2.3359363 -1.2023401 0
-5.7097335 2.3064027 -1.1969856 0
-5.7205577 2.2884955 -1.1976395 0
-5.7404203 2.2741446 -1.2001948 0
-5.7404642 2.251924 -1.1986187 0
-5.7619438 2.2380877 -1.2015301 0
-5.7654548 2.2172334 -1.2007053 0
-5.7592082 2.1926942 -1.1978666 0
-5.7470584 2.1660345 -1.1938223 0
-5.7875938 2.1591787 -1.200732 0
-5.7986784 2.1411939 -1.2015356 0
-5.7931724 2.117116 -1.198917 0
-5.7907457 2.0942478 -1.196955 0
-5.7961736 2.0742621 -1.1966327 0
-5.8409829 2.0682323 -1.2044452 0
-5.8114982 2.0358901 -1.196951 0
-5.8632808 2.0319853 -1.2062063 0
-5.8136377 1.9929732 -1.1946123 0
-5.8562713 1.9856709 -1.201998 0
-5.8672962 1.9675006 -1.2029002 0
-5.8683486 1.94599 -1.2017715 0
-5.8665318 1.9235793 -1.2000719 0
-5.8653951 1.9014504 -1.1985285 0
-5.9057775 1.8926834 -1.2054768 0
-5.913084 1.8731867 -1.2056794 0
-5.9136629 1.851576 -1.2045249 0
-5.8975644 1.8248463 -1.1999929 0
-5.9071774 1.8061413 -1.2007099 0
-5.8974423 1.7815652 -1.1975102 0
-5.9091921 1.7635161 -1.1986889 0
-5.9350142 1.7495725 -1.2027302 0
-5.9252934 1.7251353 -1.1995813 0
-5.9759188 1.7181615 -1.2086575 0
-5.9196415 1.6805134 -1.1961288 0
-5.9198132 1.6591346 -1.1950327 0
-5.9610205 1.6491479 -1.2022283 0
-5.9516835 1.6251024 -1.1992396 0
-5.954123 1.6043365 -1.1986405 0
-5.9856958 1.5913372 -1.2039157 0
-5.9624014 1.5637593 -1.1981691 0
-5.9404044 1.5367217 -1.1927067 0
-6.0080395 1.5327448 -1.2052476 0
-5.9835935 1.5051589 -1.1993246 0
-5.9975252 1.4873003 -1.2011107 0
-6.0005751 1.4667182 -1.20073 0
-6.0175233 1.4494972 -1.203142 0
-5.9983792 1.4236245 -1.1983534 0
-6.016686 1.406677 -1.2010617 0
-6.0323873 1.3890334 -1.2032595 0
-6.0133629 1.3634386 -1.1985463 0
-6.0331111 1.3466643 -1.2015756 0
-6.0422349 1.3274488 -1.2024996 0
-6.0273705 1.3030148 -1.1986651 0
-6.0504966 1.2867953 -1.2023995 0
-6.0351067 1.2623873 -1.1984932 0
-6.0357108 1.2414063 -1.1977799 0
-6.0325813 1.2196953 -1.1963406 0
-6.0619397 1.2044899 -1.2013551 0
-6.0414691 1.1793808 -1.1965078 0
-6.0693874 1.1637195 -1.2012576 0
-6.0864406 1.1458459 -1.2038656 0
-6.0744009 1.1225042 -1.2007331 0
-6.0558581 1.098093 -1.1963332 0
-6.1108127 1.0869085 -1.2064627 0
-6.066205 1.0580044 -1.1969488 0
-6.1005316 1.0429274 -1.2030251 0
-6.0889692 1.0199507 -1.2000639 0
-6.053556 0.99316448 -1.1924214 0
-6.085444 0.97745502 -1.1980504 0
-6.1115031 0.9606325 -1.2025399 0
-6.1256933 0.94182825 -1.2047039 0
-6.1152101 0.91923922 -1.2020292 0
-6.1091909 0.89739907 -1.200248 0
-6.1222386 0.87835628 -1.202226 0
-6.1162004 0.85657138 -1.2004696 0
-6.1154876 0.83557498 -1.1997732 0
-6.1228566 0.81567931 -1.2006756 0
-6.1281128 0.79547769 -1.2011765 0
-6.1409512 0.7762168 -1.2031761 0
-6.1297874 0.75393409 -1.2004868 0
-6.1086469 0.73055136 -1.1958601 0
-6.1383815 0.71324044 -1.2012062 0
-6.1439514 0.69301802 -1.2018347 0
-6.1183624 0.66936475 -1.1963835 0
-6.1574726 0.65275908 -1.2035964 0
-6.1267753 0.6287393 -1.1971772 0
-6.1671996 0.61199957 -1.2046684 0
-6.1604776 0.59048104 -1.2029619 0
-6.1585703 0.56946653 -1.2022098 0
-6.1769166 0.55028224 -1.2054242 0
-6.1608944 0.52804071 -1.2019453 0
-6.1430602 0.50577015 -1.1981283 0
-6.1498666 0.48557708 -1.1991316 0
-6.1553974 0.46525258 -1.1998991 0
-6.1409478 0.4434585 -1.1967858 0
-6.1779027 0.4253107 -1.2037032 0
-6.1996942 0.40593067 -1.207677 0
-6.1648712 0.38289681 -1.2006369 0
-6.1628852 0.36203495 -1.200007 0
-6.1563411 0.3409422 -1.1985034 0
-6.1729326 0.32110465 -1.2015171 0
-6.1547565 0.29947108 -1.197777 0
-6.1635885 0.2791898 -1.1993068 0
-6.1521773 0.25800651 -1.1969115 0
-6.1554313 0.23747148 -1.1973829 0
-6.1858902 0.21787813 -1.203159 0
-6.1701589 0.19661333 -1.1999643 0
-6.1590276 0.17558971 -1.1976783 0
-6.1764803 0.15536372 -1.2009641 0
-6.1663527 0.13442291 -1.1989006 0
-6.1927466 0.11422671 -1.203951 0
-6.15554 0.092896193 -1.1966501 0
-6.2011995 0.072790019 -1.2054724 0
-6.1987934 0.051976226 -1.2049639 0
-6.1520863 0.03095682 -1.1958578 0
-6.1637969 0.01034941 -1.1981207 0
-6.1943474 1.6437256e-05 -1.2040573 0
-7.602107 -0.012764423 -1.2040553 0
-7.5752983 -0.03811831 -1.1998228 0
-7.5626254 -0.06341181 -1.1978425 0
-7.5955992 -0.089157552 -1.2031058 0
-7.5842977 -0.11445826 -1.2013698 0
-7.5977268 -0.1401419 -1.2035645 0
-7.5820312 -0.16528387 -1.2011592 0
-7.5723305 -0.19047508 -1.1997169 0
-7.5830736 -0.21618828 -1.201527 0
-7.5768809 -0.24143882 -1.2006674 0
-7.5810747 -0.26701903 -1.201467 0
-7.5696139 -0.2920295 -1.1997992 0
-7.5703926 -0.31748283 -1.2000846 0
-7.5684018 -0.34282309 -1.1999444 0
-7.5613675 -0.36791232 -1.199018 0
-7.5812616 -0.39436331 -1.2023755 0
-7.560214 -0.41868961 -1.1992533 0
-7.570889 -0.44474727 -1.2011764 0
-7.5587063 -0.46946713 -1.1994865 0
-7.564702 -0.49530584 -1.2006948 0
-7.5706668 -0.52119398 -1.2019122 0
-7.5571241 -0.54572535 -1.2000459 0
-7.5344706 -0.56948918 -1.196745 0
-7.5538082 -0.59642857 -1.2001274 0
-7.5496149 -0.62157464 -1.1997856 0
-7.546247 -0.64677709 -1.1995882 0
-7.531106 -0.67092276 -1.1975322 0
-7.5433159 -0.6975103 -1.1998389 0
-7.5464687 -0.72332811 -1.2007194 0
-7.5324111 -0.7474758 -1.1988746 0
-7.5498285 -0.77477527 -1.2020535 0
-7.5410423 -0.79943252 -1.2010746 0
-7.525279 -0.82328498 -1.1989969 0
-7.5565872 -0.85235882 -1.2044338 0
-7.5316553 -0.87512994 -1.2009208 0
-7.5204344 -0.89939123 -1.1996057 0
-7.5224566 -0.92522562 -1.2004164 0
-7.5042949 -0.94854355 -1.1980189 0
-7.4944015 -0.9728328 -1.1969535 0
-7.5316029 -1.0033506 -1.2034255 0
-7.5123048 -1.0264258 -1.2008852 0
-7.5178499 -1.0528718 -1.2023292 0
-7.483181 -1.0736104 -1.1973535 0
-7.5171399 -1.1042174 -1.2033728 0
-7.5064888 -1.1283765 -1.2022666 0
-7.491447 -1.1518135 -1.2004693 0
-7.4561267 -1.1719862 -1.1954323 0
-7.4964695 -1.2040964 -1.2025409 0
-7.4473085 -1.2218276 -1.1953052 0
-7.4760675 -1.2523009 -1.2005882 0
-7.4847922 -1.2795762 -1.2026715 0
-7.4487286 -1.2991298 -1.19757 0
-7.4717937 -1.3289814 -1.2019879 0
-7.4925861 -1.3586112 -1.2060587 0
-7.4537482 -1.3773974 -1.2005438 0
-7.4636621 -1.4051244 -1.2028927 0
-7.3944421 -1.41778 -1.1924961 0
-7.4331732 -1.4510612 -1.19952 0
-7.4366298 -1.4776369 -1.2008705 0
-7.4044833 -1.4970728 -1.1964834 0
-7.4490519 -1.5320978 -1.2045084 0
-7.4136152 -1.5507354 -1.1996124 0
-7.4287887 -1.5799247 -1.2029179 0
-7.3789272 -1.5951982 -1.1957034 0
-7.4116936 -1.6283121 -1.2018908 0
-7.4088688 -1.6537504 -1.2023252 0
-7.421433 -1.6826969 -1.2052729 0
-7.3846207 -1.7004024 -1.2002137 0
-7.3733826 -1.7238672 -1.1993197 0
-7.362607 -1.7474033 -1.1985133 0
-7.375422 -1.776587 -1.2015623 0
-7.3662686 -1.8005341 -1.2010478 0
-7.3671155 -1.826939 -1.2021778 0
-7.3201451 -1.8413652 -1.1955138 0
-7.3193016 -1.8672683 -1.1963918 0
-7.3313022 -1.8965327 -1.199386 0
-7.311729 -1.9176476 -1.197229 0
-7.3292503 -1.94853 -1.2011609 0
-7.3190126 -1.9721056 -1.2005601 0
-7.3245964 -1.999975 -1.2025691 0
-7.3076377 -2.0216966 -1.200891 0
-7.3303275 -2.0544569 -1.2057449 0
-7.2835217 -2.0677021 -1.1991794 0
-7.2879329 -2.0953841 -1.2010558 0
-7.2509313 -2.1110916 -1.1961175 0
-7.2876034 -2.1482999 -1.2033484 0
-7.2575207 -2.165906 -1.1995735 0
-7.2621288 -2.1938248 -1.2015442 0
-7.2517085 -2.2172365 -1.2010434 0
-7.255188 -2.2449272 -1.2028594 0
-7.2153225 -2.2591274 -1.1974992 0
-7.2144871 -2.285454 -1.1986256 0
-7.2195129 -2.3137093 -1.2007425 0
-7.1927676 -2.3317595 -1.1975878 0
-7.2074208 -2.3632438 -1.2013401 0
-7.1871457 -2.3833132 -1.1992859 0
-7.1823034 -2.4084663 -1.1998185 0
-7.1751752 -2.4328685 -1.1999836 0
-7.1480727 -2.4504309 -1.1968184 0
-7.1448054 -2.4761121 -1.1976546 0
-7.1942921 -2.5203121 -1.2073594 0
-7.1264896 -2.5234172 -1.1973939 0
-7.1303158 -2.5517082 -1.1994675 0
-7.1108632 -2.5716739 -1.197639 0
-7.1395388 -2.6091459 -1.2039351 0
-7.0921836 -2.6188278 -1.1974236 0
-7.1114669 -2.6530764 -1.2021744 0
-7.0681038 -2.6639292 -1.1963471 0
-7.0765319 -2.6942368 -1.199296 0
-7.069169 -2.7186055 -1.1995862 0
-7.0533285 -2.7396951 -1.1984502 0
-7.0367594 -2.760447 -1.1972008 0
-7.0631614 -2.7981663 -1.203282 0
-7.0278754 -2.8114848 -1.1988698 0
-7.0245543 -2.8375144 -1.1999195 0
-6.9933124 -2.8522048 -1.1962095 0
-7.0051513 -2.8844645 -1.1998821 0
-6.995357 -2.9079006 -1.1998678 0
-6.9572544 -2.9194572 -1.1950046 0
-6.9783993 -2.9558864 -1.200332 0
-6.9561081 -2.9739904 -1.1982062 0
-6.9657021 -3.0057557 -1.2015879 0
-6.9526911 -3.0278332 -1.201088 0
-6.9450178 -3.0522335 -1.2015235 0
-6.9091401 -3.064146 -1.197087 0
-6.9249578 -3.0989873 -1.2016212 0
-6.9261804 -3.1274493 -1.2036461 0
-6.8765869 -3.1328547 -1.1968462 0
-6.8578382 -3.1521211 -1.1954159 0
-6.8515921 -3.1771185 -1.1961771 0
-6.8431649 -3.2011318 -1.196573 0
-6.8919377 -3.2521553 -1.2070011 0
-6.865684 -3.2679565 -1.2043153 0
-6.8340898 -3.2810681 -1.2006963 0
-6.8167462 -3.30091 -1.1995869 0
-6.8044252 -3.3231533 -1.1993726 0
-6.8069057 -3.3526769 -1.2017845 0
-6.8034511 -3.3793669 -1.2031683 0
-6.7800245 -3.3961186 -1.2010323 0
-6.7503209 -3.4095991 -1.1977888 0
-6.7677441 -3.446928 -1.2029244 0
-6.7203674 -3.4512241 -1.1965535 0
-6.7266865 -3.4830198 -1.199751 0
-6.736815 -3.5169575 -1.2036539 0
-6.7084284 -3.5308104 -1.2006905 0
-6.6838875 -3.5465624 -1.1984197 0
-6.6799345 -3.5732186 -1.1998522 0
-6.6763482 -3.6001418 -1.2013694 0
-6.6664457 -3.6237049 -1.2017671 0
-6.6255546 -3.6303082 -1.196583 0
-6.6109223 -3.6511636 -1.1961446 0
-6.6314979 -3.6915975 -1.2021002 0
-6.6211424 -3.7149665 -1.2024741 0
-6.5907774 -3.7270381 -1.1992222 0
-6.5861979 -3.7536478 -1.200672 0
-6.5649309 -3.7707438 -1.1990932 0
-6.5899096 -3.8145318 -1.2059848 0
-6.5513968 -3.8216214 -1.2012749 0
-6.5364013 -3.8423045 -1.2008808 0
-6.5336776 -3.8702374 -1.2027576 0
-6.5324931 -3.8991821 -1.2049394 0
-6.4921451 -3.9046803 -1.1999052 0
-6.4752307 -3.9241307 -1.1992038 0
-6.4545784 -3.9412642 -1.1978196 0
-6.4413433 -3.9628925 -1.1978226 0
-6.4312353 -3.9864597 -1.1984217 0
-6.4037766 -3.9992216 -1.1957968 0
-6.4067435 -4.0309958 -1.1988679 0
-6.3854489 -4.047545 -1.1974158 0
-6.3635893 -4.0636611 -1.1958648 0
-6.3819633 -4.1055827 -1.2018979 0
-6.3486171 -4.1142907 -1.1982089 0
-6.341589 -4.1399937 -1.1994956 0
-6.3349242 -4.1660013 -1.2008702 0
-6.3187842 -4.1858025 -1.2004642 0
-6.2980056 -4.2024879 -1.1991868 0
-6.282896 -4.222919 -1.198999 0
-6.2581177 -4.2367949 -1.1969746 0
-6.261445 -4.269733 -1.2003424 0
-6.2446551 -4.2890272 -1.1998737 0
-6.2201819 -4.3029823 -1.1979367 0
-6.2114263 -4.3277893 -1.1990383 0
-6.1933117 -4.3460855 -1.1983476 0
-6.1691384 -4.360065 -1.1964921 0
-6.1633797 -4.3870554 -1.1982213 0
-6.1588492 -4.4150167 -1.2002115 0
-6.1323481 -4.4272208 -1.1979331 0
-6.12641 -4.4542565 -1.1996838 0
-6.1084714 -4.4725976 -1.1991007 0
-6.0901504 -4.4906263 -1.1984532 0
-6.1106815 -4.5374713 -1.2054805 0
-6.0714216 -4.539978 -1.2007315 0
-6.0421977 -4.5497909 -1.197962 0
-6.0254045 -4.5688825 -1.1976629 0
-6.0382423 -4.6105843 -1.2032808 0
-6.0099249 -4.6209421 -1.2007184 0
-5.9893308 -4.6371431 -1.1997035 0
-5.9676781 -4.6524644 -1.1984841 0
-5.9798765 -4.6942945 -1.204088 0
-5.9424386 -4.6971927 -1.1997141 0
-5.9450436 -4.7317243 -1.203436 0
-5.9095864 -4.7359557 -1.1994661 0
-5.8924336 -4.7547417 -1.1992136 0
-5.8857274 -4.782002 -1.2011051 0
-5.8669925 -4.7995253 -1.2005589 0
-5.8584104 -4.8253818 -1.2021067 0
-5.8331332 -4.8374786 -1.2002413 0
-5.8124137 -4.8532786 -1.1993195 0
-5.8146267 -4.8883071 -1.2031512 0
-5.7861881 -4.897604 -1.2006577 0
-5.7665086 -4.914227 -1.1999863 0
-5.7424245 -4.9270339 -1.1984055 0
-5.7339759 -4.9532595 -1.2001015 0
-5.735014 -4.9878306 -1.203812 0
-5.6776762 -4.9714966 -1.1952686 0
-5.677978 -5.0054936 -1.1988586 0
-5.6631622 -5.0262761 -1.1992818 0
-5.650887 -5.0493536 -1.2002606 0
-5.6420898 -5.0756159 -1.202 0
-5.6009517 -5.0726876 -1.1968526 0
-5.6000724 -5.1061726 -1.2003162 0
-5.5875936 -5.129209 -1.2013208 0
-5.5665956 -5.1444311 -1.2005079 0
-5.5581765 -5.1713095 -1.2024248 0
-5.538919 -5.188148 -1.202015 0
-5.5141826 -5.1997962 -1.2004236 0
-5.4716487 -5.1944561 -1.1949489 0
-5.4834065 -5.2406836 -1.2013471 0
-5.4671564 -5.2603397 -1.2016443 0
-5.4489408 -5.27811 -1.2015234 0
-5.4313531 -5.2964854 -1.2015543 0
-5.4260254 -5.3268991 -1.2043201 0
-5.3965602 -5.3336225 -1.2017425 0
-5.390933 -5.3639102 -1.2044876 0
-5.3528171 -5.3618197 -1.1999812 0
-5.3411679 -5.386148 -1.2014114 0
-5.3104749 -5.3912296 -1.1985667 0
-5.2968888 -5.4136233 -1.1995902 0
-5.2834401 -5.4362211 -1.2006655 0
-5.2671728 -5.4559655 -1.2011192 0
-5.2423997 -5.4668674 -1.1996429 0
-5.2404404 -5.5016308 -1.2034088 0
-5.2199535 -5.5170441 -1.2029454 0
-5.2076602 -5.5411472 -1.2043871 0
-5.1741996 -5.542666 -1.2009397 0
-5.1485567 -5.5524011 -1.199302 0
-5.1514716 -5.59304 -1.2043424 0
-5.1069736 -5.582171 -1.1983082 0
-5.0994759 -5.611639 -1.2009571 0
-5.0872893 -5.6360803 -1.2025306 0
-5.0755692 -5.6611414 -1.2042401 0
-5.044229 -5.6642804 -1.2013035 0
-5.0099196 -5.6638751 -1.1976483 0
-4.9940891 -5.684269 -1.1984133 0
-4.9733415 -5.6990771 -1.1980129 0
-4.953289 -5.7146626 -1.1977913 0
-4.9579854 -5.7589812 -1.2035894 0
-4.9142151 -5.7469974 -1.1976347 0
-4.8987055 -5.7679 -1.1985612 0
-4.8834424 -5.7891564 -1.1995692 0
-4.8684473 -5.8107991 -1.2006648 0
-4.8489308 -5.8270817 -1.2006631 0
-4.805397 -5.8143044 -1.1947038 0
-4.8164759 -5.867662 -1.2023426 0
-4.7953048 -5.8819737 -1.201974 0
-4.7483788 -5.8644524 -1.1951334 0
-4.7661877 -5.92697 -1.2046107 0
-4.7190742 -5.9088411 -1.1977037 0
-4.7057171 -5.9328003 -1.1993554 0
-4.7048855 -5.9727745 -1.2042407 0
-4.6676636 -5.9665675 -1.1998271 0
-4.6555371 -5.9923582 -1.2018678 0
-4.6361423 -6.0088706 -1.2020551 0
-4.6075416 -6.013381 -1.1998603 0
-4.594852 -6.0386496 -1.2018216 0
-4.5535765 -6.0262251 -1.1963035 0
-4.5651884 -6.0838943 -1.2047064 0
-4.5322113 -6.0823193 -1.2013789 0
-4.5078511 -6.0921535 -1.2003293 0
-4.5016828 -6.1266718 -1.2041497 0
-4.4672036 -6.122663 -1.2004113 0
-4.4354253 -6.1221128 -1.197381 0
-4.4351048 -6.165071 -1.2028679 0
-4.4029322 -6.1638389 -1.1997405 0
-4.3976417 -6.2002797 -1.2039566 0
-4.3749743 -6.2123566 -1.2034466 0
-4.342936 -6.2109938 -1.2003552 0
-4.3042536 -6.199832 -1.1954023 0
-4.2999001 -6.2381048 -1.1999952 0
-4.2657285 -6.2331514 -1.1962844 0
-4.2582188 -6.267159 -1.2000643 0
-4.247056 -6.2960382 -1.2028608 0
-4.2252073 -6.3091741 -1.2026572 0
-4.200943 -6.3186617 -1.2017741 0
-4.1791482 -6.3318233 -1.2016056 0
-4.1462693 -6.3280563 -1.1982458 0
-4.1391821 -6.3636813 -1.2023569 0
-4.1054173 -6.3583107 -1.1987348 0
-4.0898199 -6.381001 -1.2004206 0
-4.0689406 -6.3955235 -1.2005794 0
-4.0447111 -6.4047537 -1.1997596 0
-4.0260167 -6.422749 -1.2005953 0
-4.004354 -6.4360414 -1.2005635 0
-3.9916923 -6.4639077 -1.2032584 0
-3.9577761 -6.4573145 -1.1995542 0
-3.936413 -6.4710565 -1.1996485 0
-3.9137874 -6.4827151 -1.1993704 0
-3.9013796 -6.5114055 -1.2022514 0
-3.8663535 -6.502296 -1.1981694 0
-3.8469281 -6.5192857 -1.1989166 0
-3.8238153 -6.5300407 -1.19853 0
-3.8064766 -6.5507011 -1.1999727 0
