# .PCD v0.7 - Point Cloud Data file format
VERSION 0.7
FIELDS x y z intensity
SIZE 4 4 4 4
TYPE F F F F
COUNT 1 1 1 1
WIDTH 1414
HEIGHT 1
VIEWPOINT 0 0 0 1 0 0 0
POINTS 1414
DATA ascii
1.9622564 -1.5510545 -0.57745671 0
1.9581845 -1.5371964 -0.5747385 0
1.9497772 -1.5200586 -0.57077187 0
1.9664673 -1.5224974 -0.5741601 0
1.9953505 -1.534187 -0.58108813 0
1.9840766 -1.514961 -0.5763225 0
1.995411 -1.5130517 -0.57813799 0
1.9908671 -1.4991199 -0.57536197 0
1.9975311 -1.4936694 -0.57583725 0
2.0062339 -1.4897157 -0.57690299 0
2.0088966 -1.4812695 -0.57623726 0
2.0214972 -1.4801236 -0.57842493 0
2.0301814 -1.4760517 -0.57949048 0
2.0213521 -1.4592977 -0.5755704 0
2.0404994 -1.4627389 -0.57962281 0
2.0405858 -1.452468 -0.57826072 0
2.0422158 -1.4433367 -0.57734811 0
4.2748704 -2.9998245 -1.2056843 0
4.284513 -2.9852023 -1.2055743 0
4.2605639 -2.947346 -1.1960481 0
4.2582693 -2.9246976 -1.1926444 0
4.3041196 -2.934999 -1.2027231 0
4.3165603 -2.9223287 -1.2034549 0
4.30934 -2.8964174 -1.1987276 0
4.3351135 -2.8926866 -1.2031924 0
4.3439851 -2.877604 -1.2029701 0
4.3489294 -2.859946 -1.2016772 0
4.3357878 -2.8305256 -1.1954168 0
4.3587146 -2.8246961 -1.1991202 0
4.3738976 -2.8137569 -1.2006949 0
4.3908544 -2.8038957 -1.2027624 0
4.3903484 -2.7828941 -1.2000611 0
4.3892751 -2.7616284 -1.1972301 0
4.4208989 -2.7608786 -1.2033242 0
4.4129214 -2.7353733 -1.1986498 0
4.4133573 -2.7152033 -1.1962887 0
4.4583559 -2.7223241 -1.2060052 0
4.4468975 -2.6949005 -1.2004547 0
4.4778571 -2.693177 -1.206368 0
4.4441934 -2.6526802 -1.1948959 0
4.4670343 -2.6460409 -1.198645 0
4.46772 -2.6262517 -1.1964595 0
4.4865365 -2.6171119 -1.199142 0
4.508121 -2.6094842 -1.2025658 0
4.4962087 -2.5825021 -1.1970717 0
4.5280404 -2.5806336 -1.2032361 0
4.5314984 -2.5625145 -1.2018652 0
4.5442238 -2.5496407 -1.2029662 0
4.5264778 -2.519767 -1.1960253 0
4.5606408 -2.5187924 -1.2028139 0
4.5432329 -2.489336 -1.1960148 0
4.5653191 -2.4815719 -1.1996319 0
4.5931654 -2.4767945 -1.2047603 0
4.560101 -2.4392655 -1.1939359 0
4.5979657 -2.439728 -1.2017012 0
4.5824895 -2.4118609 -1.1955361 0
4.5979629 -2.400353 -1.1974667 0
4.5932622 -2.3783357 -1.194159 0
4.6062808 -2.365526 -1.1954749 0
4.6228948 -2.3545041 -1.1977313 0
4.647336 -2.3473623 -1.2020178 0
4.6469512 -2.3276455 -1.199893 0
4.6584787 -2.3139145 -1.2008595 0
4.6800098 -2.305079 -1.2044108 0
4.6481438 -2.2700508 -1.1942445 0
4.6779718 -2.2652242 -1.1999501 0
4.6882582 -2.2508321 -1.200646 0
4.7027178 -2.2384038 -1.2024205 0
4.6782856 -2.2075658 -1.1942742 0
4.7229543 -2.2093134 -1.2037796 0
4.7031579 -2.1808634 -1.1968635 0
4.7156944 -2.167496 -1.1981977 0
4.7572975 -2.1673276 -1.2069154 0
4.7334437 -2.1373253 -1.199039 0
4.7526636 -2.1268489 -1.2020944 0
4.7823873 -2.1209338 -1.2078071 0
4.738091 -2.0823066 -1.19485 0
4.7727613 -2.0784786 -1.201829 0
4.7760739 -2.0608985 -1.2009163 0
4.7726941 -2.0404861 -1.1983396 0
4.767405 -2.019346 -1.1953049 0
4.8001013 -2.0142407 -1.2018026 0
4.7930903 -1.9924253 -1.1983681 0
4.8331542 -1.9901009 -1.2067099 0
4.8099623 -1.9617161 -1.1992705 0
4.7899904 -1.9348649 -1.1926668 0
4.828454 -1.9315968 -1.2006246 0
4.8319769 -1.9142377 -1.1998979 0
4.8424125 -1.8996129 -1.2009009 0
4.8583689 -1.8871012 -1.2032822 0
4.8494883 -1.8649633 -1.1995273 0
4.8822236 -1.8587863 -1.206076 0
4.8409219 -1.8245021 -1.1943552 0
4.866879 -1.8156728 -1.1992507 0
4.8675756 -1.7973644 -1.1979307 0
4.8604798 -1.7762487 -1.194712 0
4.8996868 -1.7719778 -1.2028821 0
4.907032 -1.7560525 -1.2032331 0
4.8898807 -1.7314422 -1.1975973 0
4.8768597 -1.7084522 -1.1929986 0
4.9227014 -1.7060026 -1.2028067 0
4.8839111 -1.6742392 -1.1919504 0
4.9278841 -1.6708705 -1.2013083 0
4.9206419 -1.6500411 -1.1981875 0
4.9289322 -1.6344577 -1.1988651 0
4.9408584 -1.6200452 -1.2004379 0
4.9463687 -1.603505 -1.2004638 0
4.9526095 -1.5871977 -1.20068 0
4.9506273 -1.5682787 -1.198918 0
4.9547319 -1.551319 -1.1986457 0
4.9750547 -1.5393854 -1.2023069 0
4.9601884 -1.5165815 -1.1974785 0
4.9603519 -1.4984641 -1.1962984 0
4.9871521 -1.4883317 -1.2015517 0
5.0043106 -1.4751977 -1.2044872 0
4.970942 -1.4472638 -1.195281 0
4.9693694 -1.4287498 -1.1937443 0
5.0410409 -1.4310749 -1.2098018 0
5.0042543 -1.4025185 -1.1998382 0
5.0159602 -1.3876776 -1.2015225 0
5.0054998 -1.3667333 -1.1979123 0
5.0233884 -1.353536 -1.2011007 0
5.0298467 -1.337204 -1.2015662 0
5.0050817 -1.3126688 -1.194592 0
5.0460191 -1.3053391 -1.2033114 0
5.0654321 -1.2922566 -1.2069007 0
5.0528464 -1.2710173 -1.2028799 0
5.0324101 -1.2479515 -1.1970122 0
5.0417128 -1.2323296 -1.1982353 0
5.0706377 -1.2213978 -1.2041297 0
5.0630898 -1.2016336 -1.2013738 0
5.0530424 -1.1813669 -1.1980431 0
5.0443726 -1.1615165 -1.1950575 0
5.0498729 -1.1449677 -1.1954443 0
5.0928078 -1.136763 -1.2046993 0
5.0669017 -1.1131589 -1.1976817 0
5.071382 -1.0963322 -1.1978651 0
5.0724525 -1.0787747 -1.1972568 0
5.0790048 -1.0623816 -1.197956 0
5.1007452 -1.0490913 -1.2022474 0
5.100512 -1.0312312 -1.2013706 0
5.1053438 -1.014403 -1.2017009 0
5.0559092 -0.98697156 -1.1892793 0
5.1082573 -0.97942233 -1.2008138 0
5.1156006 -0.96305943 -1.2017741 0
5.1167336 -0.9455204 -1.2012888 0
5.1070061 -0.92602617 -1.1982694 0
5.1344795 -0.91323757 -1.2039903 0
5.1378574 -0.89607763 -1.2040712 0
5.1134329 -0.8741622 -1.1976537 0
5.1211648 -0.85782188 -1.1987841 0
5.1389298 -0.84309423 -1.2022742 0
5.1341987 -0.82465023 -1.2005137 0
5.1147661 -0.80394715 -1.1953329 0
5.1400776 -0.79027534 -1.2006222 0
5.1313777 -0.77133554 -1.1979793 0
5.1190867 -0.75194561 -1.1945146 0
5.1574306 -0.73992157 -1.2028763 0
5.1454477 -0.72060394 -1.1995112 0
5.1462116 -0.70312643 -1.199133 0
5.1393328 -0.6846416 -1.1969886 0
5.1584601 -0.66959512 -1.2009138 0
5.1434069 -0.65011322 -1.1968951 0
5.1810966 -0.6372357 -1.2051617 0
5.1693358 -0.61820245 -1.2019373 0
5.1785069 -0.60169524 -1.2035937 0
5.1653624 -0.58262247 -1.200078 0
5.1700077 -0.56559837 -1.2007099 0
5.1615648 -0.5471682 -1.1983163 0
5.1597958 -0.5294925 -1.1974868 0
5.1847825 -0.51449591 -1.2028785 0
5.1405592 -0.49270821 -1.1922287 0
5.1761246 -0.47860858 -1.2000983 0
5.1726246 -0.46079913 -1.1989218 0
5.1538925 -0.44171834 -1.1942301 0
5.178196 -0.42631719 -1.1995236 0
5.1965666 -0.41029319 -1.2034538 0
5.1968431 -0.39278689 -1.2032059 0
5.1860394 -0.37448752 -1.2004073 0
5.1841593 -0.35688376 -1.1996883 0
5.17523 -0.33883917 -1.1973523 0
5.1770916 -0.32153255 -1.1975268 0
5.1949754 -0.30516183 -1.2014202 0
5.1843805 -0.28710058 -1.1987406 0
5.1716385 -0.26900539 -1.1955791 0
5.2012372 -0.25306198 -1.2022188 0
5.1989274 -0.23548009 -1.2014958 0
5.2093849 -0.21845438 -1.2037364 0
5.2092166 -0.20095344 -1.2035351 0
5.179626 -0.18242195 -1.1965505 0
5.1818242 -0.16510609 -1.1969236 0
5.1948495 -0.14808784 -1.1998109 0
5.1700668 -0.13003458 -1.1939796 0
5.192009 -0.113169 -1.1989526 0
5.1810737 -0.095552407 -1.1963468 0
5.2080307 -0.078583054 -1.2025036 0
5.1923609 -0.060934432 -1.1988317 0
5.2095056 -0.043667328 -1.2027496 0
5.1904764 -0.026104301 -1.1983292 0
5.1985908 -0.0087149711 -1.2001891 0
5.1986661 0.0087150978 -1.2002065 0
5.1699529 0.026001081 -1.1935909 0
5.1701269 0.043337245 -1.193658 0
5.1870084 0.06087162 -1.1975958 0
5.2113128 0.078632578 -1.2032614 0
5.2207074 0.096283346 -1.2054983 0
5.1969571 0.11327685 -1.2000953 0
5.1749401 0.13015716 -1.1951051 0
5.1989279 0.1482041 -1.2007529 0
5.2030792 0.16578333 -1.2018332 0
5.1862063 0.1826537 -1.1980706 0
5.1925941 0.20031221 -1.1996946 0
5.1569695 0.21625637 -1.1916249 0
5.1988511 0.23547663 -1.2014781 0
5.1911931 0.25257331 -1.1998972 0
5.2027636 0.2706244 -1.2027746 0
5.1880126 0.28730172 -1.1995804 0
5.1673727 0.30354041 -1.1950366 0
5.193367 0.32254335 -1.2012916 0
5.1598492 0.33783212 -1.1937938 0
5.1777077 0.35643959 -1.1981953 0
5.1947203 0.37511435 -1.2024165 0
5.1862869 0.39198905 -1.200762 0
5.1680374 0.40804064 -1.1968467 0
5.1675224 0.42543843 -1.197051 0
5.1936293 0.44512403 -1.2034377 0
5.1669397 0.46029273 -1.1976042 0
5.177691 0.47875339 -1.2004614 0
5.1432285 0.49296403 -1.1928477 0
5.1859112 0.51460791 -1.2031404 0
5.1697979 0.53051889 -1.199808 0
5.1691918 0.54797667 -1.200087 0
5.1940856 0.56823248 -1.2063019 0
5.1722775 0.58340245 -1.2016846 0
5.1997509 0.60416365 -1.2085314 0
5.1756516 0.6189577 -1.2034056 0
5.1653581 0.63529998 -1.2015009 0
5.1913977 0.65617919 -1.2080629 0
5.1472955 0.66814595 -1.1983147 0
5.1581764 0.68715185 -1.2013773 0
5.1711493 0.70653361 -1.2049438 0
5.1582727 0.72240001 -1.2025011 0
5.1553612 0.73962468 -1.2023937 0
5.147944 0.7561844 -1.2012482 0
5.1424174 0.772995 -1.2005568 0
5.1424599 0.79064167 -1.2011788 0
5.1333885 0.80687428 -1.199685 0
5.1515031 0.82742971 -1.20456 0
5.1327538 0.84208089 -1.2008293 0
5.1322498 0.85967869 -1.2013789 0
5.1303182 0.87704879 -1.2016084 0
5.1100993 0.89123642 -1.197566 0
5.1259761 0.9117251 -1.2019963 0
5.1033978 0.92537189 -1.1974227 0
5.120337 0.94618624 -1.2021348 0
5.0985928 0.95985758 -1.1977786 0
5.1269469 0.9830057 -1.2052071 0
5.1221647 0.99990535 -1.2048643 0
5.1036086 1.0140582 -1.2012925 0
5.0908222 1.0292721 -1.1990883 0
5.0769 1.0441869 -1.196627 0
5.098279 1.0664132 -1.202502 0
5.097168 1.084031 -1.2030904 0
5.0908542 1.1005417 -1.2024645 0
5.1124778 1.1231717 -1.2084546 0
5.0852094 1.1350669 -1.2029018 0
5.0809393 1.1520115 -1.2027987 0
5.0688181 1.1671454 -1.2008489 0
5.0526762 1.1812812 -1.1979563 0
5.0660334 1.2023321 -1.2020723 0
5.0402842 1.2140863 -1.1969216 0
5.0555396 1.2357093 -1.2015215 0
5.058156 1.254336 -1.2031361 0
5.0322995 1.265849 -1.1979886 0
5.0323796 1.2838246 -1.1990256 0
5.0392871 1.3035976 -1.2017061 0
5.018189 1.3161064 -1.1977204 0
5.0094581 1.3317835 -1.1966956 0
5.00493 1.3485625 -1.1966872 0
5.0157056 1.3695201 -1.2003548 0
5.0283308 1.3910999 -1.2044858 0
4.9861331 1.3974396 -1.1954933 0
5.0068483 1.4213682 -1.2015959 0
4.9883776 1.4342149 -1.1983105 0
4.9740086 1.4481567 -1.1960183 0
5.0043211 1.4752008 -1.2044897 0
5.0105162 1.4953042 -1.2071807 0
4.9740152 1.5025916 -1.1995935 0
4.9683666 1.519082 -1.1994529 0
4.9774766 1.5401348 -1.2028921 0
4.9769053 1.5582614 -1.2040099 0
4.9507089 1.5683045 -1.1989378 0
4.9625349 1.5903784 -1.2030863 0
4.9273186 1.5973293 -1.1958402 0
4.9511476 1.6234189 -1.2029377 0
4.9350648 1.6364912 -1.2003566 0
4.9301748 1.6532378 -1.2005087 0
4.9276876 1.670804 -1.2012604 0
4.7649775 1.6334678 -1.1629238 0
4.7151389 1.6340702 -1.1520911 0
4.6277833 1.6211962 -1.1320685 0
4.5888453 1.6248494 -1.1238697 0
4.545083 1.6265239 -1.1144811 0
4.4764352 1.6189084 -1.098973 0
4.4334993 1.6202099 -1.0897597 0
4.4459052 1.6416615 -1.0941559 0
4.4497232 1.6600456 -1.096459 0
4.4655504 1.6830277 -1.1017435 0
4.4351068 1.6885576 -1.0956229 0
4.4533854 1.7126344 -1.1015507 0
4.438128 1.72387 -1.0992002 0
4.4526696 1.7467221 -1.104246 0
4.4552464 1.7649921 -1.1063465 0
4.4566159 1.782845 -1.1081647 0
4.4469819 1.7963102 -1.1072605 0
4.4336047 1.8082209 -1.1054331 0
4.467793 1.8396597 -1.1154889 0
4.8022723 1.9962422 -1.2006638 0
4.7978659 2.0133028 -1.2012429 0
4.8037586 2.0347445 -1.2044197 0
4.771884 2.0401399 -1.1981362 0
4.7664208 2.0567334 -1.1984892 0
4.7688394 2.0767708 -1.2008414 0
4.761847 2.092747 -1.2008407 0
4.7568765 2.1096199 -1.2013642 0
4.7136149 2.1093745 -1.1922178 0
4.7296219 2.1355996 -1.1980708 0
4.7134418 2.1473479 -1.1957892 0
4.7376056 2.177567 -1.203765 0
4.7063966 2.1823652 -1.1976876 0
4.69877 2.1980002 -1.1976155 0
4.7120576 2.2235019 -1.2028956 0
4.6796551 2.2274263 -1.1965237 0
4.6884708 2.2509341 -1.2007005 0
4.6868134 2.2695057 -1.2022182 0
4.6501665 2.2710385 -1.1947643 0
4.6711478 2.3007143 -1.2021302 0
4.6484694 2.3089428 -1.1982794 0
4.6403117 2.3243198 -1.1981786 0
4.6469526 2.3471687 -1.2019187 0
4.6397886 2.3631084 -1.2021083 0
4.6327195 2.3791034 -1.2023367 0
4.6312842 2.3980231 -1.204044 0
4.6221428 2.412976 -1.203764 0
4.6008053 2.4215012 -1.2003146 0
4.5837698 2.4321957 -1.197991 0
4.5939488 2.4573712 -1.202798 0
4.5765805 2.4678512 -1.2004101 0
4.5551353 2.4760365 -1.196956 0
4.5490208 2.4925075 -1.1975385 0
4.5474381 2.5115011 -1.1993319 0
4.5430441 2.5289891 -1.2004025 0
4.5293393 2.5412893 -1.199026 0
4.5308046 2.5621221 -1.2016811 0
4.5134416 2.5723135 -1.1993568 0
4.4873581 2.5774186 -1.1947153 0
4.5103054 2.6107485 -1.2031485 0
4.5005779 2.6253028 -1.2028949 0
4.4859571 2.6369722 -1.2013434 0
4.4772158 2.652072 -1.201377 0
4.4658957 2.6656342 -1.2007309 0
4.4635911 2.6845965 -1.2025245 0
4.4482484 2.695719 -1.2008194 0
4.4524641 2.7187264 -1.2044114 0
4.415834 2.716727 -1.19696 0
4.430162 2.7460601 -1.2033328 0
4.4288058 2.7658165 -1.2054764 0
4.4137025 2.7769973 -1.2038929 0
4.3952608 2.7860081 -1.2014039 0
4.3700924 2.7906375 -1.1970751 0
4.3630424 2.8067734 -1.197715 0
4.3748245 2.8351364 -1.2035521 0
4.3394651 2.8329263 -1.1964308 0
4.3502517 2.8608155 -1.2020425 0
4.3427615 2.8767934 -1.2026312 0
4.3422432 2.897444 -1.2051712 0
4.3055406 2.8938637 -1.1976707 0
4.2959747 2.908392 -1.1977156 0
4.297689 2.930614 -1.2009262 0
4.2671318 2.9307847 -1.1951267 0
4.2584786 2.9459033 -1.1954627 0
4.2597713 2.9679637 -1.1986123 0
4.2659502 2.9935651 -1.2031684 0
4.2473392 3.0018082 -1.2007512 0
4.2536426 3.0276992 -1.2053963 0
4.2306957 3.0327885 -1.2017684 0
4.2298074 3.0536733 -1.2044177 0
4.1982155 3.0523298 -1.1983293 0
4.1936021 3.0705209 -1.1999443 0
4.1821008 3.0836918 -1.199605 0
4.1941991 3.1143746 -1.2060637 0
4.1484346 3.1020241 -1.1958879 0
4.1609588 3.1331954 -1.2025199 0
4.1363187 3.1364286 -1.1984313 0
4.1380324 3.1596348 -1.2019904 0
4.1272111 3.1733341 -1.2019309 0
4.1206675 3.1903431 -1.2031336 0
4.1047325 3.2000754 -1.2016069 0
4.0654979 3.1914606 -1.1932471 0
4.0732489 3.2196765 -1.1986837 0
4.0737104 3.2422926 -1.2020119 0
4.0734115 3.2644236 -1.2051466 0
4.0212965 3.2448599 -1.19294 0
4.0314202 3.2754073 -1.1991944 0
4.0170684 3.2861671 -1.1981959 0
4.0126562 3.3050764 -1.2001784 0
4.0058651 3.3220882 -1.2014719 0
3.9789724 3.3223646 -1.1967403 0
3.9972138 3.3604057 -1.2056086 0
3.9687085 3.3592165 -1.2004013 0
3.9641027 3.378196 -1.2024274 0
3.9460013 3.385674 -1.2003732 0
3.9561992 3.4175196 -1.2069542 0
3.92663 3.4150329 -1.2014197 0
3.9189115 3.4314656 -1.2025715 0
3.9049413 3.4424319 -1.2018197 0
3.8849201 3.4479988 -1.199209 0
3.8612964 3.4502454 -1.1954809 0
3.8787427 3.4892929 -1.2044977 0
3.8766682 3.5110142 -1.2075024 0
3.8516855 3.5119665 -1.2033817 0
3.8311076 3.5167999 -1.2006297 0
3.8169131 3.5274239 -1.199881 0
3.7976933 3.5333431 -1.1975564 0
3.7783401 3.5390449 -1.1951886 0
3.7649615 3.5502865 -1.1947153 0
3.7639782 3.5732768 -1.1981982 0
3.7626476 3.5960753 -1.2016062 0
3.755327 3.6132479 -1.2031302 0
3.7368686 3.6196942 -1.2010981 0
3.7121706 3.6199734 -1.197054 0
3.6865666 3.6191988 -1.1927038 0
3.6934216 3.6503274 -1.1988746 0
3.6832664 3.664784 -1.1995598 0
3.6918874 3.6980767 -1.2063988 0
3.6530707 3.683815 -1.197744 0
3.6505327 3.7060256 -1.2009792 0
3.6321566 3.7121837 -1.1990217 0
3.6147528 3.7192607 -1.1973861 0
3.6149633 3.7445154 -1.2016079 0
3.602643 3.7568803 -1.2016928 0
3.5723186 3.7503474 -1.1957654 0
3.5675459 3.7705705 -1.1983929 0
3.5497446 3.7770424 -1.1966604 0
3.5454764 3.7979376 -1.1995075 0
3.5428829 3.8207605 -1.2029573 0
3.5144265 3.8156521 -1.1976322 0
3.5054691 3.8316283 -1.1989509 0
3.4912059 3.8418226 -1.1984714 0
3.4835947 3.8593662 -1.2002939 0
3.4674492 3.8674707 -1.1991919 0
3.4513478 3.875577 -1.1981106 0
3.433943 3.8821623 -1.1965804 0
3.4336317 3.9081361 -1.2010311 0
3.4155102 3.9138982 -1.1992759 0
3.4065065 3.9301019 -1.2007345 0
3.3922422 3.9402604 -1.2003565 0
3.3889339 3.9632146 -1.203881 0
3.3645337 3.9614935 -1.1999247 0
3.353287 3.9751873 -1.2006603 0
3.3609831 4.0115237 -1.2082249 0
3.3222787 3.9924438 -1.1991166 0
3.3032637 3.9967721 -1.1970835 0
3.2860029 4.0031447 -1.1956855 0
3.2716541 4.0130248 -1.1953535 0
3.2644327 4.031693 -1.1976472 0
3.2513075 4.0431261 -1.1977985 0
3.2525005 4.0724945 -1.2032616 0
3.2310028 4.0735111 -1.2003545 0
3.229954 4.1003509 -1.2050656 0
3.2079358 4.1006088 -1.2019736 0
3.1819236 4.0955791 -1.1973654 0
3.1888707 4.133049 -1.2051874 0
3.1684766 4.13521 -1.202713 0
3.1513941 4.1416044 -1.2014929 0
3.1354334 4.149425 -1.2007052 0
3.1210616 4.1593251 -1.2005352 0
3.0981562 4.1577654 -1.19708 0
3.100137 4.1896696 -1.2032663 0
3.0638988 4.1698627 -1.1946207 0
3.0703723 4.2081695 -1.2026392 0
3.0630908 4.2278881 -1.2053328 0
3.0322676 4.2150168 -1.198758 0
3.0371029 4.2517366 -1.2062985 0
3.0125527 4.2474046 -1.202197 0
2.9833176 4.2362142 -1.1961915 0
2.9770453 4.2575588 -1.1993936 0
2.9598808 4.2633781 -1.1982305 0
2.9542413 4.2858582 -1.201758 0
2.929085 4.2800016 -1.1973554 0
2.9192815 4.296514 -1.1992298 0
2.9150815 4.3214312 -1.2034497 0
2.9049916 4.3377738 -1.2052817 0
2.8716555 4.3192482 -1.1974523 0
2.8622451 4.3365598 -1.1995844 0
2.8663576 4.3746233 -1.2074484 0
2.8414149 4.3684363 -1.2031044 0
2.8191533 4.3661695 -1.1998702 0
2.814853 4.3917522 -1.2043002 0
2.7925832 4.3893309 -1.201062 0
2.7900155 4.4179316 -1.2063215 0
2.7612345 4.4050021 -1.2002565 0
2.7524984 4.4239569 -1.2028999 0
2.7237518 4.4106545 -1.1967931 0
2.7275038 4.4500356 -1.2049906 0
2.7180421 4.468154 -1.2074223 0
2.6795807 4.438375 -1.1969407 0
2.674063 4.462986 -1.2011532 0
2.6487734 4.4545865 -1.1964957 0
2.6351929 4.4657636 -1.1971178 0
2.6149318 4.4655681 -1.1947086 0
2.6086233 4.4892454 -1.1986964 0
2.5918119 4.4949393 -1.1978898 0
2.5897689 4.5263996 -1.203953 0
2.5618014 4.5125513 -1.1979781 0
2.5486164 4.5245929 -1.1988997 0
2.5454774 4.5546656 -1.2046 0
2.5252924 4.554338 -1.2022673 0
2.5033112 4.5506043 -1.1990594 0
2.4989619 4.5789852 -1.2043231 0
2.4664524 4.5556746 -1.1960104 0
2.4739392 4.6063237 -1.2071229 0
2.44502 4.5893254 -1.2005135 0
2.4263613 4.5913334 -1.1989038 0
2.404712 4.5875349 -1.1957999 0
2.3957253 4.6078963 -1.1990069 0
2.3715048 4.5989194 -1.1945955 0
2.3684938 4.6311331 -1.2008935 0
2.3513367 4.6358614 -1.2000686 0
2.3390563 4.6502314 -1.2017516 0
2.3222039 4.6555467 -1.2011063 0
2.3021424 4.6543307 -1.1987946 0
2.2911396 4.6714339 -1.2012143 0
2.2835665 4.6957498 -1.2054914 0
2.2488544 4.6640668 -1.1954154 0
2.251133 4.7090859 -1.2050127 0
2.2278218 4.7007613 -1.2009643 0
2.2134707 4.7112312 -1.2017365 0
2.1983168 4.7200308 -1.2020942 0
2.1717613 4.7041597 -1.1961911 0
2.1556613 4.7107253 -1.1960158 0
2.1392674 4.7166305 -1.1956874 0
2.1266985 4.7310224 -1.1975214 0
2.1037412 4.7222266 -1.1935029 0
2.1089215 4.7768769 -1.2055216 0
2.080399 4.7553606 -1.1983244 0
2.0711207 4.7777119 -1.2022003 0
2.0479918 4.7681026 -1.1980478 0
2.0387523 4.7908239 -1.2020326 0
2.0141582 4.7774243 -1.1969695 0
1.9954239 4.7776732 -1.1953489 0
1.9865487 4.80163 -1.1996695 0
1.9708397 4.8092427 -1.1999137 0
1.9561778 4.8194537 -1.2008183 0
1.931188 4.8040447 -1.195359 0
1.9182907 4.8185825 -1.1973692 0
1.8928374 4.8014297 -1.1915233 0
1.8914752 4.8455272 -1.2008859 0
1.8827342 4.8712878 -1.205699 0
1.8552424 4.8484368 -1.1984968 0
1.8437264 4.8671703 -1.2015928 0
1.8216527 4.8580046 -1.1978154 0
1.8086116 4.8728604 -1.1999764 0
1.7955619 4.8878756 -1.2021847 0
1.782681 4.903543 -1.2045614 0
1.7569532 4.8837056 -1.1982344 0
1.7460016 4.904829 -1.2019742 0
1.730767 4.9141202 -1.2028222 0
1.713403 4.9173751 -1.202206 0
1.6910636 4.9061413 -1.1980666 0
1.6794809 4.9260859 -1.2015551 0
1.6579304 4.9167871 -1.1979245 0
1.6405869 4.9197717 -1.1973047 0
1.6277788 4.9364538 -1.2000296 0
1.6076291 4.9308743 -1.1973562 0
1.5938597 4.9448366 -1.1994423 0
1.5759301 4.9459424 -1.198422 0
1.5594321 4.9514956 -1.1984941 0
1.5454986 4.9652958 -1.2005733 0
1.5314542 4.9789414 -1.2026244 0
1.4996415 4.9343295 -1.1906276 0
1.489374 4.9602609 -1.195673 0
1.4816208 4.9951849 -1.2028873 0
1.4647793 4.9998331 -1.2028172 0
1.4431775 4.9880223 -1.1988051 0
1.4257041 4.9902377 -1.198182 0
1.407155 4.988574 -1.196643 0
1.3941925 5.0068069 -1.1998885 0
1.3778718 5.0131779 -1.2003014 0
1.3531874 4.9887614 -1.1933624 0
1.3459061 5.0285873 -1.201803 0
1.3239089 5.0136452 -1.1971644 0
1.3073279 5.0189624 -1.1973807 0
1.2929039 5.0327029 -1.1996177 0
1.275674 5.0356317 -1.1992897 0
1.2587727 5.0398383 -1.1992797 0
1.2484473 5.0707531 -1.2056333 0
1.2314702 5.0750389 -1.2056638 0
1.2042968 5.0366859 -1.1955864 0
1.1991661 5.090631 -1.2074305 0
1.1687746 5.0372305 -1.1938283 0
1.1528063 5.0451784 -1.1947893 0
1.1461979 5.0948591 -1.2056377 0
1.1257765 5.0836234 -1.2020789 0
1.109079 5.0889902 -1.202462 0
1.0918959 5.0921469 -1.2023361 0
1.0741729 5.0927262 -1.2016157 0
1.0535067 5.0790148 -1.1975403 0
1.0355393 5.0779457 -1.1964629 0
1.0220276 5.0989475 -1.2005973 0
1.0089266 5.1226583 -1.2053769 0
0.98638016 5.0982795 -1.1988556 0
0.97739661 5.1442723 -1.2088933 0
0.95637727 5.1273298 -1.2041515 0
0.93409151 5.102705 -1.1976262 0
0.91883218 5.1161337 -1.2000482 0
0.90221566 5.122263 -1.2007697 0
0.88668877 5.1348271 -1.2030112 0
0.86953288 5.1381564 -1.2031014 0
0.84801531 5.1151934 -1.1970521 0
0.83240396 5.1275167 -1.1992762 0
0.81657022 5.1388535 -1.2012806 0
0.79653704 5.1235585 -1.1970742 0
0.78284788 5.1491799 -1.2024404 0
0.76413792 5.1420765 -1.2001765 0
0.74708295 5.1459165 -1.2004814 0
0.72884405 5.141469 -1.1988671 0
0.71234089 5.1492281 -1.2001127 0
0.6968866 5.1650329 -1.2032449 0
0.67836636 5.1582236 -1.201122 0
0.66113627 5.1610026 -1.2012461 0
0.64268076 5.1539841 -1.1991043 0
0.62607926 5.1617365 -1.2004128 0
0.60762477 5.1540976 -1.1981558 0
0.59351408 5.1838226 -1.2045965 0
0.57167792 5.1457067 -1.1952872 0
0.55799097 5.1807299 -1.2029812 0
0.54070878 5.1834435 -1.2031838 0
0.52121651 5.16432 -1.1983323 0
0.50408411 5.1679406 -1.1987736 0
0.48660722 5.1680408 -1.1984117 0
0.47008732 5.1785698 -1.2004809 0
0.45272687 5.1801739 -1.2004942 0
0.43499976 5.1774201 -1.1995113 0
0.41843686 5.1887507 -1.2018045 0
0.40146697 5.1956811 -1.2030913 0
0.38199934 5.1693215 -1.1966842 0
0.36505839 5.1761451 -1.1979737 0
0.34787795 5.1799641 -1.198581 0
0.33247578 5.2119398 -1.2057151 0
0.31451365 5.2049885 -1.2038562 0
0.29678065 5.2011089 -1.202722 0
0.27789739 5.1751971 -1.1965079 0
0.26030508 5.1713462 -1.1954091 0
0.24342573 5.1819963 -1.1976756 0
0.22691225 5.2025504 -1.2022434 0
0.21009549 5.218874 -1.2058461 0
0.192801 5.2250938 -1.207127 0
0.17482542 5.2121229 -1.2039883 0
0.15682763 5.1954021 -1.1999977 0
0.13958605 5.2025523 -1.2015342 0
0.12168121 5.1833582 -1.1970004 0
0.10460655 5.1988883 -1.2004991 0
0.087043121 5.19134 -1.198682 0
0.069751367 5.2001252 -1.2006497 0
0.052433673 5.2120333 -1.2033517 0
0.034973625 5.2144475 -1.2038753 0
0.017411796 5.1911097 -1.198467 0
6.8996678e-06 5.2002521 -1.2005709 0
-0.017462106 5.2102313 -1.2028816 0
-0.034773394 5.186646 -1.1974566 0
-0.052333247 5.2034235 -1.2013639 0
-0.069929838 5.2144628 -1.2039599 0
-0.087372705 5.2118216 -1.2034111 0
-0.10393938 5.1664119 -1.1929997 0
-0.12228666 5.2097387 -1.2030925 0
-0.13937186 5.1950831 -1.1998091 0
-0.15705396 5.2033587 -1.2018353 0
-0.17377979 5.1813598 -1.1968819 0
-0.1922704 5.2110891 -1.2038915 0
-0.20931686 5.1998758 -1.2014563 0
-0.2265835 5.1953297 -1.2005746 0
-0.24371111 5.1883655 -1.1991475 0
-0.26079527 5.1813583 -1.1977234 0
-0.27896327 5.1953044 -1.2011565 0
-0.29499355 5.1700311 -1.1955353 0
-0.31402186 5.1970792 -1.2020267 0
-0.33164021 5.1990585 -1.2027349 0
-0.34967598 5.2069435 -1.2048235 0
-0.36612552 5.1914721 -1.2015208 0
-0.38202381 5.1698394 -1.1968038 0
-0.40239769 5.2079062 -1.2059218 0
-0.41670817 5.1674857 -1.1968789 0
-0.4363732 5.1939321 -1.2033365 0
-0.4527652 5.1807709 -1.2006322 0
-0.47205672 5.2004185 -1.2055455 0
-0.48804227 5.1834292 -1.2019798 0
-0.50205797 5.1473093 -1.1939876 0
-0.52128863 5.1651721 -1.1985297 0
-0.53886867 5.1659365 -1.1991197 0
-0.55745083 5.1758442 -1.2018465 0
-0.57350123 5.1622434 -1.1991282 0
-0.5889135 5.1437616 -1.1952869 0
-0.60706139 5.149436 -1.1970718 0
-0.62755954 5.1740556 -1.2032773 0
-0.64519036 5.174222 -1.2038124 0
-0.65828818 5.1388779 -1.1960962 0
-0.68036783 5.1735492 -1.2046902 0
-0.6916272 5.1261554 -1.1941875 0
-0.71443957 5.1644998 -1.2036716 0
-0.72532773 5.1167617 -1.1931055 0
-0.74715364 5.1464996 -1.200617 0
-0.76507449 5.1484728 -1.2016691 0
-0.77716863 5.1119161 -1.193738 0
-0.79987115 5.1450944 -1.2021054 0
-0.81441778 5.1253958 -1.1981342 0
-0.82885581 5.1057463 -1.1941837 0
-0.8501153 5.1279449 -1.2000357 0
-0.86730325 5.1250639 -1.2000353 0
-0.88398361 5.1192422 -1.1993594 0
-0.90496224 5.1379366 -1.2044432 0
-0.92023343 5.1240139 -1.2018961 0
-0.93539113 5.1098814 -1.1993099 0
-0.94687444 5.076458 -1.1922038 0
-0.96839148 5.0969496 -1.197772 0
-0.98796099 5.1065235 -1.2007935 0
-1.0051485 5.1035466 -1.2008792 0
-1.0208038 5.0929127 -1.1991756 0
-1.0390353 5.0951576 -1.2005178 0
-1.0557256 5.0897799 -1.200078 0
-1.0692675 5.0695362 -1.1961434 0
-1.0938054 5.1011176 -1.2044535 0
-1.1050806 5.0707083 -1.1981415 0
-1.1197637 5.0565357 -1.195673 0
-1.1435535 5.083168 -1.2028704 0
-1.1621011 5.0859184 -1.2044365 0
-1.1757296 5.067266 -1.2009461 0
-1.1895093 5.0496969 -1.1977208 0
-1.2092365 5.0574045 -1.2005037 0
-1.2263846 5.0541391 -1.2006979 0
-1.2497176 5.0759706 -1.2068731 0
-1.260105 5.0452294 -1.2005616 0
-1.2789488 5.048615 -1.202381 0
-1.291961 5.0290875 -1.1987553 0
-1.3140233 5.0447221 -1.2035253 0
-1.3304247 5.0383749 -1.2030684 0
-1.3449848 5.0251985 -1.2009922 0
-1.3636054 5.0272212 -1.2025616 0
-1.3699661 4.9844661 -1.1934261 0
-1.393549 5.0045471 -1.1993461 0
-1.4157555 5.019115 -1.2039682 0
-1.4258124 4.9906673 -1.1982841 0
-1.4371278 4.9671621 -1.1937907 0
-1.4613924 4.9883218 -1.200047 0
-1.4850935 5.0069413 -1.2057174 0
-1.4948674 4.9786038 -1.2000937 0
-1.5111217 4.9721503 -1.1997527 0
-1.5272528 4.9653292 -1.1993355 0
-1.5402753 4.9485612 -1.1965261 0
-1.5558519 4.9401736 -1.1957525 0
-1.5820876 4.965313 -1.2031146 0
-1.590632 4.9348674 -1.197023 0
-1.6117131 4.9434452 -1.2004077 0
-1.6314617 4.9476676 -1.2027545 0
-1.6387862 4.9144158 -1.1960002 0
-1.657697 4.9161382 -1.1977652 0
-1.6780883 4.9220443 -1.2005682 0
-1.6926733 4.9108539 -1.1992162 0
-1.7133713 4.9173265 -1.2021929 0
-1.7287381 4.908401 -1.2014211 0
-1.743766 4.8985901 -1.200444 0
-1.7710754 4.9230008 -1.2078745 0
-1.7805657 4.8977652 -1.2031409 0
-1.7914315 4.8766718 -1.199428 0
-1.812811 4.8842144 -1.2027713 0
-1.8320282 4.8857131 -1.2046462 0
-1.8453438 4.871479 -1.2026553 0
-1.8589932 4.8582778 -1.2009282 0
-1.8776199 4.8580933 -1.202432 0
-1.8923459 4.8477955 -1.2014469 0
-1.9045358 4.8311419 -1.1988953 0
-1.9290845 4.8457332 -1.2041146 0
-1.9329077 4.8083596 -1.1964313 0
-1.9587415 4.8258071 -1.2024001 0
-1.9733977 4.8155208 -1.201479 0
-1.9871683 4.803164 -1.2000514 0
-2.0087602 4.8096404 -1.2033455 0
-2.0279777 4.8102388 -1.2051896 0
-2.0419898 4.7984672 -1.2039489 0
-2.0484807 4.7692761 -1.1983413 0
-2.0680313 4.7706199 -1.2004144 0
-2.0874681 4.771553 -1.2024035 0
-2.0973248 4.7506433 -1.1988996 0
-2.1164513 4.7507906 -1.2007209 0
-2.1234212 4.7237649 -1.1956831 0
-2.1617444 4.766221 -1.2082574 0
-2.1584742 4.7169051 -1.1975834 0
-2.1779253 4.7175441 -1.1995929 0
-2.1925271 4.7076321 -1.198935 0
-2.2104497 4.7048335 -1.200103 0
-2.2180912 4.6802616 -1.1957256 0
-2.245347 4.6970143 -1.2019221 0
-2.2529376 4.6725669 -1.1975925 0
-2.2681556 4.6640916 -1.1973625 0
-2.2841198 4.6571522 -1.1975404 0
-2.2918937 4.6336417 -1.1934642 0
-2.3307095 4.6726289 -1.2055119 0
-2.3385365 4.649229 -1.201491 0
-2.3498998 4.6330585 -1.1993414 0
-2.3561292 4.606987 -1.1946306 0
-2.3871691 4.6293268 -1.2024922 0
-2.3909986 4.598835 -1.1966474 0
-2.4057207 4.5894885 -1.1963075 0
-2.4242625 4.5873909 -1.1978728 0
-2.4438238 4.5871096 -1.1999321 0
-2.461818 4.5837841 -1.2012146 0
-2.4759963 4.5733309 -1.200644 0
-2.5130351 4.6048017 -1.2111113 0
-2.505012 4.5537252 -1.1998799 0
-2.5136182 4.5333118 -1.196715 0
-2.5251942 4.5184007 -1.1950071 0
-2.5502136 4.5274563 -1.1996567 0
-2.561234 4.5115795 -1.1977184 0
-2.5844808 4.5171847 -1.2015001 0
-2.6020837 4.5127816 -1.2026428 0
-2.6049938 4.4830265 -1.197034 0
-2.6403465 4.5089965 -1.2063254 0
-2.6400893 4.4740882 -1.1993475 0
-2.6545439 4.4643178 -1.1991075 0
-2.6574495 4.4352851 -1.1936959 0
-2.6878903 4.4521651 -1.2006576 0
-2.6964195 4.4326348 -1.1978222 0
-2.711925 4.4246449 -1.1981133 0
-2.7386801 4.4348545 -1.2033576 0
-2.7541108 4.4265747 -1.2036097 0
-2.7504382 4.3878045 -1.1955687 0
-2.7744708 4.3933425 -1.1996056 0
-2.7893558 4.3842835 -1.1996789 0
-2.8113458 4.3863058 -1.2028047 0
-2.8188653 4.3657489 -1.1997526 0
-2.811249 4.322084 -1.1903366 0
-2.8528776 4.3540754 -1.2017748 0
-2.8545327 4.3248997 -1.1963569 0
-2.881012 4.3333464 -1.2013587 0
-2.9062212 4.3396349 -1.2057967 0
-2.909142 4.3126507 -1.2010025 0
-2.9187808 4.2958016 -1.1990288 0
-2.9409125 4.2973089 -1.2021949 0
-2.9331212 4.2552428 -1.1931711 0
-2.9389009 4.2331829 -1.1897418 0
-2.97049 4.2482076 -1.1967571 0
-2.9954746 4.2535005 -1.2010705 0
-3.0124609 4.2472992 -1.2021649 0
-3.0177031 4.2246017 -1.1985976 0
-3.0300429 4.2119479 -1.197883 0
-3.0530417 4.2140408 -1.2013828 0
-3.0711901 4.2093139 -1.2029638 0
-3.0761273 4.1865282 -1.1993929 0
-3.094507 4.1820841 -1.2010853 0
-3.1118271 4.1761351 -1.2023665 0
-3.1151354 4.1514506 -1.1982599 0
-3.1306033 4.1430559 -1.1988598 0
-3.1535349 4.1444407 -1.2023133 0
-3.1646218 4.1302018 -1.2012539 0
-3.1748254 4.1148677 -1.1998833 0
-3.1977055 4.1159153 -1.2033083 0
-3.1888018 4.0761724 -1.1948082 0
-3.225673 4.0949388 -1.2034724 0
-3.2181714 4.0573559 -1.1955914 0
-3.260107 4.0820408 -1.2060796 0
-3.2517507 4.0436993 -1.1979657 0
-3.2716119 4.0405817 -1.2002851 0
-3.2870977 4.0319901 -1.201 0
-3.2933309 4.0120935 -1.1983558 0
-3.3041484 3.9978642 -1.197408 0
-3.3142145 3.9827745 -1.1962098 0
-3.3374193 3.9834206 -1.1997579 0
-3.3517635 3.9734027 -1.2001187 0
-3.3737409 3.9723556 -1.2032121 0
-3.3875949 3.9616702 -1.2034091 0
-3.3984251 3.9474633 -1.202548 0
-3.4077225 3.9315259 -1.2011667 0
-3.4304609 3.9310517 -1.2045292 0
-3.4235158 3.8966434 -1.1974964 0
-3.4478292 3.897882 -1.2014228 0
-3.4531238 3.8775918 -1.1987307 0
-3.4589262 3.8579853 -1.1962479 0
-3.4792283 3.8545496 -1.1987929 0
-3.4952333 3.8462751 -1.1998575 0
-3.5096102 3.836175 -1.2003708 0
-3.5068178 3.8074114 -1.1950427 0
-3.5294173 3.8062589 -1.1983885 0
-3.548964 3.8016937 -1.2006907 0
-3.5652225 3.7935314 -1.2018814 0
-3.5678263 3.7708869 -1.1984904 0
-3.578517 3.7568748 -1.1978436 0
-3.5882814 3.7419238 -1.1969057 0
-3.623574 3.7534547 -1.2044734 0
-3.6334176 3.7384851 -1.2035722 0
-3.647156 3.7275333 -1.2039764 0
-3.6520526 3.7075882 -1.2014824 0
-3.6600068 3.690829 -1.2000214 0
-3.6656387 3.6718035 -1.1978247 0
-3.6923785 3.6738698 -1.2025306 0
-3.6872873 3.6442838 -1.1968864 0
-3.7017138 3.6340885 -1.1976075 0
-3.7182899 3.6259599 -1.1990304 0
-3.7152772 3.5987988 -1.1941612 0
-3.7562313 3.6141372 -1.203423 0
-3.7628939 3.5963297 -1.2016878 0
-3.7758489 3.5845649 -1.2019801 0
-3.7768633 3.5615284 -1.198495 0
-3.8028364 3.5620086 -1.2029405 0
-3.8236313 3.5574944 -1.2057385 0
-3.8157096 3.5263305 -1.1995056 0
-3.8280494 3.5140114 -1.1996742 0
-3.8391395 3.5005455 -1.1994648 0
-3.8458786 3.4831474 -1.1979148 0
-3.848913 3.4624767 -1.1952373 0
-3.871172 3.4590881 -1.1985413 0
-3.9008715 3.4621747 -1.2041358 0
-3.9000573 3.4381449 -1.2003193 0
-3.9025393 3.4171479 -1.1975503 0
-3.9325349 3.4201868 -1.2032292 0
-3.9312286 3.3959672 -1.199339 0
-3.9501534 3.3892548 -1.2016391 0
-3.9645679 3.3786106 -1.2025713 0
-3.978394 3.3674326 -1.2033336 0
-3.9786253 3.3447964 -1.2000048 0
-3.964998 3.3107142 -1.1925399 0
-4.0142903 3.3290935 -1.2040015 0
-4.0002441 3.2948711 -1.1964686 0
-4.03023 3.2969518 -1.2021242 0
-4.0388656 3.2814739 -1.2014116 0
-4.030252 3.2521038 -1.1955992 0
-4.0480719 3.2441339 -1.1976522 0
-4.0797391 3.2471085 -1.2037933 0
-4.0881033 3.2314358 -1.2030578 0
-4.0887127 3.209702 -1.2000632 0
-4.1240139 3.2151246 -1.2072537 0
-4.1088586 3.1812177 -1.1996881 0
-4.0999637 3.1524012 -1.1939982 0
-4.1182561 3.1445518 -1.1962483 0
-4.1520038 3.1483393 -1.2029783 0
-4.1491199 3.1242983 -1.1991009 0
-4.1708541 3.1188059 -1.2023532 0
-4.1680956 3.0950086 -1.1985599 0
-4.1621461 3.0689955 -1.1938835 0
-4.2043858 3.0784338 -1.2030321 0
-4.2140799 3.0638812 -1.2028599 0
-4.2106977 3.0398941 -1.1989785 0
-4.2399044 3.039407 -1.2043865 0
-4.2507195 3.025636 -1.2045703 0
-4.2611656 3.0115972 -1.2046623 0
-4.2704334 2.9967277 -1.204435 0
-4.2674108 2.9733033 -1.2007642 0
-4.2862253 2.9651146 -1.2032541 0
-4.2788076 2.9388206 -1.1983989 0
-4.2812414 2.919415 -1.1963323 0
-4.3148155 2.921164 -1.2029706 0
-4.3286433 2.9094083 -1.2040994 0
-4.3316011 2.8903596 -1.2022197 0
-4.3414674 2.8759527 -1.202275 0
-4.3342314 2.8502967 -1.197618 0
-4.3809557 2.8600292 -1.2078722 0
-4.3594208 2.8251703 -1.1993165 0
-4.3544431 2.8012581 -1.1953565 0
-4.3794346 2.7966199 -1.1996362 0
-4.4002976 2.789217 -1.2027826 0
-4.4010067 2.769026 -1.2004321 0
-4.4080515 2.7528718 -1.1998293 0
-4.4151478 2.7367694 -1.1992564 0
-4.4277425 2.7240696 -1.2001899 0
-4.4357333 2.7085264 -1.1998875 0
-4.4323339 2.6860907 -1.1965251 0
-4.4459453 2.6739998 -1.1977726 0
-4.4551053 2.6592095 -1.1978316 0
-4.4552727 2.6390901 -1.195491 0
-4.4828706 2.6351738 -1.2005187 0
-4.4847479 2.6160848 -1.1986659 0
-4.5028601 2.6064551 -1.2011642 0
-4.5235133 2.5982008 -1.2043431 0
-4.5259128 2.579437 -1.2026726 0
-4.5235176 2.5580175 -1.1997503 0
-4.5279083 2.5405023 -1.1986489 0
-4.5673199 2.5425186 -1.2068187 0
-4.559413 2.5181301 -1.2024918 0
-4.5776639 2.5082173 -1.2050806 0
-4.5602779 2.4788475 -1.1983091 0
-4.5850363 2.4724264 -1.2026297 0
-4.5546303 2.4363546 -1.1925051 0
-4.5983067 2.4399247 -1.201792 0
-4.5959563 2.4189646 -1.1990513 0
-4.6079407 2.4055777 -1.200067 0
-4.6095872 2.3868043 -1.1984049 0
-4.6248641 2.3750849 -1.2002996 0
-4.6455197 2.3660429 -1.2035948 0
-4.6449132 2.3461537 -1.2013928 0
-4.6488166 2.3285954 -1.2003763 0
-4.6634517 2.3164001 -1.202143 0
-4.6500993 2.2903624 -1.1967148 0
-4.6629577 2.2773008 -1.1980523 0
-4.6923647 2.2722094 -1.2036437 0
-4.6814184 2.2475638 -1.1988961 0
-4.7075424 2.2407155 -1.2036556 0
-4.6804242 2.20859 -1.1948217 0
-4.6961861 2.1968067 -1.1969584 0
-4.7046204 2.1815567 -1.1972371 0
-4.7093554 2.1645975 -1.1965884 0
-4.7277803 2.1538954 -1.1994283 0
-4.7359695 2.1384809 -1.1996802 0
-4.7408319 2.1215692 -1.1991032 0
-4.7426476 2.1033247 -1.197772 0
-4.7658668 2.0945287 -1.2018559 0
-4.7778373 2.0807042 -1.2031084 0
-4.773695 2.0598872 -1.2003195 0
-4.7771254 2.0423958 -1.1994536 0
-4.7960243 2.0314834 -1.2024817 0
-4.7998157 2.0141361 -1.2017325 0
-4.8054428 1.9975749 -1.2014577 0
-4.8050675 1.9785508 -1.1996986 0
-4.8003378 1.9578056 -1.1968721 0
-4.8356838 1.9533371 -1.2040452 0
-4.8180895 1.9274653 -1.1980486 0
-4.8213115 1.9100274 -1.1972506 0
-4.8180585 1.8900739 -1.1948624 0
-4.8439808 1.8815272 -1.1997199 0
-4.8561468 1.8675388 -1.2011755 0
-4.8436451 1.8441132 -1.196547 0
-4.8925295 1.8439673 -1.2070892 0
-4.8825274 1.8215255 -1.2031078 0
-4.8750424 1.8001362 -1.1997695 0
-4.8809767 1.7837539 -1.1997514 0
-4.8697133 1.7611525 -1.1955247 0
-4.899919 1.7535217 -1.20149 0
-4.8903394 1.7316192 -1.1977108 0
-4.8944969 1.7146454 -1.1973143 0
-4.9235797 1.7063216 -1.2030225 0
-4.9303722 1.690181 -1.2032907 0
-4.9273553 1.6707058 -1.2011805 0
-4.9211226 1.6502168 -1.1983056 0
-4.952251 1.6422048 -1.2045379 0
-4.940609 1.6199781 -1.2003784 0
-4.9355316 1.6000063 -1.1978346 0
-4.9563556 1.5884128 -1.2015893 0
-4.9470906 1.5671728 -1.1980625 0
-4.9645257 1.5543997 -1.2010159 0
-4.9569612 1.5338013 -1.1979351 0
-4.9850283 1.5241908 -1.2034763 0
-4.9837346 1.5055422 -1.2019385 0
-4.988029 1.4886078 -1.2017639 0
-4.9804993 1.4681927 -1.1987569 0
-5.0022511 1.4563938 -1.2028104 0
-4.9690223 1.4286643 -1.1936618 0
-4.9885111 1.4161768 -1.1971961 0
-5.0231247 1.4078215 -1.2043635 0
-4.991118 1.3808191 -1.1955726 0
-5.0161886 1.3696662 -1.2004713 0
-5.0118952 1.3504535 -1.1983535 0
-5.012773 1.3326792 -1.1974883 0
-5.014359 1.3151162 -1.196807 0
-5.0270891 1.3004564 -1.1987981 0
-5.0134692 1.2790145 -1.1945208 0
-5.0650783 1.2741085 -1.2057927 0
-5.052155 1.252862 -1.2017094 0
-5.0391774 1.2317241 -1.1976335 0
-5.0659361 1.2202795 -1.2030139 0
-5.0474739 1.1979415 -1.1976693 0
-5.063827 1.1839024 -1.2006009 0
-5.0620141 1.1655928 -1.1992377 0
-5.068213 1.1491402 -1.1997868 0
-5.0519018 1.1276464 -1.1950237 0
-5.08324 1.1167625 -1.2015443 0
-5.0744672 1.0970132 -1.1985945 0
-5.072804 1.0788635 -1.1973405 0
-5.0979972 1.0663683 -1.2024362 0
-5.0965352 1.0482396 -1.2012557 0
-5.1015887 1.0314629 -1.2016249 0
-5.0810432 1.0095887 -1.1959816 0
-5.1396723 1.0033371 -1.2089831 0
-5.115705 0.98086435 -1.2025651 0
-5.1199837 0.96389866 -1.2028044 0
-5.1157179 0.94534677 -1.201051 0
-5.0889602 0.92276794 -1.1940358 0
-5.1270776 0.91193503 -1.2022551 0
-5.1280274 0.89437723 -1.201768 0
-5.1376247 0.87831193 -1.2033204 0
-5.1265068 0.85873067 -1.2000351 0
-5.1204548 0.84007716 -1.1979525 0
-5.1381016 0.82529116 -1.2014269 0
-5.1427155 0.80835426 -1.2018652 0
-5.1432462 0.79077649 -1.2013628 0
-5.1219244 0.76992846 -1.1957729 0
-5.1384158 0.75479877 -1.1990254 0
-5.169879 0.74172145 -1.20578 0
-5.1657887 0.72346658 -1.2042536 0
-5.1205735 0.69963729 -1.1931595 0
-5.1593394 0.68732071 -1.2016486 0
-5.1721025 0.67137992 -1.2040901 0
-5.1726093 0.65381825 -1.203691 0
-5.1594691 0.63458961 -1.2001314 0
-5.1260962 0.61304522 -1.1918839 0
-5.1449609 0.5978114 -1.1957974 0
-5.1554928 0.58152306 -1.1977854 0
-5.1625161 0.56479263 -1.1989703 0
-5.1669073 0.54774839 -1.1995569 0
-5.1623039 0.52976376 -1.1980691 0
-5.1700368 0.5130465 -1.1994578 0
-5.1519146 0.49381039 -1.1948626 0
-5.1507406 0.47627521 -1.1942132 0
-5.1655102 0.46017918 -1.1972731 0
-5.1617069 0.44240189 -1.1960411 0
-5.1800261 0.42648169 -1.1999478 0
-5.1815348 0.40912017 -1.1999729 0
-5.1771793 0.39131448 -1.1986536 0
-5.1793509 0.37401834 -1.1988592 0
-5.1890383 0.35723346 -1.2008176 0
-5.1826973 0.33934188 -1.1990801 0
-5.1736364 0.32133174 -1.1967279 0
-5.1846323 0.30456808 -1.1990284 0
-5.1677313 0.28619236 -1.1948911 0
-5.2193041 0.27149862 -1.2065985 0
-5.165915 0.25135717 -1.1940546 0
-5.1835341 0.23479663 -1.1979383 0
-5.2174535 0.21880659 -1.205601 0
-5.1869121 0.2001068 -1.1983819 0
-5.1840096 0.18259011 -1.1975633 0
-5.1959782 0.16557088 -1.2001932 0
-5.1905904 0.14798021 -1.1988273 0
-5.2055001 0.1309396 -1.2021626 0
-5.1631923 0.11255459 -1.1922982 0
-5.2228045 0.096335895 -1.2059827 0
-5.2183084 0.078751989 -1.2048768 0
-5.2037001 0.061081313 -1.2014498 0
-5.1998639 0.04360031 -1.2005236 0
-5.2201538 0.026267407 -1.2051809 0
-5.1964345 0.0087251458 -1.1996913 0
-5.1959567 1.3787938e-05 -1.1995794 0
-6.1660333 -0.010353164 -1.1985554 0
-6.2054601 -0.031225393 -1.2062327 0
-6.1934409 -0.051931344 -1.2039235 0
-6.1875253 -0.072629504 -1.2028141 0
-6.1511307 -0.092829652 -1.195793 0
-6.18399 -0.11406519 -1.2022485 0
-6.1718979 -0.13454379 -1.1999786 0
-6.1748371 -0.1553224 -1.2006446 0
-6.1845622 -0.17631768 -1.2026438 0
-6.1803656 -0.19693857 -1.2019494 0
-6.2001843 -0.21838161 -1.2059393 0
-6.1656666 -0.23786634 -1.1993738 0
-6.1877861 -0.25949985 -1.2038392 0
-6.1816211 -0.28000662 -1.2028157 0
-6.1414294 -0.29882261 -1.1951834 0
-6.176846 -0.3213082 -1.2022787 0
-6.1646261 -0.34140104 -1.2001163 0
-6.148931 -0.36121523 -1.1972898 0
-6.1503797 -0.38199675 -1.1978146 0
-6.1834941 -0.40487 -1.2045214 0
-6.1990147 -0.42676416 -1.2078167 0
-6.1685681 -0.44545305 -1.2021687 0
-6.1657257 -0.46603325 -1.2019124 0
-6.1609778 -0.48645437 -1.2012981 0
-6.1456556 -0.50598389 -1.1986346 0
-6.1569591 -0.5277034 -1.2011776 0
-6.1316762 -0.54625189 -1.1965955 0
-6.1503863 -0.56870979 -1.2006123 0
-6.1554461 -0.58999872 -1.2019794 0
-6.1367669 -0.60897958 -1.1987238 0
-6.1276259 -0.62882662 -1.1973433 0
-6.1272664 -0.64955688 -1.1976919 0
-6.1372986 -0.67143637 -1.2000862 0
-6.1427789 -0.69288576 -1.2016053 0
-6.1544943 -0.71511263 -1.2043593 0
-6.1183505 -0.73171186 -1.1977597 0
-6.131134 -0.75409967 -1.2007505 0
-6.1460695 -0.77686375 -1.2041789 0
-6.1182327 -0.79419518 -1.19924 0
-6.1166196 -0.81484842 -1.1994525 0
-6.1156096 -0.83559167 -1.199797 0
-6.0964336 -0.85380304 -1.1965898 0
-6.133296 -0.87994272 -1.2043974 0
-6.1080394 -0.89722991 -1.2000217 0
-6.129849 -0.92143977 -1.2049068 0
-6.1060047 -0.93880105 -1.2008319 0
-6.1114154 -0.96061867 -1.2025225 0
-6.0858951 -0.97752744 -1.1981392 0
-6.0969887 -1.0002902 -1.2009767 0
-6.096663 -1.0212396 -1.2015803 0
-6.0662622 -1.0370688 -1.1962672 0
-6.0926552 -1.0626175 -1.2021677 0
-6.064774 -1.0787197 -1.1973733 0
-6.0516796 -1.0973355 -1.1955078 0
-6.0714655 -1.1219618 -1.2001529 0
-6.0645995 -1.141734 -1.1995455 0
-6.0613828 -1.1621848 -1.1996733 0
-6.0573564 -1.1824821 -1.1996543 0
-6.0667071 -1.2054372 -1.2023 0
-6.0685611 -1.2269698 -1.2034758 0
-6.0212212 -1.2384261 -1.1949044 0
-6.032732 -1.2618905 -1.1980217 0
-6.052021 -1.2871194 -1.2027025 0
-6.0146112 -1.3002564 -1.1961278 0
-6.0608177 -1.3315314 -1.2061979 0
-6.0265713 -1.3452046 -1.2002732 0
-6.0361977 -1.3686159 -1.2030975 0
-6.0224252 -1.3867396 -1.2012724 0
-6.003737 -1.4036497 -1.1984768 0
-6.0071373 -1.425703 -1.200103 0
-6.0032239 -1.4460528 -1.2002831 0
-6.0303049 -1.4739851 -1.206679 0
-5.9986415 -1.4875772 -1.2013344 0
-6.0131807 -1.5126015 -1.2052549 0
-5.9834905 -1.526482 -1.200323 0
-5.9848719 -1.548225 -1.2016348 0
-5.9587474 -1.562801 -1.1974348 0
-5.9708567 -1.587392 -1.200931 0
-5.9808259 -1.6115316 -1.2040161 0
-5.9432182 -1.6227908 -1.1975337 0
-5.952353 -1.6467499 -1.2004802 0
-5.9319301 -1.6625307 -1.1974788 0
-5.9630485 -1.692836 -1.2048995 0
-5.9341407 -1.7061496 -1.2002076 0
-5.9219203 -1.7241533 -1.1988984 0
-5.9098191 -1.7421453 -1.1976243 0
-5.8870606 -1.756911 -1.1941993 0
-5.8937249 -1.7804422 -1.1967554 0
-5.8983583 -1.8034449 -1.1989174 0
-5.898808 -1.8252311 -1.2002459 0
-5.8880234 -1.8435482 -1.1993024 0
-5.8644238 -1.8577718 -1.1957576 0
-5.887763 -1.8869102 -1.2017996 0
-5.8778577 -1.9054905 -1.2010751 0
-5.8624935 -1.9222552 -1.1992458 0
-5.866313 -1.9453149 -1.2013546 0
-5.8541965 -1.9631076 -1.2002145 0
-5.8488965 -1.9831705 -1.2004844 0
-5.8599429 -2.008847 -1.2041273 0
-5.8487201 -2.0269394 -1.2032108 0
-5.8482437 -2.048763 -1.2045193 0
-5.8099918 -2.0572588 -1.1980547 0
-5.8222876 -2.0836074 -1.202024 0
-5.812181 -2.102 -1.2013856 0
-5.7925529 -2.1168897 -1.1987889 0
-5.7926345 -2.138962 -1.2002832 0
-5.7737279 -2.1540058 -1.1978552 0
-5.7563343 -2.1695306 -1.1957492 0
-5.7864399 -2.2030621 -1.2035306 0
-5.7574015 -2.2141364 -1.199028 0
-5.7510958 -2.2338741 -1.199268 0
-5.7741714 -2.265147 -1.2056568 0
-5.725843 -2.2683697 -1.197147 0
-5.7348256 -2.2942035 -1.2006266 0
-5.7195072 -2.3103507 -1.1990346 0
-5.7086182 -2.3282454 -1.1983815 0
-5.6933603 -2.3443172 -1.1968218 0
-5.7035308 -2.3709013 -1.2006241 0
-5.7005234 -2.3920977 -1.2016726 0
-5.6798282 -2.4058421 -1.1990037 0
-5.7002158 -2.4370506 -1.2050256 0
-5.6944928 -2.4572189 -1.2055507 0
-5.6447344 -2.45823 -1.1967547 0
-5.6616259 -2.4882016 -1.2020979 0
-5.6514192 -2.5063574 -1.2017082 0
-5.6585827 -2.5322719 -1.20503 0
-5.6204257 -2.5378485 -1.1987096 0
-5.6229053 -2.5616989 -1.2010635 0
-5.6052823 -2.5763993 -1.1991376 0
-5.6093898 -2.6011031 -1.2018752 0
-5.5890636 -2.6144817 -1.1993915 0
-5.5786676 -2.6324518 -1.199048 0
-5.571147 -2.6517775 -1.1993358 0
-5.5438843 -2.6616364 -1.1953812 0
-5.5703325 -2.6973524 -1.2030271 0
-5.5440392 -2.7076044 -1.1993026 0
-5.5625834 -2.7397978 -1.2052944 0
-5.5170631 -2.7404006 -1.1974152 0
-5.5354171 -2.7726941 -1.2034097 0
-5.5206213 -2.7884755 -1.2022189 0
-5.4819202 -2.7920358 -1.1958228 0
-5.4893761 -2.8190522 -1.1995043 0
-5.4808607 -2.8379421 -1.1997161 0
-5.4636736 -2.8523135 -1.1980406 0
-5.4466553 -2.8667083 -1.1964097 0
-5.4449186 -2.8891485 -1.1981493 0
-5.4423609 -2.9112179 -1.1997277 0
-5.4435072 -2.9353468 -1.2021431 0
-5.4654751 -2.9708889 -1.2091874 0
-5.3958678 -2.9565318 -1.1959738 0
-5.4241023 -2.9956915 -1.2044513 0
-5.4132309 -3.0134172 -1.2042741 0
-5.3929596 -3.025862 -1.2020146 0
-5.363328 -3.0329242 -1.1976699 0
-5.3689351 -3.0598977 -1.2012062 0
-5.3641028 -3.0810161 -1.2024295 0
-5.3540435 -3.0991578 -1.2024971 0
-5.3259234 -3.1067669 -1.1985142 0
-5.3135271 -3.1234601 -1.1980745 0
-5.3214378 -3.1521647 -1.2022344 0
-5.3016448 -3.1645007 -1.200153 0
-5.303618 -3.1898444 -1.203014 0
-5.2777653 -3.1984406 -1.1995755 0
-5.2715592 -3.2188947 -1.2006112 0
-5.2558346 -3.2335348 -1.1994923 0
-5.2510214 -3.2548933 -1.2008777 0
-5.2436404 -3.2747052 -1.201694 0
-5.2059774 -3.2754974 -1.1955727 0
-5.2258463 -3.3125076 -1.2026795 0
-5.1987448 -3.3198147 -1.1989973 0
-5.1996293 -3.344975 -1.2017812 0
-5.1754503 -3.354007 -1.1987849 0
-5.150878 -3.3626592 -1.1956981 0
-5.1791215 -3.4059172 -1.2048985 0
-5.1348658 -3.40153 -1.1972492 0
-5.1521263 -3.4378738 -1.2039545 0
-5.1325574 -3.4497426 -1.2020776 0
-5.1016722 -3.453872 -1.1975495 0
-5.1280451 -3.4968576 -1.2064856 0
-5.0877981 -3.4944608 -1.1997664 0
-5.0901213 -3.5212317 -1.2030915 0
-5.0582871 -3.5243435 -1.1983534 0
-5.0535078 -3.5462415 -1.2000313 0
-5.0229783 -3.5500114 -1.1956013 0
-5.0363541 -3.5848455 -1.2016393 0
-5.0163522 -3.5960093 -1.1997368 0
-5.0111084 -3.6177471 -1.201377 0
-4.9812255 -3.6216404 -1.1971172 0
-4.9675508 -3.6372201 -1.1967548 0
-4.9583368 -3.6560736 -1.1974815 0
-4.9602609 -3.683229 -1.2009219 0
-4.9555321 -3.7055583 -1.2027782 0
-4.9256287 -3.7090113 -1.1985319 0
-4.9232664 -3.7331645 -1.2009959 0
-4.9142809 -3.7523677 -1.2018663 0
-4.9119854 -3.7767527 -1.2043949 0
-4.8434801 -3.7499866 -1.1906739 0
-4.8815236 -3.8056874 -1.2031562 0
-4.8523989 -3.8092077 -1.199119 0
-4.8554792 -3.8380067 -1.2030532 0
-4.8273678 -3.8421545 -1.1992732 0
-4.8210244 -3.8635798 -1.2009087 0
-4.8135843 -3.8841932 -1.2022927 0
-4.795547 -3.8962581 -1.2010436 0
-4.7696261 -3.9018188 -1.1978214 0
-4.7565665 -3.917829 -1.1978338 0
-4.7631187 -3.9501045 -1.2028122 0
-4.7461057 -3.9629273 -1.2018646 0
-4.7350764 -3.9807384 -1.2024447 0
-4.715868 -3.991653 -1.2009587 0
-4.7006345 -4.0058875 -1.2004929 0
-4.6867628 -4.0212698 -1.2003868 0
-4.6576705 -4.0234995 -1.196384 0
-4.6573119 -4.0505366 -1.1997736 0
-4.6260734 -4.0506902 -1.1952181 0
-4.6390209 -4.0895877 -1.2020992 0
-4.6003742 -4.0830107 -1.1956254 0
-4.5955949 -4.1063967 -1.1979549 0
-4.6004024 -4.1385155 -1.2028183 0
-4.5730677 -4.1417503 -1.1992954 0
-4.5674696 -4.1646404 -1.2014824 0
-4.5507922 -4.1774631 -1.2007731 0
-4.5304213 -4.1868391 -1.1990954 0
-4.5266876 -4.211616 -1.2018378 0
-4.511157 -4.2254725 -1.2014691 0
-4.495173 -4.2388844 -1.2009904 0
-4.4737258 -4.2470875 -1.1990581 0
-4.4620242 -4.264513 -1.1997473 0
-4.4480228 -4.2797589 -1.199834 0
-4.43607 -4.2969942 -1.2004894 0
-4.4108186 -4.3012924 -1.1975518 0
-4.387393 -4.3072414 -1.1951059 0
-4.3674016 -4.3164663 -1.1935958 0
-4.3607397 -4.338881 -1.1957443 0
-4.3544526 -4.3617759 -1.1980237 0
-4.3509693 -4.3876104 -1.2011058 0
-4.340147 -4.4061465 -1.2021897 0
-4.3393264 -4.434958 -1.2060745 0
-4.3139281 -4.438674 -1.2031448 0
-4.2793965 -4.4327841 -1.1976523 0
-4.2724686 -4.4554062 -1.1998874 0
-4.2552686 -4.4673567 -1.1992567 0
-4.2627139 -4.5053234 -1.2056054 0
-4.2282801 -4.4990501 -1.2001263 0
-4.2219691 -4.5226245 -1.2026321 0
-4.2177482 -4.5485816 -1.2057672 0
-4.1829581 -4.5415087 -1.2001678 0
-4.1638918 -4.5513368 -1.1990688 0
-4.1437654 -4.5599422 -1.197669 0
-4.1361513 -4.5823379 -1.1999022 0
-4.1225128 -4.5981302 -1.2004113 0
-4.0931945 -4.5963421 -1.196355 0
-4.0790973 -4.6115503 -1.1967469 0
-4.0700703 -4.6325507 -1.1986487 0
-4.0679226 -4.6615353 -1.2026124 0
-4.0434752 -4.6650009 -1.2000022 0
-4.031086 -4.6823349 -1.2009777 0
-4.0140295 -4.6942625 -1.2005785 0
-4.0195346 -4.7327352 -1.2069644 0
-3.9790716 -4.7170553 -1.1995565 0
-3.9674313 -4.7353797 -1.200827 0
-3.9407954 -4.7357526 -1.1975642 0
-3.9492536 -4.7784114 -1.2049965 0
-3.9278762 -4.7851272 -1.2033623 0
-3.893043 -4.7752495 -1.1975889 0
-3.8668315 -4.7757034 -1.1944447 0
-3.8640649 -4.8051395 -1.1985599 0
-3.8714771 -4.847549 -1.2058936 0
-3.8402975 -4.8417106 -1.2012315 0
-3.824688 -4.8553782 -1.2014341 0
-3.7827888 -4.8354521 -1.1933585 0
-3.7967134 -4.8869262 -1.2029135 0
-3.7657599 -4.880774 -1.1982846 0
-3.7560987 -4.9021482 -1.2004337 0
-3.7372081 -4.9115162 -1.1996526 0
-3.717207 -4.9193697 -1.1985199 0
