# .PCD v0.7 - Point Cloud Data file format
VERSION 0.7
FIELDS x y z intensity
SIZE 4 4 4 4
TYPE F F F F
COUNT 1 1 1 1
WIDTH 1427
HEIGHT 1
VIEWPOINT 0 0 0 1 0 0 0
POINTS 1427
DATA ascii
4.123735 -22.526918 -1.2002019 0
4.1934652 -22.482004 -1.1985513 0
4.2761412 -22.506355 -1.2006069 0
4.3461866 -22.464031 -1.1991199 0
4.423944 -22.461845 -1.1997882 0
4.5006475 -22.45396 -1.2001663 0
4.5777969 -22.448015 -1.2006623 0
4.6476984 -22.406813 -1.1992851 0
4.7242122 -22.397808 -1.1996442 0
4.7993493 -22.38216 -1.1996613 0
4.8715634 -22.353086 -1.1989716 0
4.9488044 -22.347116 -1.1995347 0
5.0208125 -22.317553 -1.1988446 0
5.1014919 -22.326332 -1.2002283 0
5.1734996 -22.296949 -1.1995745 0
5.2569909 -22.316679 -1.2015774 0
5.3269067 -22.278526 -1.2004781 0
5.3983932 -22.247437 -1.1997714 0
5.4739966 -22.233446 -1.1999999 0
5.5483212 -22.214211 -1.199959 0
5.6311359 -22.228506 -1.2017443 0
5.69731 -22.177107 -1.1999915 0
5.775929 -22.174372 -1.2008846 0
5.8486943 -22.149015 -1.2005666 0
5.9247923 -22.136265 -1.2009455 0
5.9897304 -22.082184 -1.1990943 0
6.0678825 -22.07707 -1.1999147 0
6.1438513 -22.063723 -1.200302 0
6.2154002 -22.034519 -1.1998403 0
6.2897053 -22.015175 -1.1999284 0
6.3649416 -21.999006 -1.2002035 0
6.4412537 -21.98638 -1.2006862 0
6.5151749 -21.965473 -1.2007307 0
6.5912838 -21.95183 -1.2011862 0
6.6582675 -21.907959 -1.2000004 0
6.7352185 -21.897005 -1.2006305 0
6.8069735 -21.869083 -1.2003443 0
6.8760877 -21.832895 -1.1996167 0
6.9592586 -21.841127 -1.2013443 0
7.0276384 -21.802748 -1.2005225 0
7.1052079 -21.792892 -1.2012849 0
7.1709757 -21.746931 -1.2000699 0
7.2337823 -21.692579 -1.1984022 0
7.3203301 -21.709299 -1.2006751 0
7.3864093 -21.665079 -1.1995924 0
7.4584723 -21.638641 -1.1995064 0
7.5268888 -21.60177 -1.1988547 0
7.6075535 -21.599922 -1.200161 0
7.6836276 -21.584679 -1.2007387 0
7.7430825 -21.523018 -1.198746 0
7.831768 -21.542505 -1.201287 0
7.8914046 -21.481968 -1.19938 0
7.9733777 -21.482311 -1.2008849 0
8.0409393 -21.44367 -1.2002252 0
8.1146574 -21.421518 -1.2005014 0
8.1828928 -21.384935 -1.1999822 0
8.256175 -21.361593 -1.2002188 0
8.3316727 -21.343842 -1.2007842 0
8.3997316 -21.30702 -1.2002904 0
8.4671259 -21.268698 -1.1997241 0
8.5425568 -21.250561 -1.2003098 0
8.6127234 -21.21925 -1.2001656 0
8.67276 -21.163265 -1.1986371 0
8.7610474 -21.176077 -1.2010196 0
8.8247509 -21.129234 -1.2000343 0
8.8910751 -21.088928 -1.1994314 0
8.9768419 -21.094505 -1.2014537 0
9.0301485 -21.023851 -1.1991472 0
9.1066742 -21.007498 -1.1999493 0
9.1709671 -20.962929 -1.1991531 0
9.2503672 -20.952824 -1.2003425 0
9.3206205 -20.921816 -1.2003496 0
9.38941 -20.887545 -1.2001828 0
9.4571257 -20.850954 -1.1998955 0
9.5453453 -20.859261 -1.2022084 0
9.5927029 -20.778345 -1.199392 0
9.6629858 -20.747507 -1.1994752 0
9.7449322 -20.741467 -1.2010081 0
9.804306 -20.687336 -1.1997705 0
9.8721027 -20.651192 -1.1995872 0
9.9452047 -20.626102 -1.2000599 0
10.025505 -20.615673 -1.2014021 0
10.090954 -20.574574 -1.2009718 0
10.1626 -20.546124 -1.2012933 0
10.22008 -20.489182 -1.1999608 0
10.286768 -20.45092 -1.1997333 0
10.363227 -20.431988 -1.2006541 0
10.418226 -20.370834 -1.1991065 0
10.490458 -20.343529 -1.1995628 0
10.562117 -20.314991 -1.1999614 0
10.626607 -20.272667 -1.1995593 0
10.705969 -20.258595 -1.2008438 0
10.76783 -20.211319 -1.2001748 0
10.8308 -20.166288 -1.1996504 0
10.91238 -20.155771 -1.2011945 0
10.983356 -20.125408 -1.2015729 0
11.039684 -20.068316 -1.2003675 0
11.100543 -20.019711 -1.1996796 0
11.1794 -20.00349 -1.2009469 0
11.240943 -19.956198 -1.2003636 0
11.30845 -19.919561 -1.2004337 0
11.367546 -19.868204 -1.1996289 0
11.436457 -19.83407 -1.1998764 0
11.503025 -19.795843 -1.1998903 0
11.566914 -19.753035 -1.1996394 0
11.64502 -19.734383 -1.2008711 0
11.703304 -19.682083 -1.2000697 0
11.765794 -19.637001 -1.1997194 0
11.831388 -19.597145 -1.1997012 0
11.906832 -19.573484 -1.20069 0
11.953713 -19.502979 -1.1988168 0
12.026859 -19.47546 -1.1995972 0
12.095743 -19.440899 -1.1999596 0
12.164927 -19.406727 -1.2003613 0
12.224945 -19.357946 -1.1998725 0
12.285189 -19.309633 -1.1994241 0
12.36051 -19.284948 -1.2004583 0
12.411951 -19.223034 -1.199188 0
12.493478 -19.20767 -1.2008359 0
12.541725 -19.14113 -1.1992981 0
12.605965 -19.099174 -1.1993109 0
12.669543 -19.056221 -1.1992743 0
12.729624 -19.008051 -1.198922 0
12.813207 -18.994801 -1.2007892 0
12.869198 -18.940514 -1.2000784 0
12.935464 -18.901402 -1.2003413 0
12.98502 -18.837984 -1.1990721 0
13.064302 -18.817671 -1.2005605 0
13.109727 -18.7486 -1.1989515 0
13.190802 -18.730509 -1.200616 0
13.23993 -18.667007 -1.1993842 0
13.313656 -18.638208 -1.2003952 0
13.378644 -18.597042 -1.2006261 0
13.43196 -18.539713 -1.1998256 0
13.495111 -18.496035 -1.1999204 0
13.553384 -18.445696 -1.199596 0
13.623198 -18.411024 -1.2003049 0
13.685744 -18.366444 -1.2003834 0
13.737197 -18.307062 -1.1995058 0
13.784144 -18.241903 -1.1982579 0
13.869831 -18.227919 -1.2003871 0
13.928432 -18.178135 -1.2001773 0
13.990655 -18.133085 -1.2002934 0
14.047853 -18.081547 -1.1999928 0
14.113647 -18.041052 -1.2004391 0
14.166483 -17.984018 -1.1997977 0
14.229883 -17.940432 -1.2000662 0
14.279336 -17.879326 -1.1991745 0
14.353712 -17.849394 -1.200388 0
14.407689 -17.79402 -1.1999059 0
14.467201 -17.745531 -1.1999004 0
14.529092 -17.69994 -1.2001048 0
14.58166 -17.643028 -1.1995541 0
14.649611 -17.60471 -1.2002816 0
14.691104 -17.534666 -1.1988575 0
14.767058 -17.505754 -1.2002593 0
14.832239 -17.463882 -1.2007912 0
14.879429 -17.400862 -1.1998817 0
14.916796 -17.326611 -1.1982036 0
14.993943 -17.29858 -1.1997348 0
15.047775 -17.243532 -1.1994095 0
15.103335 -17.190514 -1.1992372 0
15.151523 -17.129192 -1.1984965 0
15.234253 -17.1068 -1.2004968 0
15.273579 -17.035612 -1.1990881 0
15.337702 -16.992165 -1.1996428 0
15.408214 -16.955639 -1.2007046 0
15.459522 -16.897921 -1.2002811 0
15.507959 -16.837166 -1.1996522 0
15.576919 -16.798656 -1.2006229 0
15.630659 -16.743664 -1.2004312 0
15.68423 -16.688524 -1.2002416 0
15.731346 -16.626598 -1.1995745 0
15.796342 -16.583565 -1.200284 0
15.844871 -16.523226 -1.1997552 0
15.892871 -16.462437 -1.1992036 0
15.954157 -16.415417 -1.1996683 0
16.018833 -16.371775 -1.2003973 0
16.049826 -16.293804 -1.1986192 0
16.116146 -16.25178 -1.199496 0
16.174847 -16.201963 -1.199815 0
16.218651 -16.137268 -1.1990443 0
16.296398 -16.106255 -1.200793 0
16.345812 -16.04711 -1.2004628 0
16.395073 -15.987877 -1.200137 0
16.442219 -15.92665 -1.1996726 0
16.518583 -15.89362 -1.2013495 0
16.566805 -15.833392 -1.2009889 0
16.598955 -15.757971 -1.1994827 0
16.655125 -15.705463 -1.1997298 0
16.70252 -15.644692 -1.1993587 0
16.758722 -15.592179 -1.1996337 0
16.813797 -15.538575 -1.1998401 0
16.865358 -15.481708 -1.1998086 0
16.926338 -15.433434 -1.2004588 0
16.970747 -15.370038 -1.1999468 0
17.033821 -15.32352 -1.200767 0
17.078875 -15.260758 -1.2003294 0
17.10339 -15.179841 -1.1984686 0
17.157578 -15.125399 -1.1987053 0
17.216946 -15.075451 -1.1993151 0
17.280775 -15.029278 -1.2002443 0
17.324886 -14.965915 -1.1998162 0
17.384647 -14.916049 -1.2004846 0
17.424109 -14.848771 -1.1997651 0
17.469547 -14.786672 -1.1994734 0
17.527323 -14.734991 -1.2000414 0
17.574383 -14.674269 -1.1998881 0
17.626286 -14.617585 -1.2000788 0
17.671776 -14.555589 -1.1998466 0
17.711948 -14.489278 -1.1992689 0
17.783911 -14.448891 -1.2008547 0
17.803905 -14.366306 -1.1989455 0
17.839563 -14.296588 -1.198112 0
17.914585 -14.258334 -1.1999332 0
17.922125 -14.166442 -1.19725 0
18.015478 -14.142348 -1.2003119 0
18.058636 -14.078626 -1.2000357 0
18.113388 -14.023924 -1.2005428 0
2.0619388 -1.5853854 -0.13631079 0
2.0667193 -1.5780636 -0.13627627 0
2.1054103 -1.5964603 -0.13847378 0
2.0921762 -1.5754054 -0.13725519 0
2.1027975 -1.5723833 -0.13760537 0
2.1316867 -1.5828696 -0.13914777 0
2.0935297 -1.5436741 -0.13631843 0
2.1079741 -1.5434413 -0.13692123 0
2.1166673 -1.5389316 -0.13714997 0
2.1154149 -1.5272056 -0.13673627 0
2.1716602 -1.5567621 -0.14003369 0
2.1632056 -1.5397476 -0.13915485 0
2.1503096 -1.519732 -0.13799672 0
2.1739693 -1.5255494 -0.13918604 0
2.1903002 -1.5260752 -0.13990325 0
2.2093771 -1.5283889 -0.14079365 0
2.2045567 -1.5141509 -0.14016217 0
2.2127855 -1.5089087 -0.1403629 0
2.2009442 -1.4900481 -0.1392941 0
2.2150064 -1.4887623 -0.13986737 0
2.2250295 -1.4846932 -0.14018516 0
2.2437575 -1.4863415 -0.14105032 0
2.2209065 -1.4605141 -0.13930522 0
2.2494693 -1.4685175 -0.14078717 0
2.286958 -1.4820795 -0.14282167 0
2.2740543 -1.462914 -0.14170873 0
2.2763839 -1.4536449 -0.14154938 0
2.2773945 -1.4435638 -0.14131047 0
2.3001418 -1.4471949 -0.14242004 0
2.2898417 -1.4300203 -0.14148462 0
2.3114541 -1.4327673 -0.14252236 0
2.341661 -1.4406461 -0.14408627 0
2.3546939 -1.4378035 -0.14459077 0
2.3439133 -1.420454 -0.14363554 0
2.3354194 -1.4046223 -0.14282563 0
2.3552952 -1.4058444 -0.14375208 0
2.3871934 -1.4140505 -0.14540876 0
2.3694704 -1.3928416 -0.14404395 0
2.3755133 -1.385698 -0.14412807 0
2.3928566 -1.385083 -0.14489774 0
2.4025798 -1.3799776 -0.14520554 0
2.4184501 -1.37833 -0.14588457 0
2.4401853 -1.379899 -0.14691576 0
2.4440665 -1.3712994 -0.14687181 0
2.4569166 -1.3676986 -0.14736761 0
2.450645 -1.3534647 -0.14671843 0
20.091579 -11.008614 -1.2006525 0
20.108627 -10.930452 -1.1994745 0
20.135775 -10.857909 -1.1989155 0
20.184156 -10.796803 -1.1996341 0
20.217598 -10.727666 -1.1994772 0
20.251274 -10.658673 -1.1993482 0
20.29702 -10.596 -1.1999466 0
20.330292 -10.52678 -1.1998203 0
20.372114 -10.461968 -1.2002116 0
20.426893 -10.403699 -1.2013772 0
20.453619 -10.331091 -1.200905 0
20.468513 -10.252625 -1.1997545 0
20.52359 -10.194279 -1.2009727 0
20.534792 -10.114149 -1.1996369 0
20.565672 -10.043819 -1.1994669 0
20.625044 -9.9873095 -1.2009699 0
20.651567 -9.9148149 -1.200572 0
20.689497 -9.8478041 -1.2008507 0
20.720455 -9.7774639 -1.2007381 0
20.756771 -9.7096443 -1.2009493 0
20.790251 -9.64048 -1.2010095 0
20.786823 -9.5543423 -1.1989543 0
20.820713 -9.4854918 -1.1990678 0
20.881994 -9.4289942 -1.2007697 0
5.1220102 -2.292134 -0.2940855 0
5.1327176 -2.2763014 -0.29426044 0
5.1525712 -2.2644632 -0.29496172 0
5.1195402 -2.2294965 -0.29264128 0
5.1372952 -2.2167673 -0.29322967 0
5.127892 -2.1923451 -0.29227176 0
5.1297326 -2.1728184 -0.29195982 0
5.1251383 -2.1506343 -0.29128626 0
5.1505113 -2.1410005 -0.29231873 0
5.1527634 -2.1217031 -0.29204115 0
5.1339045 -2.0938339 -0.29057276 0
5.156836 -2.0830481 -0.29147375 0
5.1964374 -2.0788066 -0.29331648 0
5.2551365 -2.0818768 -0.29623413 0
5.3114147 -2.0835962 -0.29901108 0
5.3683805 -2.0852013 -0.30182275 0
5.3888259 -2.072376 -0.30257988 0
5.4517288 -2.0756114 -0.30571938 0
21.437881 -8.0797539 -1.2006571 0
21.423605 -7.9924436 -1.19835 0
21.477928 -7.930778 -1.1998944 0
21.530773 -7.868361 -1.2013662 0
21.53425 -7.7878885 -1.2000965 0
21.571222 -7.719574 -1.2007077 0
21.597153 -7.6472669 -1.2007172 0
21.582899 -7.5608797 -1.1985086 0
21.645174 -7.5013123 -1.2005633 0
21.657175 -7.424232 -1.1998416 0
21.672035 -7.348218 -1.1992933 0
21.734131 -7.288116 -1.2013705 0
21.714485 -7.2006278 -1.1989434 0
21.756294 -7.133615 -1.1999243 0
21.746426 -7.0497169 -1.1980698 0
21.79888 -6.9860401 -1.1996624 0
21.848246 -6.9211707 -1.2010953 0
21.818748 -6.8314161 -1.1982079 0
21.872038 -6.767664 -1.1998816 0
21.913284 -6.7000041 -1.2009052 0
21.955936 -6.6326308 -1.2020172 0
21.927771 -6.5439739 -1.1992671 0
21.978212 -6.4788556 -1.2008312 0
21.979849 -6.3993187 -1.1997416 0
22.02566 -6.3326259 -1.2010764 0
22.015253 -6.2497959 -1.1993595 0
22.069761 -6.1853867 -1.2011925 0
22.06002 -6.1029582 -1.1995419 0
22.094648 -6.0328627 -1.2003182 0
22.106777 -5.9566007 -1.1998854 0
22.122583 -5.8813729 -1.1996663 0
22.140818 -5.8068109 -1.1995926 0
22.159662 -5.7324147 -1.1995655 0
22.212147 -5.6666036 -1.2013714 0
22.197563 -5.5836821 -1.1995633 0
22.220816 -5.5103812 -1.1998148 0
22.254635 -5.4396291 -1.2006493 0
22.251135 -5.359777 -1.1994842 0
22.251675 -5.2810359 -1.198552 0
22.280624 -5.2090578 -1.1991639 0
22.299271 -5.1346273 -1.1992342 0
22.335461 -5.0641632 -1.2002605 0
22.364643 -4.9920001 -1.2009226 0
22.38275 -4.9173164 -1.2010028 0
22.39039 -4.8403583 -1.2005353 0
22.404419 -4.7648191 -1.2004241 0
22.420332 -4.6896877 -1.2004274 0
22.41774 -4.6107492 -1.1994542 0
22.46085 -4.5411768 -1.2009395 0
22.473104 -4.4652791 -1.2007874 0
22.466661 -4.3857503 -1.1996506 0
22.485685 -4.3112516 -1.1998879 0
22.518381 -4.239295 -1.2008674 0
22.513186 -4.1602077 -1.1998398 0
22.522823 -4.0839434 -1.1996169 0
22.547009 -4.0102944 -1.2001822 0
22.564125 -3.9353385 -1.2003843 0
22.571026 -3.858609 -1.2000564 0
22.584682 -3.7830524 -1.2001013 0
22.574545 -3.7035856 -1.1988961 0
22.622997 -3.6336851 -1.2008156 0
22.632948 -3.5574832 -1.2007039 0
22.609751 -3.4761982 -1.1988481 0
22.641256 -3.4033754 -1.1999068 0
22.673227 -3.3304832 -1.2010026 0
22.67387 -3.2529538 -1.2004522 0
22.658512 -3.173254 -1.1990691 0
22.664154 -3.096601 -1.1988115 0
22.695847 -3.0234511 -1.199945 0
22.700098 -2.9465916 -1.1996406 0
22.708572 -2.8703046 -1.1995732 0
22.717068 -2.7940276 -1.1995202 0
22.724134 -2.717586 -1.1994056 0
22.737606 -2.6419024 -1.1996424 0
22.759163 -2.5670996 -1.2003188 0
22.766506 -2.4906535 -1.200259 0
22.727573 -2.4093091 -1.1977738 0
22.774546 -2.3370986 -1.1998297 0
22.783943 -2.2608943 -1.1999185 0
22.76218 -2.1816912 -1.1983805 0
22.808069 -2.1089401 -1.2004174 0
22.824909 -2.033339 -1.2009382 0
22.806501 -1.9546489 -1.1996181 0
22.824181 -1.8790985 -1.2002099 0
22.823967 -1.8020587 -1.1998742 0
22.82023 -1.7247946 -1.1993669 0
22.836857 -1.6490653 -1.1999434 0
22.837776 -1.5721799 -1.1997081 0
22.84511 -1.4957438 -1.1998231 0
22.857697 -1.4196182 -1.2002275 0
22.853397 -1.3424481 -1.1997586 0
22.859152 -1.2658939 -1.1998311 0
22.88199 -1.1902183 -1.2008137 0
22.874886 -1.112959 -1.2002382 0
22.869455 -1.0358485 -1.1997644 0
22.860941 -0.95866835 -1.1991423 0
22.895782 -0.88323957 -1.2008078 0
22.903334 -0.80663556 -1.2010553 0
22.893349 -0.72944027 -1.2003967 0
22.862782 -0.65174168 -1.1986725 0
22.909496 -0.57620662 -1.2010137 0
22.908346 -0.49932781 -1.200859 0
22.918188 -0.42267069 -1.2012938 0
22.900122 -0.3455359 -1.2002794 0
22.879652 -0.26850188 -1.1991526 0
22.937021 -0.19226363 -1.2021189 0
22.923088 -0.11528637 -1.2013615 0
22.875818 -0.038349256 -1.1988707 0
22.928108 0.038436919 -1.2016112 0
22.910501 0.11522307 -1.2007018 0
22.90073 0.19195941 -1.2002168 0
22.90514 0.26880097 -1.2004884 0
22.911152 0.34570232 -1.2008574 0
22.890608 0.42216203 -1.1998482 0
22.885225 0.49882385 -1.1996468 0
22.903128 0.57604647 -1.2006799 0
22.864712 0.65179676 -1.1987737 0
22.842106 0.72780752 -1.1977097 0
22.874781 0.80562997 -1.1995579 0
22.895109 0.88321364 -1.2007725 0
22.856092 0.9584651 -1.1988881 0
22.871311 1.0359325 -1.1998618 0
22.865166 1.1124861 -1.1997283 0
22.864433 1.1893051 -1.1998923 0
22.839104 1.2647837 -1.1987789 0
22.8708 1.3434703 -1.2006721 0
22.862625 1.4199244 -1.2004863 0
22.862984 1.496914 -1.2007618 0
22.842817 1.5725269 -1.1999729 0
22.827135 1.6483632 -1.1994326 0
22.841682 1.7264161 -1.2004944 0
22.832844 1.8027595 -1.2003409 0
22.796513 1.8768207 -1.198755 0
22.814865 1.9553658 -1.200058 0
22.819742 2.0328786 -1.2006663 0
22.795492 2.1077774 -1.1997554 0
22.795122 2.1848485 -1.2001147 0
22.797539 2.2622435 -1.2006346 0
22.746332 2.3342032 -1.1983433 0
22.761803 2.4129376 -1.1995778 0
22.732231 2.4869039 -1.198452 0
22.755951 2.5667372 -1.2001494 0
22.728308 2.6408222 -1.1991519 0
22.720407 2.7171404 -1.1992089 0
22.73242 2.7959161 -1.200331 0
22.702742 2.8695674 -1.1992651 0
22.672377 2.9429932 -1.1981755 0
22.68796 3.0224004 -1.199528 0
22.66572 3.0968149 -1.1988943 0
22.681925 3.176533 -1.2003081 0
22.681429 3.2540383 -1.2008524 0
22.641972 3.3258922 -1.1993471 0
22.641659 3.4034359 -1.1999282 0
22.626314 3.478745 -1.1997265 0
22.613243 3.5543859 -1.1996585 0
22.635189 3.6356432 -1.2014626 0
22.587492 3.7057097 -1.1995836 0
22.577551 3.781858 -1.1997224 0
22.569202 3.8582969 -1.1999594 0
22.547783 3.9324884 -1.1995149 0
22.560293 4.0126576 -1.2008893 0
22.523199 4.0840116 -1.1996369 0
22.533136 4.1638947 -1.2009031 0
22.492317 4.2343884 -1.1994776 0
22.494225 4.3128886 -1.2003436 0
22.464079 4.3852463 -1.1995128 0
22.449915 4.4606714 -1.1995484 0
22.440296 4.5370212 -1.1998404 0
22.432621 4.6138101 -1.2002505 0
22.408226 4.6871557 -1.1997793 0
22.423536 4.7688847 -1.2014483 0
22.401266 4.8427095 -1.2011184 0
22.383663 4.9175167 -1.2010518 0
22.347811 4.9882431 -1.2000188 0
22.351416 5.067781 -1.2011179 0
22.310534 5.1372204 -1.1998399 0
22.295687 5.2125797 -1.1999745 0
22.249994 5.2806368 -1.1984615 0
22.26993 5.3643041 -1.2004974 0
22.269407 5.4432397 -1.2014462 0
22.234093 5.5136733 -1.2005316 0
22.198204 5.5838437 -1.199598 0
22.195631 5.6623898 -1.2004781 0
22.177729 5.7370882 -1.2005435 0
22.135221 5.8053427 -1.1992893 0
22.134295 5.8844867 -1.2003013 0
22.10129 5.9551225 -1.1995876 0
22.099602 6.0342155 -1.2005873 0
22.080994 6.1087604 -1.2006823 0
22.070892 6.1857033 -1.201254 0
22.055815 6.2613111 -1.2015693 0
22.016504 6.3299942 -1.2005771 0
21.987429 6.401525 -1.2001553 0
21.949135 6.470284 -1.1992425 0
21.937305 6.5468192 -1.1997887 0
21.908064 6.6181693 -1.1993963 0
21.901237 6.6963201 -1.2002449 0
21.880817 6.77038 -1.2003632 0
21.831318 6.8353519 -1.1988982 0
21.820002 6.9122233 -1.1995426 0
21.811586 6.9901128 -1.2003617 0
21.762726 7.0550017 -1.1989678 0
21.763451 7.1359615 -1.2003191 0
21.720903 7.2027559 -1.1992977 0
21.702539 7.2775221 -1.1996242 0
21.67654 7.3497453 -1.1995425 0
4.7566385 1.6306092 -0.26352528 0
4.6759825 1.6205 -0.25935635 0
4.6542535 1.6304692 -0.25845289 0
4.5908694 1.6255662 -0.25523436 0
4.5346942 1.6228061 -0.25241232 0
4.4938831 1.6252185 -0.25044259 0
4.4400401 1.6226002 -0.24774373 0
4.4451685 1.6413895 -0.24833556 0
4.4541016 1.6616791 -0.24914446 0
4.4493217 1.6769112 -0.24919018 0
4.4488049 1.6937729 -0.24947791 0
4.4326887 1.7046751 -0.24889325 0
4.4467359 1.7272134 -0.25000575 0
4.4737396 1.7549875 -0.25185338 0
4.4379802 1.7581518 -0.25017071 0
4.4568543 1.7829404 -0.25157022 0
4.4628439 1.8027174 -0.25224805 0
4.4591289 1.8186306 -0.25238129 0
4.4438601 1.8298049 -0.25186291 0
21.133055 8.7847357 -1.1994125 0
21.099092 8.8536987 -1.199163 0
21.08667 8.9317532 -1.2001523 0
21.058487 9.0032063 -1.2002594 0
21.023411 9.071703 -1.1999872 0
21.028879 9.1578178 -1.2020451 0
20.977787 9.2193642 -1.2008847 0
20.930771 9.2825556 -1.1999681 0
20.892962 9.349741 -1.199591 0
20.855333 9.4169559 -1.1992365 0
20.84251 9.4954224 -1.2003232 0
20.804762 9.5625868 -1.199989 0
20.769016 9.6306334 -1.1997828 0
20.730566 9.6973867 -1.1994332 0
20.727102 9.7806005 -1.2011234 0
20.68807 9.8471251 -1.200768 0
20.629776 9.9043522 -1.1993052 0
20.592381 9.9714928 -1.1990681 0
20.591373 10.056372 -1.200966 0
20.550404 10.12184 -1.2005491 0
20.50926 10.18716 -1.200134 0
20.469694 10.253216 -1.1998237 0
20.432053 10.320197 -1.1996387 0
20.386126 10.382936 -1.1989795 0
20.348457 10.449821 -1.198818 0
20.336197 10.529838 -1.2001688 0
20.313597 10.604653 -1.2009267 0
20.246527 10.656176 -1.199067 0
20.201889 10.719331 -1.1985452 0
20.162325 10.785126 -1.1983365 0
20.140806 10.860622 -1.1992152 0
20.122324 10.937898 -1.2002914 0
20.075697 10.999911 -1.1997033 0
20.043316 11.069707 -1.1999795 0
19.997517 11.132074 -1.1994654 0
19.94615 11.191243 -1.1986282 0
19.943079 11.277601 -1.2007092 0
19.897339 11.339949 -1.2002378 0
19.86377 11.409217 -1.2005134 0
19.829784 11.478288 -1.2007786 0
19.762672 11.528075 -1.1990485 0
19.753403 11.611608 -1.2008414 0
19.684488 11.660076 -1.1990218 0
19.641819 11.723942 -1.1988105 0
19.602631 11.78987 -1.1988245 0
19.560099 11.853774 -1.1986473 0
19.533689 11.927498 -1.1994728 0
19.499395 11.996496 -1.1998301 0
19.444986 12.05308 -1.198962 0
19.420895 12.128469 -1.1999772 0
19.390776 12.200218 -1.2006369 0
19.329523 12.252335 -1.1993811 0
19.313992 12.333458 -1.2009765 0
19.263636 12.392423 -1.2004222 0
19.198139 12.441492 -1.1989335 0
19.149551 12.501372 -1.1985099 0
19.125839 12.577548 -1.1996585 0
19.09556 12.64955 -1.2004128 0
19.04324 12.706964 -1.1997952 0
19.013132 12.779211 -1.200591 0
18.962008 12.837355 -1.2000738 0
18.919451 12.901261 -1.2001114 0
18.856657 12.951276 -1.1988759 0
18.821133 13.019963 -1.199386 0
18.763618 13.07341 -1.1985074 0
18.725876 13.140595 -1.1989042 0
18.69183 13.210457 -1.1995534 0
18.678482 13.295153 -1.2015507 0
18.619925 13.347756 -1.2006559 0
18.561634 13.400412 -1.1997876 0
18.534822 13.47582 -1.2009684 0
18.476418 13.528282 -1.2001163 0
18.421043 13.582844 -1.1994708 0
18.363869 13.635968 -1.1987181 0
18.340689 13.714393 -1.2001997 0
18.305984 13.784379 -1.2009465 0
18.252775 13.840452 -1.2004932 0
18.206877 13.902038 -1.2005334 0
18.157228 13.960748 -1.2003394 0
18.093103 14.008218 -1.1991984 0
18.046812 14.069408 -1.19925 0
18.01189 14.139532 -1.2000729 0
17.969015 14.203506 -1.2003825 0
17.902555 14.24876 -1.1991274 0
17.873865 14.324078 -1.2004158 0
17.826426 14.384479 -1.2004621 0
17.778738 14.444687 -1.2005054 0
17.709923 14.487622 -1.199132 0
17.670446 14.554494 -1.1997564 0
17.643312 14.631705 -1.201238 0
17.55719 14.659913 -1.1987144 0
17.553274 14.756808 -1.2018182 0
17.479855 14.795397 -1.2001811 0
17.444948 14.866531 -1.2012 0
17.37536 14.908081 -1.1998434 0
17.319696 14.961432 -1.1994569 0
17.267303 15.017562 -1.1993086 0
17.23465 15.090952 -1.2005482 0
17.182732 15.147573 -1.2004627 0
17.108852 15.18469 -1.1988513 0
17.077171 15.259235 -1.2002096 0
17.0326 15.322422 -1.2006811 0
16.969755 15.369139 -1.1998765 0
16.926521 15.433599 -1.2004716 0
16.870411 15.486346 -1.2001681 0
16.824789 15.548733 -1.2006245 0
16.760679 15.594 -1.1997738 0
16.731068 15.671432 -1.2014086 0
16.650774 15.701362 -1.1994165 0
16.626488 15.784109 -1.2014724 0
16.557043 15.824063 -1.2002814 0
16.510075 15.885433 -1.2007308 0
16.436356 15.920973 -1.1992449 0
16.393728 15.986566 -1.2000387 0
16.335732 16.037216 -1.1997225 0
16.288187 16.098139 -1.2001879 0
16.223269 16.141861 -1.1993855 0
16.165316 16.192417 -1.1991081 0
16.150999 16.286926 -1.20209 0
16.080811 16.32526 -1.2009332 0
16.011976 16.364767 -1.1998835 0
15.950921 16.412086 -1.199425 0
15.902401 16.472307 -1.1999227 0
15.862606 16.541719 -1.2010981 0
15.782899 16.56945 -1.1992625 0
15.714972 16.609293 -1.1983259 0
15.680051 16.684078 -1.1999217 0
15.634665 16.747955 -1.200739 0
15.551311 16.771042 -1.1986492 0
15.492452 16.820328 -1.1984525 0
15.461489 16.90007 -1.2004339 0
15.405147 16.952263 -1.2004656 0
15.357971 17.01462 -1.2012281 0
15.285769 17.049208 -1.200045 0
15.230389 17.102461 -1.2001923 0
15.182779 17.164528 -1.2009689 0
15.107934 17.195747 -1.1996024 0
15.046992 17.242636 -1.199347 0
14.988785 17.292629 -1.1993221 0
14.935706 17.348576 -1.1997225 0
14.881408 17.403177 -1.2000413 0
14.81935 17.448706 -1.1997478 0
14.761319 17.498953 -1.1997929 0
14.702988 17.548849 -1.1998273 0
14.64221 17.595816 -1.1996752 0
14.57093 17.630045 -1.1986713 0
14.534693 17.706764 -1.2005674 0
14.459574 17.736176 -1.1992677 0
14.41493 17.802963 -1.2005091 0
14.34719 17.841284 -1.1998426 0
14.303575 17.909676 -1.20121 0
14.230989 17.941828 -1.2001595 0
14.170946 17.989685 -1.2001758 0
14.118232 18.046913 -1.2008291 0
14.053621 18.08897 -1.2004855 0
13.984124 18.12462 -1.199733 0
13.950637 18.207113 -1.2020906 0
13.857808 18.212118 -1.1993467 0
13.81138 18.277948 -1.2006255 0
13.755388 18.331305 -1.2010943 0
13.664732 18.338245 -1.1985403 0
13.612074 18.39599 -1.1993248 0
13.570428 18.468893 -1.2011046 0
13.501575 18.504894 -1.2004951 0
13.417374 18.519579 -1.1985227 0
13.371952 18.58774 -1.2000256 0
13.301442 18.621111 -1.1992941 0
13.224855 18.645752 -1.1980186 0
13.166568 18.696098 -1.1984103 0
13.112208 18.75215 -1.1991783 0
13.056038 18.805767 -1.1998011 0
12.992191 18.848389 -1.1997344 0
12.929386 18.892521 -1.1997774 0
12.878949 18.954865 -1.2009877 0
12.79126 18.962265 -1.1987325 0
12.733377 19.013655 -1.1992755 0
12.66775 19.053524 -1.1991047 0
12.607854 19.102037 -1.1994905 0
12.542556 19.142397 -1.1993775 0
12.492543 19.206234 -1.2007462 0
12.420768 19.236691 -1.20004 0
12.349468 19.267721 -1.199386 0
12.296034 19.326679 -1.2004831 0
12.22479 19.3577 -1.1998572 0
12.15696 19.394018 -1.1995751 0
12.090902 19.433119 -1.1994795 0
12.036872 19.491674 -1.2005959 0
11.966007 19.523039 -1.2000498 0
11.898994 19.560602 -1.1998997 0
11.83398 19.601439 -1.1999642 0
11.772238 19.647755 -1.2003765 0
11.709776 19.692966 -1.2007333 0
11.634472 19.716505 -1.1997833 0
11.5592 19.739862 -1.1988395 0
11.504875 19.799028 -1.2000834 0
11.440667 19.841373 -1.2003182 0
11.370029 19.872543 -1.1998909 0
11.289826 19.886757 -1.1984569 0
11.244373 19.962286 -1.2007298 0
11.168357 19.983728 -1.1997606 0
11.096784 20.012932 -1.1992733 0
11.03082 20.052202 -1.1994036 0
10.956329 20.075886 -1.1986163 0
10.89992 20.132755 -1.1998229 0
10.837353 20.17849 -1.2003763 0
10.762818 20.201914 -1.1996162 0
10.706673 20.259926 -1.2009227 0
10.637048 20.292587 -1.200738 0
10.570724 20.331549 -1.2009394 0
10.493325 20.349089 -1.1998907 0
10.427693 20.389347 -1.2001961 0
10.35392 20.413637 -1.1995758 0
10.293979 20.465258 -1.2005743 0
10.230469 20.510008 -1.2011806 0
10.138985 20.498379 -1.1985018 0
10.071354 20.534611 -1.1986393 0
10.01483 20.593721 -1.2001228 0
9.9481201 20.632149 -1.2004117 0
9.8841009 20.676291 -1.201045 0
9.8097544 20.698832 -1.2004372 0
9.7434235 20.738255 -1.2008222 0
9.6650219 20.751879 -1.1997279 0
9.5963039 20.786146 -1.1998422 0
9.519331 20.80241 -1.1989318 0
9.457839 20.852528 -1.199986 0
9.3910141 20.891113 -1.2003878 0
9.3181906 20.916361 -1.2000366 0
9.2495136 20.950891 -1.2002318 0
9.1789503 20.981176 -1.2001969 0
9.1106415 21.016651 -1.200472 0
9.0419722 21.051378 -1.2007173 0
8.9599428 21.054794 -1.1991919 0
8.891736 21.090496 -1.1995206 0
8.8274927 21.135799 -1.2004071 0
8.7585516 21.170044 -1.2006775 0
8.6781654 21.176458 -1.1993842 0
8.6121588 21.217857 -1.2000868 0
8.5357332 21.233583 -1.199351 0
8.4667368 21.267719 -1.1996689 0
8.4047327 21.319706 -1.201005 0
8.3315096 21.343422 -1.2007607 0
8.248929 21.342846 -1.1991655 0
8.1860638 21.393223 -1.2004472 0
8.1047888 21.395466 -1.1990414 0
8.0390921 21.438744 -1.1999496 0
7.9726033 21.480225 -1.2007684 0
7.8998494 21.504955 -1.2006634 0
7.8290267 21.534964 -1.2008665 0
7.7558918 21.558622 -1.200729 0
7.6860957 21.591612 -1.2011243 0
7.6050968 21.592947 -1.1997733 0
7.5321908 21.616987 -1.1996992 0
7.4619546 21.648745 -1.2000664 0
7.3821959 21.652719 -1.1989081 0
7.3060932 21.667078 -1.1983399 0
7.2449856 21.726175 -1.2002583 0
7.1774821 21.766663 -1.2011588 0
7.0999179 21.776667 -1.2003905 0
7.0219512 21.785105 -1.1995511 0
6.9461589 21.800014 -1.199083 0
6.8831925 21.855455 -1.2008562 0
6.8073606 21.870327 -1.2004125 0
6.7371054 21.903139 -1.200967 0
6.6584163 21.908447 -1.2000272 0
6.5861268 21.934654 -1.2002463 0
6.512845 21.957619 -1.2003013 0
6.4346957 21.963995 -1.1994637 0
6.3592134 21.979206 -1.1991234 0
6.2947974 22.032999 -1.2009 0
6.2059283 22.00094 -1.1980118 0
6.140923 22.053207 -1.1997299 0
6.067553 22.075874 -1.1998496 0
5.990768 22.08601 -1.199302 0
5.9212022 22.122852 -1.2002178 0
5.8485641 22.148521 -1.2005399 0
5.7681341 22.144445 -1.1992639 0
5.6875987 22.139305 -1.1979461 0
5.626369 22.20969 -1.2007271 0
5.553091 22.233309 -1.2009906 0
5.4730787 22.229717 -1.1997987 0
5.4009857 22.258121 -1.2003477 0
5.3272152 22.279814 -1.2005475 0
5.2507868 22.29034 -1.2001593 0
5.1757498 22.306646 -1.2000961 0
5.0985584 22.313492 -1.199538 0
5.0305786 22.360962 -1.2011764 0
4.9570942 22.38455 -1.2015439 0
4.8757138 22.372131 -1.1999931 0
4.7972898 22.372557 -1.1991465 0
4.7267356 22.409771 -1.200285 0
4.650598 22.420792 -1.2000333 0
4.5722818 22.420971 -1.1992157 0
4.4983311 22.442404 -1.1995486 0
4.4252954 22.468704 -1.2001545 0
4.3470564 22.468527 -1.1993599 0
4.2767372 22.509493 -1.2007744 0
4.1953273 22.491989 -1.1990836 0
4.1223049 22.519108 -1.1997857 0
4.0525055 22.564686 -1.2014834 0
3.9736185 22.559927 -1.2005138 0
3.8953614 22.558092 -1.1997144 0
3.8196814 22.570877 -1.1997066 0
3.7442091 22.584915 -1.1997787 0
3.6735673 22.628771 -1.2014474 0
3.5921316 22.606064 -1.1995956 0
3.5135968 22.600479 -1.1986674 0
3.4419317 22.639297 -1.2001073 0
3.3659489 22.650318 -1.2000866 0
3.2871447 22.641893 -1.1990495 0
3.2148907 22.678736 -1.200423 0
3.1372905 22.678223 -1.1998323 0
3.0615582 22.690994 -1.1999583 0
2.9832158 22.684048 -1.1990552 0
2.9084709 22.704283 -1.1996026 0
2.8315864 22.707932 -1.1992871 0
2.7606974 22.760685 -1.2015775 0
2.6836236 22.763485 -1.2012436 0
2.6063783 22.764418 -1.200825 0
2.527118 22.746738 -1.1994386 0
2.4523444 22.769068 -1.2001758 0
2.377033 22.787157 -1.2007024 0
2.2991285 22.780235 -1.1999248 0
2.2226601 22.78702 -1.1998829 0
2.1453397 22.784708 -1.1993756 0
2.0705402 22.809458 -1.2003063 0
1.99484 22.825279 -1.2007802 0
1.9163916 22.809126 -1.1995857 0
1.8423703 22.84598 -1.2011921 0
1.7622879 22.807072 -1.1988291 0
1.688182 22.84495 -1.2005159 0
1.6106297 22.837038 -1.1998096 0
1.5344256 22.847868 -1.2001015 0
1.4581763 22.858589 -1.2004011 0
1.3818744 22.869091 -1.2007025 0
1.3050642 22.871372 -1.2005858 0
1.2299293 22.904594 -1.2021065 0
1.1500443 22.847336 -1.1988922 0
1.0748191 22.880527 -1.2004381 0
0.99755836 22.871607 -1.1997879 0
0.92035937 22.862173 -1.1991245 0
0.84502017 22.900864 -1.2009984 0
0.76743543 22.879786 -1.1997514 0
0.69100142 22.891569 -1.200241 0
0.61416113 22.890579 -1.2000743 0
0.53677952 22.865658 -1.1986667 0
0.46080258 22.901636 -1.2004651 0
0.38381386 22.891047 -1.1998358 0
0.3068862 22.879074 -1.1991476 0
0.2301755 22.879997 -1.1991488 0
0.15353855 22.892073 -1.1997479 0
0.076753773 22.883179 -1.1992615 0
3.0372483e-05 22.891619 -1.1996971 0
-0.076747157 22.899323 -1.2001076 0
-0.15348713 22.893463 -1.1998208 0
-0.23019385 22.887861 -1.1995609 0
-0.30716711 22.904551 -1.2004827 0
-0.3837617 22.89156 -1.1998626 0
-0.46112815 22.920839 -1.2014716 0
-0.53702348 22.878637 -1.199347 0
-0.6140101 22.887213 -1.1998978 0
-0.69079536 22.886757 -1.1999886 0
-0.76772594 22.890261 -1.2003005 0
-0.84423929 22.88135 -1.1999749 0
-0.92140394 22.889633 -1.2005646 0
-0.99797088 22.88246 -1.2003571 0
-1.0743257 22.871317 -1.1999547 0
-1.1513065 22.873619 -1.2002712 0
-1.2275211 22.86088 -1.1998121 0
-1.3044776 22.862158 -1.200102 0
-1.3809775 22.855253 -1.1999757 0
-1.4562291 22.829018 -1.198848 0
-1.531965 22.812136 -1.1982244 0
-1.6119745 22.85697 -1.2008566 0
-1.6863389 22.820831 -1.1992482 0
-1.7651418 22.844797 -1.2008119 0
-1.8387642 22.802017 -1.1988806 0
-1.9171454 22.818825 -1.2000954 0
-1.9951762 22.829826 -1.201019 0
-2.0689766 22.792906 -1.199435 0
-2.1467323 22.800148 -1.200188 0
-2.221339 22.774101 -1.1992024 0
-2.3008943 22.798336 -1.2008779 0
-2.373502 22.753895 -1.1989495 0
-2.4519 22.765511 -1.1999879 0
-2.5254691 22.732447 -1.1986847 0
-2.6033401 22.738417 -1.199453 0
-2.67995 22.732841 -1.1996262 0
-2.758182 22.74045 -1.200509 0
-2.8338192 22.72633 -1.2002584 0
-2.9090493 22.709276 -1.1998661 0
-2.9887264 22.726416 -1.2012943 0
-3.0601833 22.681257 -1.1994429 0
-3.1402535 22.700085 -1.2009887 0
-3.2127938 22.664377 -1.1996626 0
-3.2884123 22.651047 -1.1995338 0
-3.3655412 22.647987 -1.1999626 0
-3.4380059 22.613878 -1.1987594 0
-3.5136752 22.601379 -1.1987146 0
-3.5922222 22.607021 -1.1996459 0
-3.6702471 22.608698 -1.2003812 0
-3.7426617 22.575953 -1.1993021 0
-3.82356 22.594162 -1.2009436 0
-3.8960512 22.562443 -1.1999453 0
-3.9711576 22.546305 -1.1997883 0
-4.0442405 22.519009 -1.1990507 0
-4.1225133 22.520582 -1.1998637 0
-4.1965775 22.499023 -1.199458 0
-4.2726088 22.488089 -1.199632 0
-4.3489838 22.478807 -1.199908 0
-4.4209137 22.446774 -1.1989825 0
-4.498045 22.441284 -1.1994882 0
-4.5733128 22.426332 -1.1995018 0
-4.6527624 22.431526 -1.2006072 0
-4.7196903 22.376665 -1.1985111 0
-4.8027835 22.398466 -1.2005345 0
-4.8749857 22.369076 -1.1998285 0
-4.953084 22.366722 -1.2005863 0
-5.0282488 22.350883 -1.2006344 0
-5.0971985 22.307814 -1.199232 0
-5.1777554 22.315561 -1.200575 0
-5.2441077 22.262251 -1.1986462 0
-5.3227921 22.261578 -1.1995641 0
-5.4026361 22.265181 -1.2007276 0
-5.4790387 22.254179 -1.2011181 0
-5.5486917 22.215944 -1.2000519 0
-5.6258812 22.208012 -1.2006356 0
-5.6916752 22.155418 -1.1988171 0
-5.7736883 22.16601 -1.2004309 0
-5.8410172 22.12018 -1.1990029 0
-5.9251695 22.137909 -1.2010339 0
-5.9981585 22.113489 -1.2007934 0
-6.0650406 22.066961 -1.1993643 0
-6.1375589 22.041351 -1.1990842 0
-6.2167826 22.039644 -1.2001183 0
-6.2900076 22.016455 -1.1999973 0
-6.3659616 22.00275 -1.2004069 0
-6.4369988 21.972073 -1.199904 0
-6.5137539 21.960896 -1.2004795 0
-6.5890145 21.944483 -1.2007833 0
-6.6542091 21.894814 -1.1992794 0
-6.7303205 21.881287 -1.1997677 0
-6.8096805 21.877985 -1.2008319 0
-6.8791461 21.842808 -1.2001603 0
-6.9494324 21.81049 -1.199658 0
-7.0248451 21.794281 -1.2000552 0
-7.095819 21.76429 -1.1997072 0
-7.1756144 21.761194 -1.2008559 0
-7.2404685 21.712822 -1.1995194 0
-7.3172488 21.70035 -1.2001791 0
-7.3828969 21.654964 -1.1990312 0
-7.4688778 21.669016 -1.201189 0
-7.5372419 21.631668 -1.2005129 0
-7.6003308 21.579597 -1.1990305 0
-7.6770673 21.566429 -1.1997223 0
-7.7560811 21.559328 -1.2007672 0
-7.8150811 21.49678 -1.1987362 0
-7.8973389 21.498299 -1.2002906 0
-7.9625111 21.453209 -1.1992569 0
-8.0364981 21.431999 -1.1995709 0
-8.1121407 21.415045 -1.2001375 0
-8.1801529 21.377945 -1.1995887 0
-8.257576 21.365387 -1.2004308 0
-8.3324471 21.345991 -1.2009039 0
-8.4020662 21.313108 -1.2006321 0
-8.4706936 21.277824 -1.2002376 0
-8.5457458 21.258654 -1.2007657 0
-8.6188898 21.234604 -1.2010328 0
-8.6823349 21.186792 -1.1999682 0
-8.7512999 21.152678 -1.1996912 0
-8.8294811 21.140717 -1.200685 0
-8.8903036 21.087255 -1.1993349 0
-8.9647665 21.066284 -1.199845 0
-9.0358486 21.037277 -1.1999116 0
-9.1094837 21.014133 -1.2003269 0
-9.1798277 20.983334 -1.2003188 0
-9.246479 20.944168 -1.1998452 0
-9.3262644 20.934633 -1.2010835 0
-9.3802891 20.867401 -1.1990238 0
-9.4688959 20.877052 -1.201396 0
-9.5343027 20.835276 -1.2008246 0
-9.6103001 20.816607 -1.201599 0
-9.6648932 20.751747 -1.1997188 0
-9.7312632 20.712515 -1.1993303 0
-9.7973757 20.672855 -1.1989292 0
-9.8665981 20.639816 -1.1989249 0
-9.9489136 20.633934 -1.2005141 0
-9.9936438 20.550297 -1.1975907 0
-10.076935 20.546127 -1.1993099 0
-10.152529 20.5259 -1.2001094 0
-10.214085 20.477297 -1.1992632 0
-10.286083 20.449696 -1.1996597 0
-10.359276 20.424332 -1.2002027 0
-10.429482 20.392975 -1.2004081 0
-10.49852 20.359295 -1.2004908 0
-10.560085 20.311216 -1.1997368 0
-10.646331 20.310427 -1.2017919 0
-10.708267 20.263073 -1.2011076 0
-10.757706 20.192446 -1.1990523 0
-10.829627 20.164232 -1.1995264 0
-10.916422 20.163364 -1.2016454 0
-10.977706 20.115183 -1.2009606 0
-11.047552 20.082745 -1.2012287 0
-11.092614 20.005537 -1.1988285 0
-11.178825 20.002586 -1.2008909 0
-11.24292 19.959831 -1.2005804 0
-11.304277 19.912333 -1.1999964 0
-11.376422 19.883839 -1.2005712 0
-11.435292 19.832174 -1.1997598 0
-11.506412 19.801792 -1.2002491 0
-11.577957 19.772015 -1.2007903 0
-11.624077 19.699009 -1.1987168 0
-11.699836 19.676369 -1.1997193 0
-11.762488 19.631601 -1.1993877 0
-11.833875 19.601381 -1.1999587 0
-11.921763 19.598148 -1.2022009 0
-11.973952 19.536118 -1.2008518 0
-12.026929 19.475689 -1.1996093 0
-12.099735 19.447432 -1.2003608 0
-12.160396 19.399614 -1.1999192 0
-12.220178 19.350512 -1.1994095 0
-12.289862 19.317091 -1.1998854 0
-12.35532 19.276964 -1.1999594 0
-12.416823 19.230692 -1.1996638 0
-12.488941 19.200808 -1.2004049 0
-12.547072 19.149403 -1.1998143 0
-12.611861 19.108219 -1.1998767 0
-12.676548 19.066866 -1.1999421 0
-12.7356 19.017082 -1.1994896 0
-12.805942 18.984138 -1.2001131 0
-12.872698 18.945774 -1.2004094 0
-12.936604 18.903175 -1.2004519 0
-12.988827 18.843615 -1.1994283 0
-13.049195 18.796017 -1.1991768 0
-13.116998 18.759106 -1.199621 0
-13.192923 18.733627 -1.2008135 0
-13.24851 18.679209 -1.200166 0
-13.306245 18.627939 -1.1997316 0
-13.367208 18.581249 -1.1996042 0
-13.437768 18.547832 -1.2003489 0
-13.501325 18.504654 -1.2004772 0
-13.541698 18.429895 -1.1985661 0
-13.629182 18.419212 -1.2008364 0
-13.683234 18.363176 -1.2001674 0
-13.744953 18.317501 -1.2001873 0
-13.804855 18.269413 -1.2000625 0
-13.868657 18.226475 -1.2002897 0
-13.913203 18.158358 -1.1988692 0
-13.987791 18.129473 -1.2000518 0
-14.035166 18.065313 -1.1989131 0
-14.1097 18.036108 -1.2001076 0
-14.158129 17.973511 -1.1990943 0
-14.204607 17.908663 -1.1979386 0
-14.307817 17.915085 -1.2015703 0
-14.362294 17.860163 -1.2011096 0
-14.407128 17.793425 -1.1998632 0
-14.476637 17.757202 -1.2006869 0
-14.523258 17.69293 -1.1996268 0
-14.589607 17.652739 -1.2002116 0
-14.64849 17.603456 -1.2001935 0
-14.717036 17.565712 -1.2009776 0
-14.766117 17.504734 -1.2001866 0
-14.816116 17.444992 -1.1994897 0
-14.884624 17.407032 -1.2003044 0
-14.92133 17.33197 -1.1985714 0
-14.987044 17.290714 -1.1991866 0
-15.06273 17.260761 -1.200605 0
-15.111859 17.200308 -1.1999177 0
-15.181139 17.162766 -1.2008427 0
-15.221251 17.092291 -1.1994758 0
-15.267704 17.02915 -1.1986303 0
-15.326719 16.980087 -1.1987872 0
-15.388317 16.933834 -1.1991576 0
-15.469293 16.908691 -1.2010432 0
-15.518457 16.848652 -1.2004677 0
-15.586315 16.80888 -1.2013506 0
-15.604398 16.715622 -1.1984179 0
-15.684777 16.689196 -1.2002869 0
-15.740552 16.636415 -1.2002797 0
-15.818803 16.607231 -1.2019939 0
-15.839501 16.517714 -1.1993519 0
-15.900474 16.470398 -1.1997806 0
-15.950319 16.411554 -1.199383 0
-16.014729 16.367666 -1.2000929 0
-16.064899 16.309193 -1.1997482 0
-16.120876 16.256636 -1.1998513 0
-16.194767 16.222002 -1.2012959 0
-16.2162 16.134914 -1.1988662 0
-16.274231 16.084431 -1.1991628 0
-16.348162 16.049503 -1.2006385 0
-16.404089 15.996754 -1.2008002 0
-16.426432 15.911444 -1.1985238 0
-16.50197 15.877719 -1.2001444 0
-16.554329 15.821552 -1.2000875 0
-16.601549 15.760518 -1.1996733 0
-16.640671 15.691916 -1.1986916 0
-16.70668 15.648672 -1.1996604 0
-16.766014 15.599047 -1.2001587 0
-16.819986 15.544376 -1.2002846 0
-16.865646 15.482054 -1.199832 0
-16.914564 15.42278 -1.1996266 0
-16.96822 15.36783 -1.1997709 0
-17.014429 15.306156 -1.1994029 0
-17.083612 15.265073 -1.2006652 0
-17.128607 15.202304 -1.2002385 0
-17.154726 15.122966 -1.198509 0
-17.227804 15.08504 -1.2000742 0
-17.262569 15.013525 -1.1989827 0
-17.325148 14.966221 -1.1998371 0
-17.384525 14.916025 -1.200479 0
-17.44013 14.862505 -1.200871 0
-17.471907 14.788748 -1.199638 0
-17.53297 14.739819 -1.2004308 0
-17.569241 14.670053 -1.1995397 0
-17.628872 14.61981 -1.2002577 0
-17.658836 14.545009 -1.1989707 0
-17.719677 14.495679 -1.1997949 0
-17.749172 14.420744 -1.1985115 0
-17.800474 14.363617 -1.1987171 0
-17.871309 14.322107 -1.2002467 0
-17.917919 14.261066 -1.2001591 0
-17.953522 14.191337 -1.19935 0
-18.013454 14.140838 -1.2001797 0
-18.063061 14.082152 -1.2003323 0
-18.092117 14.007532 -1.1991355 0
-18.149048 13.954534 -1.199801 0
-18.213223 13.90696 -1.2009543 0
-18.245371 13.834915 -1.2000087 0
-18.307138 13.785324 -1.2010245 0
-18.340616 13.714416 -1.2001975 0
-18.404587 13.666279 -1.2013783 0
-18.437435 13.595006 -1.2005404 0
-18.477156 13.528896 -1.2001665 0
-18.532042 13.473872 -1.2007905 0
-18.584194 13.416775 -1.2012483 0
-18.610003 13.340718 -1.2000185 0
-18.655884 13.279142 -1.2000993 0
-18.689316 13.208754 -1.1993942 0
-18.752741 13.159522 -1.2006264 0
-18.793659 13.094416 -1.2004285 0
-18.826649 13.023853 -1.1997397 0
-18.878336 12.96624 -1.2002565 0
-18.928495 12.907502 -1.2006873 0
-18.956114 12.833439 -1.1997031 0
-19.002489 12.77213 -1.1999211 0
-19.051222 12.712362 -1.2003002 0
-19.067987 12.631358 -1.1986816 0
-19.132322 12.581884 -1.2000673 0
-19.164095 12.510939 -1.1994222 0
-19.205864 12.446569 -1.1994178 0
-19.262999 12.392084 -1.2003845 0
-19.317579 12.335822 -1.2012017 0
-19.326647 12.250584 -1.1992047 0
-19.382488 12.195076 -1.2001257 0
-19.421543 12.128945 -1.2000192 0
-19.469757 12.068506 -1.2004913 0
-19.50226 11.99833 -1.2000083 0
-19.574644 11.952577 -1.2019895 0
-19.583185 11.867836 -1.2000639 0
-19.633041 11.80823 -1.2006862 0
-19.631327 11.71775 -1.198172 0
-19.692625 11.664968 -1.1995194 0
-19.755188 11.612727 -1.2009518 0
-19.766611 11.530442 -1.1992893 0
-19.828964 11.477883 -1.2007308 0
-19.856768 11.405266 -1.2000921 0
-19.897186 11.339931 -1.2002302 0
-19.930059 11.270308 -1.1999271 0
-19.95879 11.198404 -1.1993896 0
-19.995884 11.131234 -1.1993691 0
-20.051125 11.074088 -1.2004488 0
-20.078289 11.001401 -1.19986 0
-20.093269 10.922174 -1.1985601 0
-20.155689 10.868717 -1.2001029 0
-20.201078 10.805924 -1.2006415 0
-20.210566 10.724003 -1.1990616 0
-20.242863 10.654315 -1.1988517 0
-20.290403 10.592615 -1.1995572 0
-20.340996 10.532391 -1.2004538 0
-20.373138 10.462563 -1.2002736 0
-20.394815 10.387429 -1.1994921 0
-20.435062 10.321787 -1.1998172 0
-20.473906 10.255393 -1.2000722 0
-20.496317 10.1808 -1.1993783 0
-20.544836 10.119164 -1.2002254 0
-20.581575 10.051654 -1.2003961 0
-20.5828 9.9669209 -1.1985117 0
-20.644789 9.9116278 -1.2001795 0
-20.673283 9.8401537 -1.1999112 0
-20.700512 9.7681208 -1.199584 0
-20.743904 9.7036934 -1.2002064 0
-20.767454 9.6299763 -1.1996942 0
-20.786411 9.5542183 -1.1989319 0
-20.870369 9.5081816 -1.2019291 0
-20.866096 9.4218826 -1.1998569 0
-20.926699 9.3649054 -1.2015295 0
-20.947605 9.2900887 -1.2009348 0
-20.976238 9.218749 -1.2007974 0
-20.994295 9.1428223 -1.2000695 0
-21.0329 9.0758629 -1.2005302 0
-21.036526 8.9938831 -1.1990091 0
-21.056749 8.9191456 -1.1984507 0
-21.109108 8.8579683 -1.1997336 0
-21.151236 8.7923584 -1.2004457 0
-21.173267 8.7183752 -1.2000303 0
-21.209593 8.6502781 -1.2004386 0
-21.266659 8.5905027 -1.2020315 0
-21.257368 8.5039597 -1.199888 0
-21.304764 8.4401684 -1.2009592 0
-21.298458 8.3551626 -1.199018 0
-21.334023 8.286685 -1.1994492 0
-21.383848 8.2236328 -1.2006936 0
-21.409306 8.1511307 -1.2005817 0
-21.401934 8.0662708 -1.198645 0
-21.440134 7.9986753 -1.1992757 0
-21.485876 7.9337778 -1.2003397 0
-21.485338 7.8518214 -1.1988322 0
-21.552645 7.7946053 -1.2011228 0
-21.589468 7.7261691 -1.2017245 0
-21.588549 7.6442847 -1.2002399 0
-21.62361 7.5752058 -1.2007704 0
-21.611137 7.4895816 -1.1986767 0
-21.691835 7.4361782 -1.2017629 0
-21.6747 7.3491855 -1.1994418 0
-21.716446 7.2822499 -1.200394 0
-21.69223 7.1933112 -1.1977155 0
-21.746498 7.1304674 -1.1993852 0
-21.786621 7.0628119 -1.2002853 0
-21.795771 6.9851084 -1.1994925 0
-21.840752 6.9188604 -1.2006844 0
-21.836422 6.8370137 -1.1991794 0
-21.874454 6.7684746 -1.2000151 0
-21.884718 6.6913333 -1.1993407 0
-21.912363 6.6195312 -1.1996326 0
-21.950352 6.5507765 -1.2005031 0
-21.976496 6.4784131 -1.2007383 0
-21.984957 6.4008689 -1.2000213 0
-21.991217 6.3227863 -1.1991991 0
-22.047438 6.258996 -1.2011138 0
-22.058426 6.1822729 -1.2005764 0
-22.069122 6.1055393 -1.2000377 0
-22.100502 6.034524 -1.2006371 0
-22.127501 5.9622478 -1.2010111 0
-22.129267 5.883213 -1.2000296 0
-22.164223 5.8130116 -1.2008615 0
-22.150194 5.7300277 -1.1990538 0
-22.178053 5.6579685 -1.1995282 0
-22.214994 5.5881295 -1.2005061 0
-22.235025 5.5139675 -1.2005827 0
-22.249166 5.438355 -1.2003551 0
-22.235241 5.3560109 -1.1986282 0
-22.240761 5.2785077 -1.197965 0
-22.296091 5.2127366 -1.1999971 0
-22.321064 5.1397076 -1.200407 0
-22.307877 5.0579715 -1.198779 0
-22.349844 4.9887595 -1.2001287 0
-22.343489 4.9087529 -1.1988969 0
-22.389425 4.8402119 -1.2004842 0
-22.413895 4.7668967 -1.2009325 0
-22.449123 4.6957726 -1.2019697 0
-22.397154 4.6065769 -1.1983534 0
-22.450905 4.539228 -1.2004083 0
-22.45446 4.4616365 -1.1997918 0
-22.465839 4.3856516 -1.1996075 0
-22.495171 4.3131318 -1.2003947 0
-22.493206 4.2346172 -1.1995256 0
-22.520248 4.1615748 -1.2002168 0
-22.500395 4.0799384 -1.1984229 0
-22.578157 4.0158963 -1.2018408 0
-22.563585 3.9353061 -1.2003561 0
-22.55895 3.8566062 -1.1994148 0
-22.608711 3.7871389 -1.2013786 0
-22.595957 3.7071602 -1.2000338 0
-22.598717 3.6298468 -1.1995273 0
-22.620653 3.5556118 -1.200052 0
-22.623262 3.478337 -1.1995651 0
-22.659035 3.4061093 -1.2008495 0
-22.683388 3.3320374 -1.2015414 0
-22.69301 3.2557614 -1.2014661 0
-22.661793 3.173775 -1.1992432 0
-22.668713 3.0972853 -1.199053 0
-22.718456 3.0265243 -1.2011408 0
-22.707418 2.9476032 -1.2000279 0
-22.720772 2.8719077 -1.200218 0
-22.720266 2.7944825 -1.1996896 0
-22.738039 2.71931 -1.2001399 0
-22.714846 2.6393192 -1.198442 0
-22.765484 2.5678737 -1.2006526 0
-22.752794 2.4892147 -1.1995364 0
-22.790268 2.4160163 -1.2010783 0
-22.769054 2.3365963 -1.1995407 0
-22.769604 2.2595325 -1.1991637 0
-22.776693 2.1831431 -1.1991448 0
-22.797058 2.1079831 -1.1998382 0
-22.825014 2.0334094 -1.2009439 0
-22.802538 1.9543701 -1.1994098 0
-22.801714 1.8773099 -1.1990287 0
-22.810648 1.8010681 -1.1991743 0
-22.842155 1.7265128 -1.2005196 0
-22.845758 1.6497689 -1.2004114 0
-22.850067 1.573087 -1.200354 0
-22.842793 1.4956529 -1.1997017 0
-22.846676 1.4189947 -1.199649 0
-22.845291 1.3420328 -1.1993333 0
-22.872753 1.2667081 -1.2005453 0
-22.881302 1.1902434 -1.2007778 0
-22.881748 1.1133537 -1.2005985 0
-22.870403 1.0359522 -1.1998142 0
-22.878433 0.95946276 -1.20006 0
-22.92853 0.88456386 -1.2025255 0
-22.881311 0.80592078 -1.1999005 0
-22.895491 0.72956938 -1.2005091 0
-22.895567 0.65273708 -1.2003915 0
-22.881294 0.57555807 -1.1995354 0
-22.85535 0.49823338 -1.198081 0
-22.876001 0.42195335 -1.1990825 0
-22.906096 0.34568682 -1.2005925 0
-22.880547 0.26857311 -1.1991994 0
-22.921566 0.19219491 -1.2013088 0
-22.903032 0.11524628 -1.2003105 0
-22.840263 0.038350262 -1.1970074 0
-22.897018 6.0759292e-05 -1.1999801 0
-68.738724 -0.11541671 -1.1998388 0
-68.791702 -0.34615451 -1.2007771 0
-68.778297 -0.57669872 -1.20057 0
-68.749138 -0.80698109 -1.2001016 0
-68.718758 -1.0370677 -1.1996253 0
-68.791336 -1.2688727 -1.2009597 0
-68.725136 -1.498168 -1.1998849 0
-68.70945 -1.7283236 -1.1997055 0
-68.694237 -1.9584262 -1.1995478 0
-68.711281 -2.1894987 -1.1999668 0
-68.688118 -2.4193187 -1.1996973 0
-68.690964 -2.6500409 -1.1998954 0
-68.704521 -2.8812912 -1.2002941 0
-68.666107 -3.1103432 -1.1997986 0
-68.664284 -3.3409877 -1.1999557 0
-68.68 -3.5726075 -1.2004329 0
-68.642845 -3.8014855 -1.1999995 0
-68.632957 -4.0318012 -1.2000562 0
-68.618263 -4.2618432 -1.2000424 0
-68.558212 -4.4889121 -1.1992487 0
-68.612732 -4.7235656 -1.2004726 0
-68.571747 -4.9517961 -1.2000393 0
-68.560867 -5.1821384 -1.2001462 0
-68.543213 -5.4119892 -1.2001481 0
-68.502274 -5.6399264 -1.1997557 0
-68.511826 -5.8720422 -1.200261 0
-68.461517 -6.0990233 -1.1997311 0
-68.45063 -6.3294468 -1.1999055 0
-68.424217 -6.5584526 -1.1998211 0
-68.414154 -6.7890511 -1.2000371 0
-68.359337 -7.0151429 -1.1994815 0
-68.375549 -7.2485523 -1.2001857 0
-68.344711 -7.4770885 -1.2000775 0
-68.336273 -7.7081132 -1.2003765 0
-68.286171 -7.9344139 -1.199957 0
-68.271912 -8.1648426 -1.2001808 0
-68.255142 -8.395051 -1.200374 0
-68.211006 -8.6218777 -1.2000993 0
-68.173599 -8.849474 -1.1999565 0
-68.142326 -9.0778351 -1.1999351 0
-68.109711 -9.3060074 -1.1999035 0
-68.10466 -9.5380297 -1.2003711 0
-68.080002 -9.7674236 -1.2005069 0
-68.01963 -9.9916267 -1.2000264 0
-68.006607 -10.222762 -1.2003945 0
-67.908264 -10.440927 -1.1992698 0
-67.911919 -10.674689 -1.1999598 0
-67.887527 -10.904217 -1.200168 0
-67.858353 -11.133043 -1.2003053 0
-67.775513 -11.352938 -1.1995065 0
-67.745369 -11.581532 -1.1996536 0
-67.716263 -11.810367 -1.1998327 0
-67.670853 -12.036374 -1.1997364 0
-67.632706 -12.263663 -1.1997823 0
-67.594475 -12.490958 -1.1998403 0
-67.558914 -12.718781 -1.1999593 0
-67.518944 -12.945807 -1.2000136 0
-67.483032 -13.173649 -1.2001536 0
-67.427528 -13.397655 -1.1999584 0
-67.382095 -13.623625 -1.1999561 0
-67.349274 -13.852191 -1.2001921 0
-67.303108 -14.078059 -1.2002038 0
-67.227798 -14.297737 -1.1997089 0
-67.170296 -14.521072 -1.1995448 0
-67.15287 -14.753151 -1.2001102 0
-67.058746 -14.968335 -1.1993183 0
-67.037811 -15.199803 -1.1998485 0
-66.974388 -15.4217 -1.199632 0
-66.972176 -15.657825 -1.200526 0
-66.895149 -15.876552 -1.2000928 0
-66.828873 -16.097696 -1.1998652 0
-66.766891 -16.319805 -1.1997281 0
-66.718887 -16.545328 -1.1998556 0
-66.669197 -16.770479 -1.1999664 0
