# .PCD v0.7 - Point Cloud Data file format
VERSION 0.7
FIELDS x y z intensity
SIZE 4 4 4 4
TYPE F F F F
COUNT 1 1 1 1
WIDTH 1410
HEIGHT 1
VIEWPOINT 0 0 0 1 0 0 0
POINTS 1410
DATA ascii
3.3911457 -2.8703525 -1.1904525 0
3.4340329 -2.8869467 -1.2021033 0
3.4429798 -2.8748212 -1.2018542 0
3.4566133 -2.8665903 -1.2032516 0
3.4462926 -2.8385839 -1.1963392 0
3.4699669 -2.8386099 -1.2012469 0
3.4600742 -2.8112059 -1.1945525 0
3.4762216 -2.8050287 -1.1968737 0
3.4970224 -2.8025064 -1.2007935 0
3.5089183 -2.7927709 -1.2016562 0
3.5010333 -2.7673719 -1.1957717 0
3.5089819 -2.7545896 -1.1953254 0
3.5361898 -2.7568357 -1.2014383 0
3.5185165 -2.7241399 -1.1923238 0
3.5386989 -2.7208383 -1.1960649 0
3.5536597 -2.7134314 -1.1980399 0
3.5476556 -2.6900654 -1.1929684 0
3.5665884 -2.6856356 -1.1963003 0
3.599905 -2.6918571 -1.2044412 0
3.5816495 -2.6595299 -1.1953433 0
1.9022923 -1.4026642 -0.63329977 0
1.8892478 -1.3832917 -0.62740952 0
1.9231991 -1.3982698 -0.63712406 0
1.9241608 -1.3891314 -0.63589621 0
1.9572783 -1.4030815 -0.64528251 0
1.9412603 -1.3817693 -0.63847071 0
1.9427527 -1.373041 -0.63744384 0
1.965028 -1.3789282 -0.64323211 0
1.9946364 -1.389748 -0.6513952 0
1.9946871 -1.379872 -0.64989722 0
1.9859494 -1.3640052 -0.64555669 0
2.0030267 -1.3658732 -0.64961559 0
2.0210903 -1.3682863 -0.6539824 0
2.0380273 -1.3698101 -0.65797305 0
2.0375385 -1.3595862 -0.65633988 0
2.0640399 -1.3672905 -0.66339618 0
2.0767906 -1.3657405 -0.66601884 0
2.0738909 -1.3538949 -0.66362941 0
2.0564654 -1.3327072 -0.65661985 0
2.0966687 -1.3488005 -0.66800886 0
2.1190896 -1.3532006 -0.67370301 0
2.1236997 -1.3461418 -0.6737299 0
2.1150985 -1.33077 -0.66958195 0
2.1219835 -1.3251917 -0.67035127 0
2.1597459 -1.3387303 -0.68085891 0
2.1700606 -1.3350734 -0.68269563 0
2.1925693 -1.3388083 -0.68836075 0
2.1830282 -1.3229548 -0.68396896 0
2.2056315 -1.326562 -0.68965334 0
2.204077 -1.3155843 -0.68778425 0
2.2333007 -1.3228923 -0.69551557 0
2.236414 -1.3146273 -0.69510853 0
2.2669034 -1.322343 -0.70320302 0
2.272449 -1.3153862 -0.70355129 0
2.2857914 -1.3128974 -0.70631534 0
3.9075344 -2.2269931 -1.2051239 0
3.9039707 -2.2076542 -1.2017354 0
3.910501 -2.1940761 -1.2014743 0
3.9230442 -2.183852 -1.2030716 0
3.9152699 -2.1623611 -1.1984575 0
3.9275813 -2.1520071 -1.2000107 0
3.938365 -2.1407783 -1.2011056 0
3.9239323 -2.1159205 -1.1945337 0
3.9592476 -2.1178601 -1.2031161 0
3.962894 -2.1027524 -1.202075 0
3.9553361 -2.0817771 -1.1976584 0
3.9577613 -2.0661378 -1.1962885 0
3.9587002 -2.0497673 -1.1944883 0
3.9730966 -2.0403583 -1.1967613 0
4.0011816 -2.0378568 -1.203156 0
4.0103312 -2.0256119 -1.2038584 0
4.0171633 -2.0121865 -1.2038774 0
4.0241971 -1.9988604 -1.2039701 0
4.0358295 -1.9877963 -1.2054496 0
4.0314679 -1.9688797 -1.2021682 0
4.0151191 -1.9442497 -1.1953425 0
4.0446544 -1.941838 -1.2021904 0
4.0361528 -1.9211315 -1.1977423 0
4.0299797 -1.9016465 -1.1940116 0
4.045536 -1.8924292 -1.1967341 0
4.0515623 -1.8787174 -1.1966467 0
4.0939808 -1.8817348 -1.2073048 0
4.0663805 -1.85256 -1.1973271 0
4.0808988 -1.842677 -1.1997762 0
4.0896606 -1.8301507 -1.2005414 0
4.0968471 -1.8169047 -1.200856 0
4.0937476 -1.7991291 -1.1981726 0
4.0901694 -1.7812183 -1.1953707 0
4.112484 -1.7745564 -1.2001466 0
4.1327686 -1.7668966 -1.2043307 0
4.1264758 -1.7478653 -1.2007823 0
4.1360607 -1.735593 -1.2018714 0
4.124845 -1.7146443 -1.1969351 0
4.1463056 -1.707284 -1.2014947 0
4.1400418 -1.6884927 -1.1980323 0
4.1358252 -1.6706219 -1.1951846 0
4.1499867 -1.6601795 -1.1976616 0
4.1490388 -1.6436847 -1.1957909 0
4.1929698 -1.6448454 -1.2068561 0
4.1819158 -1.6243513 -1.2021 0
4.198966 -1.6147926 -1.2054381 0
4.1632876 -1.5850692 -1.1936631 0
4.1777296 -1.5745505 -1.1962836 0
4.1511388 -1.5486537 -1.1871759 0
4.1821456 -1.5442677 -1.194556 0
4.2102408 -1.5386208 -1.2011007 0
4.225173 -1.5280392 -1.2038921 0
4.234272 -1.5152956 -1.2050303 0
4.233088 -1.4988806 -1.2032564 0
4.220778 -1.4786148 -1.1983414 0
4.239655 -1.4692873 -1.2022955 0
4.2318001 -1.4506909 -1.1986818 0
4.2457418 -1.4395803 -1.201257 0
4.2474899 -1.4243128 -1.2003937 0
4.2586875 -1.4122013 -1.2022134 0
4.2603469 -1.3969141 -1.2013528 0
4.2653208 -1.382724 -1.2014414 0
4.2553616 -1.3637457 -1.1973414 0
4.2577171 -1.348776 -1.1967251 0
4.2774377 -1.3392591 -1.2009993 0
4.2501345 -1.31508 -1.1920884 0
4.2573943 -1.3017015 -1.1928937 0
4.2746148 -1.2913109 -1.196499 0
4.2989006 -1.2829345 -1.2020861 0
4.3026171 -1.2683486 -1.2019293 0
4.307992 -1.2542495 -1.2022494 0
4.2952704 -1.2349387 -1.1975368 0
4.3242288 -1.2275829 -1.2044562 0
4.2977695 -1.2045153 -1.1959548 0
4.3090296 -1.1921035 -1.1979692 0
4.300272 -1.1741735 -1.1944332 0
4.3307385 -1.1669039 -1.2018021 0
4.3188491 -1.1481825 -1.1974276 0
4.3429804 -1.1390214 -1.2030526 0
4.3316259 -1.1205349 -1.1988598 0
4.367734 -1.1142648 -1.2078127 0
4.3433471 -1.0925465 -1.2000493 0
4.33745 -1.0756131 -1.1974168 0
4.3592496 -1.0655174 -1.2024419 0
4.3469181 -1.0470706 -1.1980653 0
4.3345404 -1.0287254 -1.1936965 0
4.3490343 -1.0167745 -1.1967424 0
4.3753839 -1.0074753 -1.2030569 0
4.3733754 -0.99158418 -1.2015839 0
4.3685122 -0.97509331 -1.1993426 0
4.3712993 -0.9603405 -1.1992171 0
4.370039 -0.9447158 -1.1979957 0
4.3732204 -0.9300667 -1.1980062 0
4.3791456 -0.91599125 -1.1987814 0
4.3952556 -0.90399039 -1.2023548 0
4.3839116 -0.88634747 -1.198432 0
4.3954725 -0.87335557 -1.2007852 0
4.3880434 -0.85659647 -1.1979643 0
4.3855219 -0.84084994 -1.1964995 0
4.3922663 -0.82688498 -1.1975764 0
4.3686862 -0.80728883 -1.1904025 0
4.3964782 -0.79718995 -1.1972404 0
4.4023862 -0.78302467 -1.1981275 0
4.4110584 -0.76931888 -1.199779 0
4.4234648 -0.75620931 -1.2024571 0
4.4060216 -0.73803169 -1.197036 0
4.4126792 -0.72394526 -1.1981785 0
4.419652 -0.70988041 -1.1994188 0
4.426333 -0.69573808 -1.2005922 0
4.4006691 -0.67659301 -1.1930091 0
4.4395227 -0.66733766 -1.2029289 0
4.3927374 -0.64525169 -1.1896591 0
4.4410896 -0.63715017 -1.2021687 0
4.4459534 -0.62264192 -1.2029135 0
4.4262991 -0.60476482 -1.1970404 0
4.4232478 -0.58924758 -1.1956743 0
4.442337 -0.57663864 -1.200305 0
4.419559 -0.55862075 -1.1936377 0
4.44591 -0.54681331 -1.2002527 0
4.4486194 -0.53201169 -1.2004957 0
4.4432917 -0.51626998 -1.1985842 0
4.4505868 -0.50199997 -1.2000912 0
4.4424706 -0.48600584 -1.1974566 0
4.441349 -0.47081938 -1.196722 0
4.4318538 -0.45479187 -1.193746 0
4.4903431 -0.44558537 -1.2090913 0
4.4769583 -0.42910391 -1.205093 0
4.471458 -0.41345182 -1.2032326 0
4.4546947 -0.39684293 -1.198357 0
4.445086 -0.38096955 -1.1954218 0
4.4699216 -0.36800545 -1.2017623 0
4.45994 -0.35213307 -1.1987545 0
4.4956565 -0.3397899 -1.2080414 0
4.4647269 -0.32240102 -1.1994331 0
4.4763765 -0.30815914 -1.2022784 0
4.466948 -0.29246563 -1.1994759 0
4.4530234 -0.27656302 -1.1954812 0
4.4647775 -0.26226875 -1.1983939 0
4.5047097 -0.2494618 -1.2088809 0
4.4713516 -0.23257963 -1.199713 0
4.4921455 -0.21856171 -1.2050887 0
4.4815974 -0.20298935 -1.2020698 0
4.4734912 -0.18759485 -1.19972 0
4.4796658 -0.17280993 -1.2012138 0
4.4707623 -0.15745638 -1.198678 0
4.4975009 -0.14330181 -1.2057115 0
4.482645 -0.12778527 -1.2016072 0
4.4747958 -0.11254752 -1.1993952 0
4.4837904 -0.097732127 -1.2017115 0
4.5216703 -0.083391301 -1.2117821 0
4.4848137 -0.067670561 -1.2018371 0
4.4688835 -0.052444138 -1.1975144 0
4.4904141 -0.03763973 -1.2032433 0
4.4658365 -0.022459893 -1.1966306 0
4.4478517 -0.0074564246 -1.1917981 0
4.4698648 0.0074933278 -1.1976966 0
4.4933004 0.022598015 -1.2039896 0
4.454874 0.037341826 -1.19372 0
4.4875035 0.052662648 -1.2025038 0
4.4773073 0.067557298 -1.1998255 0
4.4806824 0.082635373 -1.2007976 0
4.4662371 0.097349517 -1.1970069 0
4.4769106 0.11260072 -1.1999621 0
4.478127 0.12765647 -1.2003961 0
4.4975166 0.14330232 -1.2057157 0
4.4986811 0.15843965 -1.2061634 0
4.483429 0.17295508 -1.2022228 0
4.4682617 0.18737553 -1.1983174 0
4.5091701 0.20423824 -1.2094654 0
4.4822564 0.21808057 -1.2024359 0
4.459846 0.23198114 -1.1966258 0
4.4763308 0.24789022 -1.2012651 0
4.4636827 0.26220444 -1.1981 0
4.4754219 0.2779541 -1.2014943 0
4.4690728 0.29260474 -1.2000465 0
4.4689493 0.30764782 -1.2002835 0
4.4342089 0.32019731 -1.1912345 0
4.4755006 0.33826652 -1.2026254 0
4.4594421 0.35209376 -1.1986207 0
4.4842925 0.36918861 -1.2056259 0
4.4453363 0.38099098 -1.195489 0
4.4581022 0.39714652 -1.1992737 0
4.4685922 0.41318682 -1.2024615 0
4.44453 0.42599574 -1.1963642 0
4.4358969 0.44018254 -1.1944308 0
4.4616213 0.45784664 -1.2017641 0
4.4574852 0.47252995 -1.20107 0
4.4117455 0.48264456 -1.1891748 0
4.4540453 0.50239003 -1.2010238 0
4.4356866 0.51538634 -1.1965327 0
4.4134116 0.52780122 -1.1909947 0
4.4563489 0.54809725 -1.2030708 0
4.4157319 0.558137 -1.1926039 0
4.4735456 0.58068967 -1.2087374 0
4.4283957 0.5899334 -1.1970658 0
4.4331746 0.60570425 -1.1988999 0
4.4372125 0.62141776 -1.2005484 0
4.436151 0.63644165 -1.2008319 0
4.4266248 0.65022945 -1.1988367 0
4.4380374 0.66711438 -1.2025265 0
4.431366 0.6813125 -1.2013309 0
4.4272799 0.69588697 -1.2008491 0
4.4534287 0.71530569 -1.2085854 0
4.4173241 0.72470737 -1.1994398 0
4.4271197 0.74156576 -1.202768 0
4.424089 0.75631607 -1.2026268 0
4.4231024 0.77141941 -1.2030549 0
4.4093699 0.78426689 -1.2000283 0
4.4257326 0.80249447 -1.2052069 0
4.3936486 0.81190163 -1.1972045 0
4.3943143 0.82727063 -1.1981349 0
4.4272494 0.84885055 -1.2078841 0
4.4123011 0.86133188 -1.2045869 0
4.3689494 0.86808556 -1.1935393 0
4.3946934 0.88852739 -1.2013794 0
4.3722553 0.89925987 -1.196063 0
4.3774519 0.9156369 -1.1983176 0
4.4014721 0.93607509 -1.2057455 0
4.3726068 0.94527084 -1.1986995 0
4.3726988 0.96064794 -1.1996009 0
4.3806777 0.97780883 -1.2026826 0
4.353035 0.98697227 -1.1959952 0
4.373107 1.0069511 -1.202431 0
4.3736019 1.0225183 -1.2035028 0
4.3610096 1.0350074 -1.2009859 0
4.3596015 1.0501258 -1.2015611 0
4.354598 1.0643804 -1.2011589 0
4.3709106 1.0839109 -1.2066541 0
4.3357201 1.090628 -1.197942 0
4.3274083 1.1039773 -1.1966614 0
4.3588738 1.1275836 -1.2064012 0
4.3379798 1.1377099 -1.2016674 0
4.3353457 1.1525682 -1.2020016 0
4.349371 1.1719242 -1.2069727 0
4.3239417 1.1806364 -1.2010077 0
4.3005075 1.1897458 -1.1955999 0
4.302577 1.2058626 -1.1972926 0
4.303391 1.2216673 -1.1986521 0
4.3230071 1.2429135 -1.2052699 0
4.2961826 1.2508112 -1.1989537 0
4.2888112 1.2642789 -1.1980728 0
4.277122 1.276435 -1.1959962 0
4.2788196 1.2925811 -1.1976759 0
4.2994509 1.3145604 -1.2046777 0
4.3044925 1.3318995 -1.2073349 0
4.2658577 1.3356335 -1.1977478 0
4.2692175 1.352419 -1.1999575 0
4.2487221 1.3616178 -1.1954732 0
4.2433472 1.3756007 -1.1952521 0
4.2518344 1.3941231 -1.1989526 0
4.2697101 1.4158565 -1.205325 0
4.24999 1.4251511 -1.2011002 0
4.2500553 1.4410429 -1.2024775 0
4.2427535 1.4544457 -1.2017845 0
4.2239113 1.4638311 -1.1978308 0
4.2190061 1.4779942 -1.1978383 0
4.2170453 1.4932001 -1.1986963 0
4.2386556 1.5168643 -1.2062778 0
4.1928306 1.5163425 -1.1946768 0
4.182488 1.5284785 -1.1931832 0
4.1870556 1.5460806 -1.1959584 0
4.1859741 1.5616496 -1.1971383 0
4.1930861 1.5803382 -1.2006809 0
4.1820078 1.5921965 -1.1990305 0
4.1762514 1.6060572 -1.1989172 0
4.183217 1.6248568 -1.2024741 0
4.157958 1.6311108 -1.1967787 0
4.1768308 1.6546947 -1.2038008 0
4.1790009 1.6717864 -1.2060349 0
4.153913 1.6779283 -1.2004117 0
4.1579413 1.695793 -1.2032121 0
4.1372008 1.703535 -1.1988564 0
4.1448603 1.7229645 -1.2027431 0
4.143796 1.7388389 -1.2041192 0
4.111578 1.7415551 -1.1964471 0
4.1328702 1.7669401 -1.2043602 0
4.1070004 1.7721903 -1.1985463 0
4.121685 1.794943 -1.2045813 0
4.0843124 1.7949827 -1.1954111 0
4.0947447 1.8159721 -1.2002397 0
4.1011362 1.8352861 -1.2039101 0
4.09724 1.8500557 -1.2045804 0
4.0673409 1.8529975 -1.19761 0
4.045238 1.8593311 -1.1929308 0
4.0739918 1.8891181 -1.2032714 0
4.0632124 1.9006978 -1.2019631 0
4.0305886 1.9019339 -1.1941921 0
4.059052 1.9320309 -1.2045376 0
4.0491304 1.943987 -1.2035209 0
4.05829 1.9651545 -1.208195 0
4.0104837 1.9586318 -1.1959109 0
4.0076475 1.9739157 -1.197032 0
4.0051088 1.989379 -1.1982592 0
3.998724 2.0029502 -1.1983514 0
4.023335 2.0321803 -1.2077621 0
3.9824634 2.0283237 -1.1975275 0
3.9912405 2.0496759 -1.2022265 0
3.9884598 2.0651765 -1.2034678 0
3.9644561 2.0696328 -1.198312 0
3.9582241 2.083297 -1.1985329 0
3.9382515 2.0896769 -1.1946001 0
3.9341545 2.1044376 -1.195491 0
3.9660194 2.1386154 -1.207346 0
3.9288468 2.1356046 -1.1982028 0
3.9205227 2.1481397 -1.1978539 0
3.9146562 2.1620221 -1.1982696 0
3.9333024 2.1895626 -1.2062175 0
3.9360101 2.2083883 -1.2093118 0
3.8991678 2.2049382 -1.2002568 0
3.8774886 2.2098694 -1.1958575 0
3.890317 2.234494 -1.2021178 0
3.874114 2.2424953 -1.1994276 0
3.8682542 2.2564521 -1.1999489 0
3.8514943 2.2640171 -1.1970979 0
3.8403842 2.2748458 -1.1960087 0
3.8524613 2.2994831 -1.2021641 0
3.825665 2.3009202 -1.1962029 0
3.8370471 2.3253202 -1.2021929 0
3.8427365 2.3464196 -1.2064335 0
3.8199911 2.3501501 -1.2017596 0
3.7974582 2.3538752 -1.1971469 0
3.790875 2.3674247 -1.1975671 0
3.7766068 2.3761518 -1.1955698 0
3.7942841 2.4050691 -1.203712 0
3.7925549 2.4218357 -1.2057326 0
3.7777569 2.4302557 -1.2036117 0
3.7528019 2.4320302 -1.1982522 0
3.7438402 2.4440854 -1.1980006 0
3.7375762 2.4579074 -1.1986264 0
3.7114201 2.4585714 -1.1928751 0
3.7308197 2.4894602 -1.2017863 0
3.7318616 2.5082793 -1.2048241 0
3.7245541 2.5215378 -1.2051874 0
3.678355 2.5082874 -1.192953 0
3.6958473 2.5384107 -1.2013795 0
3.6726604 2.5406497 -1.1966046 0
3.6822119 2.5655534 -1.2025125 0
3.682313 2.5840065 -1.205368 0
3.659833 2.5865879 -1.2008415 0
3.6684806 2.611187 -1.2065448 0
3.6417518 2.6106021 -1.2006258 0
3.6266952 2.6182613 -1.1985493 0
3.6073649 2.6227496 -1.1950605 0
3.6079485 2.6417103 -1.1981814 0
3.6015873 2.6556475 -1.199019 0
3.5994418 2.6727414 -1.2012813 0
3.5941038 2.6875191 -1.2025002 0
3.575187 2.6921103 -1.1991844 0
3.5868874 2.7198136 -1.2061608 0
3.5772233 2.7314236 -1.2059839 0
3.5566809 2.7346642 -1.2021428 0
3.5287528 2.7320652 -1.1957927 0
3.5222433 2.7459629 -1.1966999 0
3.5227225 2.7653761 -1.2000061 0
3.5102894 2.7746882 -1.1989331 0
3.5079174 2.7919743 -1.2013134 0
3.4834623 2.7916393 -1.1961373 0
3.492918 2.8185015 -1.2026223 0
3.4944363 2.839124 -1.2064157 0
3.4849505 2.8508675 -1.206434 0
3.4742045 2.8615737 -1.2060285 0
3.4438076 2.8559706 -1.1987939 0
3.4249568 2.8597724 -1.1955628 0
3.4303534 2.8838532 -1.2008152 0
3.4098287 2.8861663 -1.1970111 0
3.3947368 2.8929839 -1.1951114 0
3.4018219 2.9187675 -1.2010442 0
3.3870659 2.9258802 -1.1992912 0
3.3675315 2.9287789 -1.1958448 0
3.3824337 2.9617164 -1.2046561 0
3.3761888 2.976306 -1.2059793 0
3.3348184 2.959765 -1.1947398 0
3.3451023 2.9890022 -1.2020077 0
3.336071 3.0011086 -1.2023714 0
3.3185875 3.0055728 -1.1996953 0
3.3139956 3.0217009 -1.201691 0
3.3017113 3.0308356 -1.2009146 0
3.292594 3.042871 -1.2013025 0
3.2921958 3.0630322 -1.2048974 0
3.2955015 3.086786 -1.2098882 0
3.2550526 3.069452 -1.1988096 0
3.2492385 3.0846162 -1.2004706 0
3.2416377 3.0981305 -1.2014934 0
3.2237837 3.1018152 -1.1987239 0
3.2094569 3.1088202 -1.1972657 0
3.2083802 3.1286955 -1.2007705 0
3.1891668 3.1308885 -1.1975017 0
3.1898355 3.1526172 -1.201715 0
3.1858563 3.1698699 -1.204213 0
3.159807 3.1651042 -1.1983712 0
3.1619256 3.1885364 -1.2032224 0
3.1325741 3.1801934 -1.1961039 0
3.1398463 3.2090263 -1.2029822 0
3.1285303 3.2189808 -1.2027749 0
3.1108966 3.2223842 -1.2001425 0
3.0868592 3.2190146 -1.1950262 0
3.0779328 3.231324 -1.195758 0
3.0738497 3.2487788 -1.1983967 0
3.0692945 3.2658279 -1.2008829 0
3.0403373 3.2568293 -1.1938189 0
3.0398357 3.2782578 -1.1979311 0
3.0265837 3.2859957 -1.1970438 0
3.0118232 3.292052 -1.1955646 0
3.0154414 3.3182778 -1.2014105 0
3.0099857 3.3346698 -1.2036847 0
2.9925652 3.3378019 -1.2011868 0
2.9733334 3.3388064 -1.1979539 0
2.9591758 3.3454256 -1.1967623 0
2.9568286 3.3654423 -1.2003697 0
2.9388576 3.3676929 -1.1976513 0
2.9354141 3.3866005 -1.2008685 0
2.4554615 3.7202458 -1.1943882 0
2.4500439 3.7392473 -1.1978445 0
2.4448349 3.758728 -1.2014524 0
2.4402804 3.7793894 -1.2054346 0
2.4265769 3.7859614 -1.204929 0
2.4095662 3.7873116 -1.2027807 0
2.4002261 3.8007081 -1.2044728 0
2.3890197 3.8112073 -1.2052548 0
2.3821158 3.8286588 -1.2082412 0
2.3595088 3.8208246 -1.2032655 0
2.3420904 3.8212178 -1.2009096 0
2.3210611 3.815562 -1.1966797 0
2.3156011 3.8354902 -1.2004881 0
2.3056376 3.8480875 -1.2020047 0
2.2856555 3.8439112 -1.1982995 0
2.2778075 3.8601155 -1.2009636 0
2.2619479 3.8627706 -1.1994234 0
2.2605219 3.8901889 -1.2055768 0
2.235393 3.8768079 -1.1991006 0
2.2246695 3.8882782 -1.2003347 0
2.2095003 3.8919814 -1.1991841 0
2.212981 3.9287348 -1.2082155 0
2.1862328 3.9118633 -1.200766 0
2.1847243 3.9401269 -1.2071865 0
2.1609039 3.9281652 -1.201295 0
2.142735 3.9262512 -1.1985059 0
2.1339381 3.9415019 -1.2009704 0
2.1196594 3.9466763 -1.200375 0
2.1109953 3.962358 -1.202985 0
2.0940289 3.9624701 -1.2008806 0
2.0789101 3.9659934 -1.1998293 0
2.0596178 3.9614329 -1.1963538 0
2.0619385 3.998596 -1.2054825 0
2.0475943 4.0036759 -1.2049375 0
2.0201335 3.982866 -1.1966294 0
2.0069306 3.9899392 -1.1967261 0
1.9980327 4.0056491 -1.199422 0
1.9950901 4.0335512 -1.2057672 0
1.9646655 4.0057817 -1.1954899 0
1.9567742 4.0237594 -1.1988906 0
1.950753 4.0458121 -1.2035058 0
1.9387461 4.0556121 -1.2044804 0
1.9138926 4.0383625 -1.1974449 0
1.90721 4.0593748 -1.2017727 0
1.8825614 4.042069 -1.1947739 0
1.8767613 4.0651727 -1.1997364 0
1.8715208 4.0897985 -1.2051454 0
1.8400129 4.056838 -1.1936083 0
1.8237494 4.057086 -1.1918755 0
1.8177685 4.0803094 -1.1969007 0
1.7930471 4.0613956 -1.1895825 0
1.7958159 4.1048627 -1.2005436 0
1.7804852 4.1072669 -1.1994941 0
1.7658545 4.1112351 -1.1989172 0
1.7582103 4.1315842 -1.2031256 0
1.7380623 4.1225462 -1.1987901 0
1.7229022 4.1251707 -1.1978667 0
1.715093 4.1455026 -1.202094 0
1.6998165 4.1478915 -1.2011274 0
1.6881644 4.1591468 -1.2027409 0
1.673699 4.1635122 -1.2023737 0
1.6539638 4.1546159 -1.1981964 0
1.6504868 4.186676 -1.2058399 0
1.6265152 4.16676 -1.1985263 0
1.6155277 4.1799316 -1.2007502 0
1.5894828 4.1539083 -1.1917369 0
1.590158 4.1977863 -1.2027889 0
1.5693183 4.1850762 -1.1976328 0
1.5648308 4.216053 -1.2049891 0
1.5470788 4.2114553 -1.2021859 0
1.5304308 4.2096896 -1.2002102 0
1.5221778 4.2311134 -1.2048565 0
1.5089327 4.2388606 -1.2056152 0
1.490119 4.230855 -1.2019105 0
1.4706722 4.2207508 -1.1976326 0
1.4601865 4.2363167 -1.2006534 0
1.4479331 4.246933 -1.2022796 0
1.4359498 4.2584777 -1.2041782 0
1.4181345 4.2526841 -1.2011887 0
1.3948139 4.2299576 -1.1934417 0
1.3886509 4.2592306 -1.2003804 0
1.3797121 4.2804585 -1.2050527 0
1.3657748 4.2863846 -1.2054251 0
1.3418471 4.2606215 -1.196908 0
1.3283592 4.2676821 -1.1976335 0
1.3146707 4.2741523 -1.1982056 0
1.305205 4.2945671 -1.202695 0
1.2846421 4.2784147 -1.1969587 0
1.2712333 4.2858777 -1.1978474 0
1.2550068 4.283802 -1.1960846 0
1.2449365 4.3028464 -1.2002296 0
1.2286503 4.3005118 -1.1984227 0
1.2088455 4.2855372 -1.1931136 0
1.2081922 4.3388453 -1.2068201 0
1.1845654 4.3098617 -1.1976472 0
1.1757234 4.3345089 -1.2033942 0
1.1544533 4.3132792 -1.1964188 0
1.1471369 4.3442097 -1.2039245 0
1.1336188 4.3520765 -1.2050446 0
1.1153138 4.3414226 -1.2010525 0
1.1008809 4.3456483 -1.2011937 0
1.0865644 4.3503561 -1.2014812 0
1.0673318 4.3351259 -1.19628 0
1.0542781 4.3448091 -1.1979699 0
1.0399426 4.3493133 -1.1982437 0
1.0245301 4.3492765 -1.1972805 0
1.0141853 4.3709755 -1.2023109 0
0.998743 4.3709307 -1.2013708 0
0.98614913 4.383441 -1.2038938 0
0.96770495 4.3698258 -1.1992565 0
0.95362377 4.3756866 -1.1999807 0
0.94190216 4.3926382 -1.2037568 0
0.92379677 4.3797827 -1.1993783 0
0.90973532 4.3858848 -1.2002072 0
0.89399785 4.3838725 -1.1988295 0
0.87921858 4.3864665 -1.1987261 0
0.86214292 4.377388 -1.1954485 0
0.85018253 4.3943181 -1.1992868 0
0.83451116 4.3922319 -1.1979471 0
0.82104617 4.4017925 -1.1997972 0
0.80468929 4.3958139 -1.1974254 0
0.79475415 4.4252567 -1.2047131 0
0.7767415 4.4098926 -1.1998147 0
0.76280916 4.4174385 -1.2011651 0
0.74484485 4.4013619 -1.196108 0
0.73337543 4.4236903 -1.2015008 0
0.71862733 4.4266653 -1.2016476 0
0.7023403 4.41998 -1.1991869 0
0.68964285 4.4359841 -1.2028949 0
0.67255104 4.4237027 -1.1989464 0
0.65681887 4.4198999 -1.1973121 0
0.64273715 4.4271812 -1.1986941 0
0.62959719 4.4413538 -1.2019532 0
0.60872281 4.4002147 -1.1902606 0
0.60122299 4.4560142 -1.2048025 0
0.58093625 4.417376 -1.1938223 0
0.56814051 4.4350529 -1.198078 0
0.55201 4.4268489 -1.1953552 0
0.53961313 4.448863 -1.2008041 0
0.5247494 4.451118 -1.2009312 0
0.51039118 4.4578176 -1.2022703 0
0.49299619 4.4374881 -1.1963348 0
0.4798651 4.4553614 -1.200713 0
0.46296248 4.4381375 -1.1956462 0
0.44974774 4.4561925 -1.2000973 0
0.43523771 4.4621172 -1.2012931 0
0.41851658 4.4448805 -1.1962681 0
0.40531799 4.4650588 -1.2013263 0
0.38879651 4.4486723 -1.19656 0
0.37518054 4.4654446 -1.2007262 0
0.36146641 4.4822989 -1.2049255 0
0.34528977 4.4686508 -1.2009386 0
0.32938752 4.4573631 -1.1976017 0
0.31411451 4.453814 -1.1963584 0
0.30015972 4.4694314 -1.2002763 0
0.28461879 4.4617267 -1.1979442 0
0.27004957 4.4691381 -1.1996843 0
0.25491038 4.4673285 -1.1989623 0
0.23990895 4.4677505 -1.198853 0
0.22478221 4.465632 -1.1980755 0
0.21025993 4.4759698 -1.2006532 0
0.19441473 4.4574609 -1.1955066 0
0.18055627 4.4851055 -1.2027519 0
0.1653364 4.4807763 -1.2014357 0
0.14931843 4.4516754 -1.1934918 0
0.13487542 4.4681673 -1.1977854 0
0.12045211 4.4894056 -1.2033637 0
0.10525516 4.483644 -1.2017179 0
0.089756817 4.4608645 -1.1955252 0
0.074962169 4.4708195 -1.198119 0
0.059999634 4.4731112 -1.1986724 0
0.045089308 4.4819856 -1.2010033 0
0.029972754 4.4688349 -1.1974458 0
0.015016117 4.4768677 -1.199578 0
5.9425538e-06 4.478879 -1.2001101 0
-0.015085213 4.5010285 -1.2060519 0
-0.03001244 4.4765229 -1.1995058 0
-0.044859678 4.4603367 -1.1952022 0
-0.060184985 4.4878173 -1.2026134 0
-0.075155437 4.4830561 -1.2013983 0
-0.090307362 4.4888186 -1.2030169 0
-0.10551918 4.4953995 -1.2048686 0
-0.11998437 4.472415 -1.1988093 0
-0.13503209 4.4737511 -1.1992821 0
-0.15005527 4.4739981 -1.1994764 0
-0.16466568 4.4629207 -1.1966479 0
-0.178738 4.4402318 -1.1907182 0
-0.19560371 4.4849944 -1.2028912 0
-0.21051162 4.4815817 -1.2021583 0
-0.22536893 4.4775243 -1.2012659 0
-0.24140173 4.4957728 -1.2063721 0
-0.25519398 4.4725075 -1.2003521 0
-0.27026588 4.4729152 -1.200698 0
-0.28445101 4.4592824 -1.1972878 0
-0.30143347 4.4885755 -1.2054173 0
-0.31674686 4.4913077 -1.2064295 0
-0.32956967 4.4599895 -1.198307 0
-0.34474656 4.4617748 -1.1990905 0
-0.360347 4.4685659 -1.2012336 0
-0.37504572 4.4639816 -1.2003325 0
-0.38908479 4.452107 -1.1974835 0
-0.40576059 4.4700661 -1.2026732 0
-0.42415774 4.5049205 -1.2124267 0
-0.43508071 4.4606304 -1.2008924 0
-0.44975612 4.4563942 -1.2001512 0
-0.46529239 4.4605875 -1.2016939 0
-0.47869977 4.4446526 -1.1978267 0
-0.49341872 4.4413986 -1.1973889 0
-0.51071101 4.4607153 -1.2030514 0
-0.5282532 4.4809408 -1.208977 0
-0.53936821 4.4469423 -1.2002853 0
-0.55449343 4.4468608 -1.2007585 0
-0.56989217 4.4488206 -1.2017968 0
-0.58470708 4.4461403 -1.2015955 0
-0.59873915 4.4376936 -1.1998487 0
-0.61415428 4.4395633 -1.2009041 0
-0.6299845 4.444171 -1.2027152 0
-0.64356899 4.4329939 -1.2002674 0
-0.6576162 4.4253459 -1.1987869 0
-0.67502409 4.4400482 -1.2033761 0
-0.68651748 4.4159579 -1.197464 0
-0.70484972 4.4358482 -1.2034917 0
-0.716097 4.4111528 -1.1974362 0
-0.73110962 4.4100957 -1.1978079 0
-0.74953073 4.4291229 -1.2036517 0
-0.759507 4.398385 -1.1959836 0
-0.77216488 4.3839774 -1.1927633 0
-0.79489815 4.426126 -1.2049491 0
-0.80911368 4.4200492 -1.2040266 0
-0.82003433 4.3964324 -1.1983355 0
-0.83182144 4.3781385 -1.1941026 0
-0.85564303 4.4226046 -1.2070061 0
-0.86606324 4.3973546 -1.2009006 0
-0.87947148 4.3877888 -1.1990868 0
-0.89286852 4.3783941 -1.1973308 0
-0.90676439 4.3716202 -1.196303 0
-0.92328852 4.3774309 -1.1987336 0
-0.93725264 4.3710113 -1.1978295 0
-0.95287293 4.3722973 -1.1990505 0
-0.96768516 4.3697915 -1.1992464 0
-0.97995806 4.3559756 -1.1963497 0
-0.9977569 4.3666682 -1.2001985 0
-1.0114197 4.359108 -1.1990459 0
-1.0262802 4.3567581 -1.1993392 0
-1.0373843 4.338665 -1.1953093 0
-1.0533442 4.3410106 -1.1969218 0
-1.0746877 4.3650532 -1.2045375 0
-1.0815637 4.3303828 -1.1959642 0
-1.1030147 4.3541207 -1.2035347 0
-1.1171778 4.3487272 -1.2030725 0
-1.1328 4.3489799 -1.2041864 0
-1.1470587 4.3439603 -1.2038547 0
-1.1519297 4.3038969 -1.1938154 0
-1.1768779 4.3388109 -1.2045877 0
-1.1796843 4.2921472 -1.1927238 0
-1.2004771 4.311183 -1.1991252 0
-1.2159239 4.3106751 -1.2001113 0
-1.2313379 4.3099623 -1.2010554 0
-1.2436309 4.2983766 -1.198982 0
-1.2628762 4.3107057 -1.2035953 0
-1.2734156 4.2932768 -1.1999143 0
-1.2946012 4.3116241 -1.2062486 0
-1.2986723 4.2731133 -1.1966859 0
-1.3198791 4.2911258 -1.202963 0
-1.3347905 4.2883844 -1.2034422 0
-1.353861 4.2988076 -1.2076344 0
-1.3587115 4.2642565 -1.1992011 0
-1.3811508 4.2849612 -1.2063192 0
-1.3809848 4.2357554 -1.1937635 0
-1.4044052 4.2590823 -1.201658 0
-1.4066153 4.2181778 -1.1914412 0
-1.4323394 4.247808 -1.20116 0
-1.4412568 4.227387 -1.1967453 0
-1.4593281 4.2338629 -1.1999568 0
-1.4744223 4.2315497 -1.2006956 0
-1.4810103 4.2050285 -1.1945726 0
-1.4999859 4.2137628 -1.1984757 0
-1.5201952 4.2256379 -1.2032961 0
-1.5320781 4.2142553 -1.2015109 0
-1.5371368 4.1844254 -1.1944687 0
-1.5572389 4.1956325 -1.1991516 0
-1.5747464 4.1995859 -1.2017838 0
-1.5886912 4.1939478 -1.2016879 0
-1.6018035 4.1861405 -1.2009829 0
-1.6215059 4.1954322 -1.2052017 0
-1.6213986 4.1536851 -1.1947641 0
-1.6409689 4.1625652 -1.1988941 0
-1.6619387 4.1746802 -1.2039818 0
-1.6743277 4.1651082 -1.2028334 0
-1.6769649 4.1315861 -1.1947696 0
-1.6953059 4.1369166 -1.197948 0
-1.7034019 4.1172752 -1.1939075 0
-1.7246045 4.1292772 -1.1990578 0
-1.7361208 4.1179719 -1.1974585 0
-1.7530119 4.1193986 -1.1995758 0
-1.758386 4.0938768 -1.1938539 0
-1.7916911 4.1331468 -1.2070508 0
-1.8013465 4.1175342 -1.2042483 0
-1.8063358 4.0915251 -1.198406 0
-1.831755 4.1117339 -1.2061173 0
-1.8284917 4.0676646 -1.1949818 0
-1.8527999 4.0850592 -1.2019101 0
-1.8656684 4.0770378 -1.2013837 0
-1.8753352 4.0621123 -1.1988316 0
-1.889819 4.0576801 -1.1993868 0
-1.9074888 4.0599961 -1.2019551 0
-1.9208655 4.0531034 -1.2018144 0
-1.9196578 4.0157089 -1.192628 0
-1.942642 4.0290174 -1.1985083 0
-1.9470202 4.0037289 -1.1929208 0
-1.9643 4.0050631 -1.195274 0
-1.9680525 3.978915 -1.1894329 0
-1.990876 3.9913275 -1.1951321 0
-2.0194767 4.0149083 -1.2042136 0
-2.0268288 3.9960923 -1.2006016 0
-2.0524247 4.0131474 -1.2077863 0
-2.0435932 3.9630461 -1.1947633 0
-2.066644 3.9749727 -1.2004411 0
-2.0845311 3.9767425 -1.2030796 0
-2.0898128 3.9545171 -1.1984688 0
-2.111804 3.9639018 -1.203452 0
-2.1315801 3.9688973 -1.2071317 0
-2.1317527 3.9374902 -1.1997464 0
-2.1485627 3.9369543 -1.2017714 0
-2.1565678 3.9203072 -1.1988902 0
-2.1682293 3.910403 -1.1980778 0
-2.1805215 3.9016681 -1.1976347 0
-2.1948431 3.8965585 -1.1983185 0
-2.2089684 3.8910685 -1.1989011 0
-2.2146521 3.8707938 -1.1949353 0
-2.2244015 3.857769 -1.1932101 0
-2.2423375 3.8589184 -1.1958842 0
-2.2609973 3.861171 -1.1989248 0
-2.271158 3.84887 -1.197463 0
-2.2780678 3.8311737 -1.194327 0
-2.2960584 3.832123 -1.197016 0
-2.3217845 3.8457553 -1.2036991 0
-2.3287356 3.8282008 -1.2006416 0
-2.34692 3.8291202 -1.2033912 0
-2.3705883 3.8387885 -1.2089208 0
-2.3622541 3.7967589 -1.1981722 0
-2.3679502 3.7776172 -1.1946303 0
-2.3970385 3.7956829 -1.2028781 0
-2.4027946 3.7766902 -1.1994057 0
-2.4224989 3.7796209 -1.202909 0
-2.4227929 3.7523277 -1.1968012 0
-2.4431396 3.7561433 -1.2006241 0
-2.4517522 3.7418759 -1.1986845 0
-2.460711 3.7282209 -1.1969464 0
-2.4833026 3.7351491 -1.2018371 0
-2.4733677 3.6932883 -1.1910293 0
-2.5021141 3.7092531 -1.1988764 0
-2.5175087 3.7052176 -1.2002935 0
-2.5211141 3.6838927 -1.1961169 0
-2.5336041 3.6756408 -1.196189 0
-2.5615847 3.6896982 -1.2035521 0
-2.5707951 3.6765895 -1.202081 0
-2.5689695 3.6478736 -1.1955017 0
-2.5853233 3.6450737 -1.1974181 0
-2.5972815 3.6360371 -1.1973035 0
-2.6050882 3.6212344 -1.1952986 0
-2.6468449 3.6533771 -1.2088307 0
-2.6470017 3.6279292 -1.2033403 0
-2.6464303 3.601722 -1.197584 0
-2.6576066 3.5916333 -1.1971855 0
-2.6662433 3.5781524 -1.195665 0
-2.6867325 3.5805304 -1.199463 0
-2.6967111 3.5688407 -1.1985692 0
-2.7014141 3.5502541 -1.1953622 0
-2.7244947 3.5557842 -1.2002931 0
-2.7346945 3.5444176 -1.1995444 0
-2.762177 3.5553262 -1.2063638 0
-2.7515244 3.5172107 -1.1965543 0
-2.7769928 3.5253463 -1.2024828 0
-2.7886269 3.5158017 -1.2024095 0
-2.7936525 3.4979844 -1.1995127 0
-2.7963405 3.477376 -1.1956542 0
-2.8227904 3.4862678 -1.2019589 0
-2.8316503 3.4733334 -1.200766 0
-2.8502233 3.4722786 -1.2036983 0
-2.8596096 3.4599931 -1.2027564 0
-2.8698976 3.4488277 -1.2022132 0
-2.8680403 3.4231873 -1.1966206 0
-2.8947589 3.431639 -1.202961 0
-2.8770483 3.3875332 -1.1908745 0
-2.915518 3.4095931 -1.2020593 0
-2.9341726 3.4082077 -1.2050323 0
-2.936482 3.3878505 -1.2013091 0
-2.9502578 3.3807747 -1.2023008 0
-2.9592783 3.3682485 -1.2013679 0
-2.9821415 3.3714068 -1.2060539 0
-2.9780378 3.3441067 -1.1998529 0
-2.9874418 3.3321049 -1.1991339 0
-3.0040329 3.3280923 -1.2013077 0
-3.0003867 3.301729 -1.195416 0
-3.0103946 3.290508 -1.195001 0
-3.0394192 3.2999489 -1.2021238 0
-3.0452752 3.2841418 -1.2000781 0
-3.0506976 3.2679446 -1.1978904 0
-3.0574501 3.2532425 -1.1962521 0
-3.0724564 3.2473233 -1.1978568 0
-3.0997648 3.254261 -1.2042429 0
-3.0883634 3.2206004 -1.1956118 0
-3.1103063 3.2217898 -1.199918 0
-3.1124954 3.2024994 -1.1966134 0
-3.1334975 3.2025547 -1.2005529 0
-3.1362352 3.1839268 -1.1975051 0
-3.1576958 3.184288 -1.201616 0
-3.1417899 3.1470737 -1.1915413 0
-3.1588271 3.142993 -1.1939995 0
-3.1848571 3.1477132 -1.1998426 0
-3.1928658 3.1345365 -1.1988937 0
-3.2288768 3.1486998 -1.2084447 0
-3.1897502 3.0897477 -1.1899173 0
-3.2186601 3.0969017 -1.1968217 0
-3.2487545 3.1049488 -1.2041343 0
-3.227752 3.0642345 -1.192535 0
-3.2404838 3.0557303 -1.1934471 0
-3.270931 3.0637882 -1.2008706 0
-3.2612159 3.034225 -1.1935623 0
-3.2925556 3.0428517 -1.2012914 0
-3.2857411 3.0161917 -1.1951089 0
-3.3172493 3.0246837 -1.2028738 0
-3.3127749 3.0003242 -1.1975969 0
-3.3328967 2.9982691 -1.2012302 0
-3.328548 2.974226 -1.196062 0
-3.3249862 2.9510541 -1.19122 0
-3.3648725 2.966346 -1.2019399 0
-3.3623142 2.9441154 -1.1974934 0
-3.3832071 2.9424276 -1.201414 0
-3.3840477 2.9232883 -1.1982253 0
-3.3667052 2.8886528 -1.1886487 0
-3.4086118 2.904824 -1.1999989 0
-3.4197037 2.8945403 -1.2004805 0
-3.4303644 2.8838782 -1.2008218 0
-3.4437542 2.8754835 -1.2021273 0
-3.4621933 2.8712335 -1.2051966 0
-3.4685977 2.8569713 -1.2040849 0
-3.470294 2.8388932 -1.2013627 0
-3.4779854 2.8257735 -1.2007388 0
-3.487546 2.814182 -1.2007753 0
-3.5066705 2.8102534 -1.204109 0
-3.5094965 2.7932463 -1.2018567 0
-3.5194139 2.7819161 -1.2020521 0
-3.5264907 2.7683494 -1.2012923 0
-3.5370226 2.7575002 -1.2017237 0
-3.5323651 2.7348771 -1.1970191 0
-3.5529118 2.7317812 -1.2008712 0
-3.5548937 2.7143886 -1.1984584 0
-3.5679591 2.7054758 -1.1997982 0
-3.5724874 2.6900923 -1.1982813 0
-3.5876639 2.6827185 -1.200348 0
-3.6071818 2.6785035 -1.2038668 0
-3.5844581 2.6430318 -1.1933187 0
-3.620873 2.6511881 -1.2024758 0
-3.6322947 2.6408894 -1.2033216 0
-3.6316299 2.6218386 -1.2001824 0
-3.6672885 2.6289229 -1.2090472 0
-3.6521583 2.5995836 -1.2011787 0
-3.6543887 2.5827549 -1.1990575 0
-3.6488421 2.5605333 -1.1944139 0
-3.6639376 2.5528355 -1.1965468 0
-3.6848507 2.5490971 -1.2005786 0
-3.7014501 2.5422733 -1.203203 0
-3.694057 2.5190089 -1.1980475 0
-3.6860795 2.4955049 -1.1927401 0
-3.7143936 2.4965529 -1.1991867 0
-3.7181034 2.4809895 -1.1976922 0
-3.7472677 2.4823322 -1.2043989 0
-3.7215338 2.4473717 -1.1934837 0
-3.7474465 2.4464538 -1.1991566 0
-3.7486908 2.4293802 -1.1969416 0
-3.7660546 2.4227417 -1.1998854 0
-3.7620051 2.4023416 -1.1960223 0
-3.7854631 2.3994918 -1.2009156 0
-3.8012755 2.3916869 -1.2033812 0
-3.8066633 2.3772988 -1.2025568 0
-3.7951555 2.3524618 -1.1964231 0
-3.8336091 2.3585424 -1.2060457 0
-3.8410957 2.3454318 -1.2059203 0
-3.814261 2.3115251 -1.1950556 0
-3.8283706 2.3025615 -1.1970508 0
-3.8449636 2.2950215 -1.1998262 0
-3.8492503 2.2801113 -1.1987717 0
-3.8786225 2.2799776 -1.2055316 0
-3.8823068 2.2646632 -1.2043099 0
-3.8827889 2.2475302 -1.2021152 0
-3.8736801 2.2249517 -1.1969788 0
-3.9034579 2.2246838 -1.2038686 0
-3.8973472 2.2039223 -1.1996982 0
-3.8936005 2.184607 -1.1962835 0
-3.9002411 2.1711719 -1.1960804 0
-3.9232008 2.166755 -1.2008868 0
-3.9551332 2.1671171 -1.2084304 0
-3.9241905 2.1330869 -1.1967845 0
-3.923167 2.1155214 -1.1943024 0
-3.9445741 2.1100245 -1.1986588 0
-3.9624364 2.1025231 -1.2019379 0
-3.9956465 2.1030068 -1.209866 0
-3.9551184 2.0647714 -1.1954913 0
-3.9721463 2.0567429 -1.1985471 0
-3.9723456 2.0399859 -1.1965367 0
-4.0051856 2.0399096 -1.2043617 0
-4.0164199 2.0287008 -1.2056878 0
-4.0105085 2.0088665 -1.2018846 0
-4.0193601 1.9964709 -1.2025245 0
-4.0237131 1.9818418 -1.2018321 0
-4.0230699 1.9647917 -1.1996655 0
-4.0295415 1.9512467 -1.1996378 0
-4.0306711 1.9351379 -1.1980357 0
-4.0726085 1.9384969 -1.2085623 0
-4.0686975 1.9199296 -1.2054844 0
-4.0687585 1.9033053 -1.2036051 0
-4.0555844 1.8805954 -1.197836 0
-4.0699968 1.8707242 -1.2002336 0
-4.10567 1.8704727 -1.2088972 0
-4.06496 1.8354931 -1.1950917 0
-4.0824246 1.8269255 -1.1984186 0
-4.0937719 1.8155537 -1.1999559 0
-4.1015358 1.8025647 -1.2004534 0
-4.1094685 1.7896358 -1.2010123 0
-4.1150942 1.7756958 -1.2009097 0
-4.1000428 1.7529182 -1.1947955 0
-4.1244211 1.7470081 -1.2001859 0
-4.1129665 1.7259148 -1.1951619 0
-4.1234326 1.7140701 -1.1965265 0
-4.1361265 1.7031053 -1.1985463 0
-4.1670775 1.6995322 -1.2058573 0
-4.1617732 1.6811161 -1.2026844 0
-4.1580629 1.6634232 -1.1999936 0
-4.1615849 1.6486677 -1.1994081 0
-4.1712561 1.6363401 -1.2006075 0
-4.1806345 1.6238663 -1.201733 0
-4.1856651 1.6096903 -1.2016209 0
-4.1811919 1.5918987 -1.1987978 0
-4.1998982 1.5829184 -1.2026327 0
-4.1887631 1.5627028 -1.1979371 0
-4.193871 1.54861 -1.1979064 0
-4.1929073 1.5322989 -1.1961569 0
-4.2102489 1.5226544 -1.1996409 0
-4.207541 1.5057422 -1.1974242 0
-4.2305632 1.4979993 -1.2025399 0
-4.2030034 1.4724007 -1.1932961 0
-4.2555633 1.474813 -1.2068079 0
-4.248961 1.4565864 -1.2035439 0
-4.2383995 1.4371034 -1.1991807 0
-4.2345185 1.4199755 -1.1967288 0
-4.261189 1.4130433 -1.2029206 0
-4.2431898 1.391301 -1.1965159 0
-4.2523513 1.3785321 -1.1977892 0
-4.2603469 1.365356 -1.1987453 0
-4.2525163 1.3471408 -1.1952642 0
-4.2740054 1.3381969 -1.2000364 0
-4.2514367 1.3154953 -1.1924546 0
-4.2962437 1.3135923 -1.2037802 0
-4.2681479 1.2893697 -1.1946899 0
-4.2750807 1.2758383 -1.1954263 0
-4.292603 1.265409 -1.1991329 0
-4.3008494 1.2521824 -1.2002571 0
-4.2932405 1.2343675 -1.1969718 0
-4.2978663 1.2201114 -1.1971143 0
-4.3105755 1.2081167 -1.1995192 0
-4.3170643 1.1943387 -1.2002039 0
-4.2956781 1.1729314 -1.1931581 0
-4.336638 1.1685057 -1.2034401 0
-4.3259978 1.1500953 -1.1994106 0
-4.3167853 1.1321635 -1.1957971 0
-4.3384624 1.1223158 -1.2007529 0
-4.3415365 1.1075939 -1.2005692 0
-4.3341527 1.090246 -1.1975096 0
-4.3264108 1.0728878 -1.19437 0
-4.3460231 1.0622966 -1.1987942 0
-4.3369384 1.0446789 -1.1953155 0
-4.3751111 1.0383663 -1.20487 0
-4.3840303 1.0249687 -1.2063732 0
-4.3734279 1.0070372 -1.2025198 0
-4.3712602 0.9911167 -1.2010033 0
-4.3580804 0.97277695 -1.1964793 0
-4.3737149 0.96088344 -1.1998805 0
-4.385488 0.94806772 -1.2022315 0
-4.3769193 0.93086553 -1.1990201 0
-4.3838425 0.91698575 -1.2000676 0
-4.3984909 0.90466797 -1.2032405 0
-4.4021988 0.89005703 -1.2034318 0
-4.4113579 0.87652415 -1.2051255 0
-4.3968248 0.85832286 -1.2003623 0
-4.4154353 0.84659755 -1.2046614 0
-4.3956423 0.82753271 -1.1984975 0
-4.393436 0.81187433 -1.197147 0
-4.3929334 0.79655921 -1.1962756 0
-4.4262891 0.78728831 -1.2046335 0
-4.4320149 0.77298599 -1.2054796 0
-4.3967233 0.75164974 -1.1951883 0
-4.4149895 0.73954588 -1.199473 0
-4.4326906 0.72724044 -1.2036128 0
-4.4272623 0.71111482 -1.2014847 0
-4.4135933 0.69374764 -1.1971371 0
-4.4376993 0.68229836 -1.2030485 0
-4.4411616 0.66759604 -1.2033734 0
-4.4216709 0.64951378 -1.1974955 0
-4.4360113 0.6364336 -1.2007946 0
-4.4242134 0.6196093 -1.197032 0
-4.433496 0.6057601 -1.1989872 0
-4.4399962 0.59149075 -1.200202 0
-4.4361172 0.57584321 -1.1986248 0
-4.435133 0.56060123 -1.1978443 0
-4.4586787 0.54839581 -1.2037001 0
-4.46312 0.53375787 -1.2044092 0
-4.4273276 0.51442701 -1.1942782 0
-4.4643831 0.50356811 -1.2038118 0
-4.4355521 0.48526087 -1.195592 0
-4.4549041 0.47226831 -1.200375 0
-4.4186563 0.45344946 -1.1901915 0
-4.4296112 0.43957067 -1.1927387 0
-4.4702301 0.428471 -1.2032824 0
-4.4531293 0.41176897 -1.1983008 0
-4.4550009 0.39688215 -1.1984396 0
-4.4890237 0.38474727 -1.2072383 0
-4.4889636 0.36958516 -1.2068821 0
-4.489408 0.35447168 -1.2066752 0
-4.4648433 0.33747292 -1.1997617 0
-4.4836392 0.32377866 -1.204514 0
-4.4672599 0.30754343 -1.1998301 0
-4.4743791 0.2929641 -1.2014716 0
-4.4470172 0.27620181 -1.1938689 0
-4.4709892 0.26264554 -1.2000613 0
-4.4957213 0.24897599 -1.2064688 0
-4.4740882 0.23273388 -1.2004473 0
-4.4898267 0.21846084 -1.2044669 0
-4.4891572 0.20334369 -1.2040975 0
-4.4510856 0.1866671 -1.1937113 0
-4.4907436 0.1732492 -1.2041844 0
-4.4695563 0.15742579 -1.1983548 0
-4.4847045 0.142906 -1.202281 0
-4.4890289 0.12797917 -1.2033186 0
-4.5004277 0.11320416 -1.2062656 0
-4.4699893 0.097443163 -1.1980127 0
-4.4769583 0.082578577 -1.1997995 0
-4.4945302 0.067829102 -1.204441 0
-4.4670854 0.052434888 -1.1970325 0
-4.4728889 0.037504699 -1.1985472 0
-4.4602952 0.022443859 -1.1951457 0
-4.4523535 0.0074757859 -1.1930044 0
-4.4625306 1.1841726e-05 -1.1957296 0
-5.2137766 -0.0087542636 -1.2036951 0
-5.1789351 -0.026059998 -1.1956646 0
-5.2121263 -0.043703124 -1.2033546 0
-5.1976252 -0.061010007 -1.2000471 0
-5.1911368 -0.078341931 -1.198603 0
-5.2087288 -0.096076258 -1.2027324 0
-5.1695342 -0.11269284 -1.1937627 0
-5.1982088 -0.1307562 -1.2004788 0
-5.1958117 -0.14812906 -1.2000332 0
-5.1683683 -0.16469108 -1.1938156 0
-5.1848354 -0.18261918 -1.1977539 0
-5.2114172 -0.20105219 -1.2040436 0
-5.1896501 -0.21764059 -1.1991764 0
-5.1986585 -0.23548171 -1.2014337 0
-5.2167525 -0.25383073 -1.2058052 0
-5.1805711 -0.2694838 -1.1976444 0
-5.1657825 -0.28608441 -1.1944405 0
-5.169034 -0.30365178 -1.1954211 0
-5.1887493 -0.32227039 -1.2002237 0
-5.1961045 -0.34021974 -1.2021821 0
-5.2202387 -0.35938144 -1.2080379 0
-5.1860938 -0.37450528 -1.20042 0
-5.1663289 -0.39049435 -1.1961414 0
-5.1708198 -0.40827414 -1.1974913 0
-5.2018361 -0.42827737 -1.2050002 0
-5.1965528 -0.44538847 -1.2041153 0
-5.1615262 -0.45982426 -1.1963497 0
-5.2019796 -0.48101318 -1.2060932 0
-5.1550498 -0.49411085 -1.1955897 0
-5.1686773 -0.51291162 -1.1991423 0
-5.1729035 -0.53085148 -1.2005291 0
-5.1683798 -0.54790449 -1.1998988 0
-5.1619015 -0.5647254 -1.1988276 0
-5.1502147 -0.58092773 -1.1965591 0
-5.1723981 -0.60099936 -1.2021743 0
-5.1735725 -0.61872303 -1.2029227 0
-5.1679201 -0.63562906 -1.2020972 0
-5.150547 -0.65102959 -1.198557 0
-5.1387658 -0.66705257 -1.1963292 0
-5.1257443 -0.68284523 -1.1938241 0
-5.1419158 -0.70255333 -1.1981324 0
-5.1626778 -0.72303092 -1.2035284 0
-5.1391153 -0.73730779 -1.1986049 0
-5.1535621 -0.75702363 -1.2025597 0
-5.166821 -0.77667731 -1.2062545 0
-5.1444316 -0.79095876 -1.2016398 0
-5.1299453 -0.80634701 -1.1988808 0
-5.1432672 -0.82612079 -1.2026347 0
-5.1249528 -0.84081507 -1.1990048 0
-5.1339669 -0.85998034 -1.2017815 0
-5.1150451 -0.87445182 -1.1980318 0
-5.1123614 -0.89164495 -1.1980966 0
-5.1168661 -0.91011876 -1.1998607 0
-5.1285744 -0.92995107 -1.2033305 0
-5.0915265 -0.94087636 -1.1953714 0
-5.0986543 -0.95988315 -1.1977937 0
-5.1066265 -0.97912365 -1.200431 0
-5.1111307 -0.99776554 -1.2022696 0
-5.0923414 -1.0118335 -1.1986409 0
-5.1214628 -1.0354811 -1.206306 0
-5.0855098 -1.0459719 -1.1986569 0
-5.0991096 -1.066601 -1.2026986 0
-5.0776448 -1.079893 -1.1984831 0
-5.0506721 -1.0918691 -1.192974 0
-5.0411558 -1.1075168 -1.1915966 0
-5.0604196 -1.1295477 -1.1970387 0
-5.0940886 -1.155007 -1.2059122 0
-5.0675893 -1.1668766 -1.2005585 0
-5.0500474 -1.1806808 -1.1973338 0
-5.0640531 -1.2018763 -1.2016031 0
-5.0258131 -1.2106147 -1.1934859 0
-5.0641866 -1.2378371 -1.2035773 0
-5.0571318 -1.2540963 -1.2028933 0
-5.0372405 -1.2671059 -1.1991656 0
-5.0473666 -1.2876621 -1.2025973 0
-5.0096984 -1.2959576 -1.1946509 0
-5.0406179 -1.3220031 -1.2030745 0
-5.0409245 -1.3401634 -1.2042133 0
-4.9966645 -1.3463496 -1.1947118 0
-5.0079141 -1.3674067 -1.198491 0
-5.0303869 -1.3916831 -1.2049792 0
-5.0029273 -1.4021609 -1.1995208 0
-5.0000381 -1.4194492 -1.1999625 0
-5.0138874 -1.4415637 -1.2044393 0
-5.0093846 -1.4584707 -1.2045256 0
-4.9788003 -1.4676918 -1.1983479 0
-4.9828529 -1.4870629 -1.2005167 0
-4.9934044 -1.5084634 -1.2042707 0
-4.9574757 -1.5157665 -1.1968247 0
-4.9853592 -1.5425882 -1.204798 0
-4.9421134 -1.5473825 -1.1955941 0
-4.9713416 -1.5748552 -1.2039355 0
-4.963913 -1.5908346 -1.2034214 0
-4.9620538 -1.6086043 -1.2042714 0
-4.9223847 -1.6140025 -1.1959505 0
-4.9076815 -1.6274252 -1.1936972 0
-4.9404325 -1.6566921 -1.2030076 0
-4.9246116 -1.6697755 -1.2005116 0
-4.9263163 -1.6887906 -1.2023008 0
-4.9241099 -1.7065053 -1.2031519 0
-4.8996358 -1.7164457 -1.1985714 0
-4.90873 -1.7381313 -1.202215 0
-4.8969436 -1.7524569 -1.2007605 0
-4.9121761 -1.7765094 -1.2059494 0
-4.8558908 -1.7745863 -1.1935852 0
-4.8728509 -1.7993269 -1.1992301 0
-4.8342423 -1.8035117 -1.1912099 0
-4.849402 -1.8277128 -1.1964487 0
-4.8396854 -1.8426057 -1.1955689 0
-4.8654251 -1.8711069 -1.2034705 0
-4.8134589 -1.8696718 -1.1921605 0
-4.8348908 -1.8966771 -1.1990368 0
-4.8289204 -1.9130417 -1.1991401 0
-4.8173089 -1.9271531 -1.1978545 0
-4.832787 -1.9521669 -1.203324 0
-4.8307915 -1.9702259 -1.204465 0
-4.8022451 -1.9773885 -1.1989939 0
-4.8143554 -2.0012798 -1.203686 0
-4.7814951 -2.006448 -1.1971456 0
-4.7650537 -2.0183649 -1.1947167 0
-4.7872763 -2.0467355 -1.2020023 0
-4.7906566 -2.0672064 -1.2045845 0
-4.7526283 -2.069726 -1.1967607 0
-4.7739758 -2.0980923 -1.2039007 0
-4.7700014 -2.1154559 -1.2046804 0
-4.7492275 -2.1253264 -1.2012267 0
-4.7353263 -2.1381905 -1.1995173 0
-4.7372046 -2.1581891 -1.2018193 0
-4.7128735 -2.1662145 -1.1974823 0
-4.7199917 -2.1886845 -1.2011489 0
-4.70225 -2.1996434 -1.198504 0
-4.707705 -2.2214634 -1.201786 0
-4.7079587 -2.2409136 -1.2037621 0
-4.7040195 -2.2584145 -1.204684 0
-4.6783714 -2.2654333 -1.2000542 0
-4.6653624 -2.278475 -1.19867 0
-4.6496758 -2.290154 -1.1966059 0
-4.6617131 -2.3155363 -1.2016948 0
-4.631012 -2.3196769 -1.1957788 0
-4.6338735 -2.3405776 -1.1985373 0
-4.616683 -2.3513558 -1.1961235 0
-4.6364779 -2.3810489 -1.2033137 0
-4.6106162 -2.387337 -1.1986723 0
-4.6035542 -2.4032876 -1.1989245 0
-4.6001372 -2.4211652 -1.200142 0
-4.5913305 -2.436223 -1.1999687 0
-4.5882149 -2.4543197 -1.2012984 0
-4.5663505 -2.4623504 -1.1977285 0
-4.5400147 -2.4678328 -1.1929845 0
-4.5391154 -2.4870958 -1.1949327 0
-4.548893 -2.51232 -1.1997173 0
-4.5474844 -2.5314767 -1.2015777 0
-4.5494032 -2.5525625 -1.2043391 0
-4.5181417 -2.5549774 -1.1983246 0
-4.505115 -2.5675838 -1.1971459 0
-4.5092378 -2.5900013 -1.2005423 0
-4.4724889 -2.5888748 -1.1930627 0
-4.5139961 -2.633146 -1.2064831 0
-4.4892497 -2.6389236 -1.202227 0
-4.4522943 -2.6373258 -1.1946917 0
-4.4425888 -2.6517384 -1.1944665 0
-4.459826 -2.6823483 -1.2015122 0
-4.4589233 -2.7022045 -1.203703 0
-4.4222531 -2.7002954 -1.1962411 0
-4.4208689 -2.7198408 -1.1983267 0
-4.4090128 -2.7329667 -1.1975901 0
-4.4243202 -2.7630315 -1.2042575 0
-4.4027934 -2.7701502 -1.2009194 0
-4.4057345 -2.7926633 -1.2042688 0
-4.3865004 -2.8011317 -1.2015717 0
-4.3656368 -2.8084588 -1.1984292 0
-4.36233 -2.8270555 -1.2001168 0
-4.3607097 -2.8468118 -1.2022902 0
-4.3334627 -2.8497913 -1.1974056 0
-4.3681731 -2.8936434 -1.2096705 0
-4.3274646 -2.8875992 -1.2010715 0
-4.3261051 -2.9077024 -1.2033933 0
-4.3150253 -2.9213061 -1.2030292 0
-4.2959743 -2.9294617 -1.2004493 0
-4.2692723 -2.9322715 -1.1957283 0
-4.2628856 -2.9489686 -1.196702 0
-4.2705231 -2.9754717 -1.2016399 0
-4.2596769 -2.9891796 -1.2014014 0
-4.2460003 -3.0008788 -1.2003748 0
-4.2505255 -3.0254974 -1.2045152 0
-4.2369447 -3.0372853 -1.2035458 0
-4.1992459 -3.0316265 -1.1957177 0
-4.2067666 -3.0585639 -1.2007724 0
-4.1820731 -3.0620966 -1.1966476 0
-4.1767149 -3.0797379 -1.1980625 0
-4.1847744 -3.1073933 -1.2033559 0
-4.1656628 -3.114924 -1.2008567 0
-4.1552091 -3.1288834 -1.2008606 0
-4.140543 -3.1396489 -1.1996576 0
-4.1558986 -3.1732941 -1.2071824 0
-4.1019659 -3.1539407 -1.1945814 0
-4.1173849 -3.1878192 -1.2021776 0
-4.0904169 -3.1889322 -1.1974187 0
-4.1016083 -3.2198253 -1.2038482 0
-4.0593729 -3.2087259 -1.1946028 0
-4.0601382 -3.231508 -1.1980098 0
-4.0474744 -3.2436552 -1.1974754 0
-4.0304308 -3.2522485 -1.1956524 0
-4.0376496 -3.2804861 -1.2010499 0
-4.0175672 -3.2865927 -1.1983472 0
-4.0110397 -3.3037629 -1.1996975 0
-4.0005407 -3.3176906 -1.1998776 0
-3.9907572 -3.3322227 -1.2002875 0
-3.9790339 -3.34514 -1.2001281 0
-3.9649389 -3.3560436 -1.1992638 0
-3.9564128 -3.3716607 -1.2000976 0
-3.9439759 -3.3839545 -1.1997598 0
-3.918891 -3.3853095 -1.195575 0
-3.9190271 -3.4084389 -1.1990963 0
-3.9221678 -3.4343352 -1.2035736 0
-3.8991041 -3.4373045 -1.2000259 0
-3.8929381 -3.4551337 -1.2016869 0
-3.8912086 -3.4769919 -1.2047448 0
-3.8723655 -3.4835746 -1.2025203 0
-3.8584709 -3.4945519 -1.2018371 0
-3.8415182 -3.5027144 -1.2002079 0
-3.8299241 -3.515732 -1.2002617 0
-3.805609 -3.5169957 -1.1963303 0
-3.817359 -3.5516586 -1.2037607 0
-3.7746053 -3.5355654 -1.1940101 0
-3.7950923 -3.5787184 -1.2042795 0
-3.7622118 -3.5716188 -1.197639 0
-3.767395 -3.6006315 -1.2031252 0
-3.7394068 -3.5979493 -1.1980329 0
-3.7265151 -3.6096842 -1.1977732 0
-3.7316866 -3.639024 -1.2033504 0
-3.7023416 -3.6347048 -1.1978105 0
-3.6899788 -3.646944 -1.1977602 0
-3.7003014 -3.6817529 -1.205111 0
-3.6799934 -3.6861823 -1.2025155 0
-3.6407504 -3.6714106 -1.1937077 0
-3.6321523 -3.6873853 -1.1949354 0
-3.6386333 -3.7188227 -1.2011629 0
-3.6243715 -3.7291775 -1.2005756 0
-3.6156983 -3.7452967 -1.2018555 0
-3.6025114 -3.756763 -1.2016523 0
-3.5749128 -3.7530909 -1.196637 0
-3.5747092 -3.7781615 -1.2008024 0
-3.5481782 -3.7753959 -1.1961356 0
-3.5597413 -3.8132384 -1.2043369 0
-3.5392082 -3.816818 -1.201713 0
-3.5456638 -3.8495872 -1.2082806 0
-3.5174818 -3.844779 -1.203063 0
-3.4833786 -3.8332298 -1.1957879 0
-3.4860997 -3.8621621 -1.2011606 0
-3.4801505 -3.8816581 -1.2035881 0
-3.4643166 -3.8901606 -1.2026162 0
-3.4426148 -3.8919866 -1.1996057 0
-3.4227686 -3.895793 -1.197235 0
-3.405827 -3.902823 -1.1958795 0
-3.4132686 -3.9379246 -1.2031217 0
-3.3910911 -3.9389446 -1.1999528 0
-3.3828757 -3.956151 -1.2017326 0
-3.3686647 -3.9663789 -1.2014018 0
-3.3571553 -3.9797945 -1.2020493 0
-3.3346868 -3.980159 -1.1987756 0
-3.3313026 -4.0033097 -1.2023776 0
-3.3237169 -4.0215411 -1.2044995 0
-3.2991712 -4.0192084 -1.2004809 0
-3.276793 -4.0193501 -1.197235 0
-3.2746966 -4.0443916 -1.2014169 0
-3.2491744 -4.0404954 -1.1970166 0
-3.2453001 -4.0635009 -1.2006018 0
-3.2233825 -4.0639257 -1.1975274 0
-3.2191932 -4.0867128 -1.2010548 0
-3.2027621 -4.0940175 -1.200039 0
-3.1775193 -4.0899329 -1.1957122 0
-3.1745496 -4.1145105 -1.1997792 0
-3.1552937 -4.1180277 -1.1977131 0
-3.139544 -4.1260533 -1.1969792 0
-3.1236172 -4.13381 -1.1961844 0
-3.1244349 -4.1638436 -1.2018369 0
-3.1154282 -4.1809678 -1.2037579 0
-3.1104214 -4.2035918 -1.2072623 0
-3.0739644 -4.1835847 -1.1985496 0
-3.0659597 -4.2021451 -1.2009152 0
-3.0395505 -4.1954198 -1.196074 0
-3.0367606 -4.2212858 -1.2005386 0
-3.0292859 -4.2408171 -1.2031981 0
-3.0061479 -4.2383986 -1.1996455 0
-2.9937816 -4.2510962 -1.2003918 0
-2.9688551 -4.2458696 -1.1960984 0
-2.9524374 -4.2526808 -1.1952218 0
-2.9579628 -4.2912817 -1.2032765 0
-2.9280798 -4.2785573 -1.1969491 0
-2.9143856 -4.2893333 -1.1972233 0
-2.8984745 -4.2968369 -1.1965984 0
-2.8836017 -4.3058586 -1.1964117 0
-2.8676279 -4.3132153 -1.1957777 0
-2.8582535 -4.3305368 -1.1979163 0
-2.8485925 -4.3475356 -1.1999698 0
-2.8240008 -4.3416891 -1.1957359 0
-2.8128276 -4.3563981 -1.1971828 0
-2.803201 -4.3735981 -1.19932 0
-2.7837906 -4.3755364 -1.1972853 0
