# .PCD v0.7 - Point Cloud Data file format
VERSION 0.7
FIELDS x y z intensity
SIZE 4 4 4 4
TYPE F F F F
COUNT 1 1 1 1
WIDTH 1419
HEIGHT 1
VIEWPOINT 0 0 0 1 0 0 0
POINTS 1419
DATA ascii
-2.6818407 -7.0797272 -1.199072 0
-2.6613662 -7.0974197 -1.2005506 0
-2.6431386 -7.1213465 -1.2030921 0
-2.6132243 -7.1137733 -1.2003256 0
-2.5837586 -7.107091 -1.1977297 0
-2.5753722 -7.158679 -1.2049617 0
-2.5376875 -7.1288757 -1.1985062 0
-2.5246084 -7.1681132 -1.203673 0
-2.4905145 -7.1477051 -1.198837 0
-2.4720609 -7.1720452 -1.2015226 0
-2.4431026 -7.1659269 -1.1991186 0
-2.4225597 -7.1844482 -1.200852 0
-2.3926609 -7.1751456 -1.1979495 0
-2.3746426 -7.2014813 -1.2010103 0
-2.3561132 -7.2266684 -1.2038867 0
-2.3286097 -7.224412 -1.2022034 0
-2.294596 -7.201489 -1.1971018 0
-2.2760701 -7.2270255 -1.2000715 0
-2.249253 -7.2263479 -1.1987 0
-2.2265737 -7.2389269 -1.1995414 0
-2.2026999 -7.2476988 -1.1997645 0
-2.1759479 -7.2469192 -1.198421 0
-2.159966 -7.2822504 -1.2030593 0
-2.1305561 -7.2724471 -1.2002529 0
-2.1048715 -7.2750926 -1.1995181 0
-2.082696 -7.2899089 -1.2008029 0
-2.0599904 -7.3030467 -1.2018225 0
-2.0397201 -7.3250923 -1.2043183 0
-2.0037076 -7.2902622 -1.1974807 0
-1.9812157 -7.3041735 -1.1986678 0
-1.9550679 -7.3046207 -1.1976587 0
-1.9375157 -7.3374538 -1.2019702 0
-1.9096332 -7.3313532 -1.1999152 0
-1.8818721 -7.325376 -1.1978974 0
-1.8615556 -7.3484397 -1.2006416 0
-1.8361119 -7.3514557 -1.2001218 0
-1.813347 -7.3652611 -1.2013762 0
-1.792442 -7.3869581 -1.2039282 0
-1.7598349 -7.3601789 -1.1985954 0
-1.7390279 -7.3825102 -1.2012757 0
-1.7136154 -7.3854952 -1.2008198 0
-1.6813551 -7.3584261 -1.1954954 0
-1.6623166 -7.3891025 -1.199567 0
-1.6413385 -7.4118185 -1.2023547 0
-1.611886 -7.3962059 -1.1989385 0
-1.5853084 -7.393312 -1.197601 0
-1.5648952 -7.4193711 -1.2009655 0
-1.5419184 -7.433774 -1.2024534 0
-1.5171824 -7.4398661 -1.2026092 0
-1.4877537 -7.4225817 -1.1990021 0
-1.4608369 -7.4172616 -1.1973449 0
-1.445855 -7.4732628 -1.2055956 0
-1.4151412 -7.4483352 -1.2008021 0
-1.3842452 -7.4213243 -1.1956925 0
-1.3663805 -7.4643025 -1.2018721 0
-1.3412683 -7.4684067 -1.2018021 0
-1.312247 -7.4503016 -1.198174 0
-1.2877256 -7.4573545 -1.1986072 0
-1.2656175 -7.4787803 -1.2013621 0
-1.2388364 -7.472733 -1.1997167 0
-1.2153282 -7.4864135 -1.2012521 0
-1.186569 -7.467464 -1.1975664 0
-1.1629962 -7.4808617 -1.199083 0
-1.1349729 -7.465415 -1.1959904 0
-1.1116227 -7.480525 -1.1978073 0
-1.0875984 -7.4915314 -1.198979 0
-1.0648204 -7.5116839 -1.2016262 0
-1.0391294 -7.5115986 -1.2010484 0
-1.0112505 -7.4951177 -1.1978644 0
-0.98638797 -7.5005407 -1.1981958 0
-0.96175969 -7.5079055 -1.1988504 0
-0.93662006 -7.5113955 -1.1988995 0
-0.91512591 -7.544961 -1.2037605 0
-0.8885057 -7.5368052 -1.2019773 0
-0.86228722 -7.531496 -1.2006627 0
-0.8356263 -7.5217037 -1.1986482 0
-0.81242782 -7.5432653 -1.2016435 0
-0.78571558 -7.5323672 -1.199481 0
-0.76264071 -7.556601 -1.202926 0
-0.73794758 -7.5657492 -1.2039818 0
-0.71149808 -7.5567226 -1.2021589 0
-0.68574882 -7.5545602 -1.2014424 0
-0.65990585 -7.5509801 -1.2005144 0
-0.63440603 -7.5510182 -1.2001755 0
-0.60943139 -7.5573945 -1.2008575 0
-0.58222204 -7.5352263 -1.1970181 0
-0.55948687 -7.5714049 -1.2024605 0
-0.53318077 -7.5602298 -1.2003951 0
-0.50724053 -7.5532012 -1.1990023 0
-0.48265541 -7.566494 -1.2008488 0
-0.45647201 -7.554637 -1.1987174 0
-0.43193287 -7.5700173 -1.2009213 0
-0.40692317 -7.5783806 -1.2020248 0
-0.38112578 -7.5720286 -1.2008079 0
-0.35707471 -7.6017628 -1.2053267 0
-0.32894856 -7.5424566 -1.1957415 0
-0.30305377 -7.5284996 -1.193361 0
-0.27934879 -7.5711675 -1.1999693 0
-0.25415021 -7.5776577 -1.2008561 0
-0.22844806 -7.568718 -1.1993113 0
-0.20410126 -7.6078706 -1.2054001 0
-0.1773586 -7.5559506 -1.1970729 0
-0.15250506 -7.5804176 -1.2008613 0
-0.12716362 -7.5853682 -1.2015712 0
-0.10154912 -7.5722194 -1.1994277 0
-0.076320633 -7.5884562 -1.2019523 0
-0.05082098 -7.5802331 -1.2006161 0
-0.025325263 -7.5563889 -1.1968193 0
1.0089963e-05 -7.6047649 -1.2044747 0
0.025445562 -7.5862765 -1.2015531 0
0.05081322 -7.576077 -1.1999578 0
0.076268271 -7.5812492 -1.2008109 0
0.10169145 -7.5813327 -1.2008713 0
0.12706988 -7.5785761 -1.2004954 0
0.15202358 -7.5554886 -1.1969123 0
0.17765072 -7.5675397 -1.1989089 0
0.20365311 -7.5904145 -1.2026343 0
0.22816403 -7.5586429 -1.1977149 0
0.25308153 -7.5451965 -1.195712 0
0.2791256 -7.5645738 -1.1989243 0
0.3050335 -7.5771804 -1.2010777 0
0.32999611 -7.5660143 -1.1994764 0
0.35581529 -7.574522 -1.2010076 0
0.38182893 -7.5855975 -1.2029599 0
0.40637714 -7.5678363 -1.2003525 0
0.43298286 -7.5880656 -1.2037847 0
0.45692578 -7.5618134 -1.1998563 0
0.48318708 -7.5745125 -1.2021216 0
0.50764102 -7.5588646 -1.1999016 0
0.53244263 -7.5494776 -1.198688 0
0.55879349 -7.561749 -1.2009273 0
0.58443159 -7.5635619 -1.2015196 0
0.60923654 -7.5547276 -1.200434 0
0.63282371 -7.5319452 -1.1971443 0
0.65756243 -7.5239348 -1.1962148 0
0.68751568 -7.5738015 -1.2045027 0
0.71123302 -7.5536928 -1.2016772 0
0.73544794 -7.5399146 -1.1998708 0
0.76199704 -7.5500231 -1.2018793 0
0.78541636 -7.5293055 -1.1989937 0
0.81313837 -7.5496745 -1.2026647 0
0.83700842 -7.5339622 -1.2006021 0
0.86196244 -7.5284829 -1.2001827 0
0.88729024 -7.5263228 -1.2003059 0
0.91187799 -7.5180159 -1.1994619 0
0.93859309 -7.5270557 -1.2013994 0
0.96455681 -7.5295825 -1.2023122 0
0.98733544 -7.5075908 -1.1993225 0
1.01262 -7.5051174 -1.199463 0
1.0411966 -7.5263953 -1.2034148 0
1.0623742 -7.4942842 -1.1988432 0
1.0880169 -7.4942737 -1.1994183 0
1.1094074 -7.4654822 -1.195399 0
1.1393239 -7.4939008 -1.2005544 0
1.1659354 -7.4996362 -1.2020928 0
1.1867702 -7.4686027 -1.1977495 0
1.2104466 -7.4562178 -1.1964076 0
1.2402916 -7.4813876 -1.2011068 0
1.2626359 -7.461041 -1.198513 0
1.2922868 -7.4836502 -1.2028341 0
1.3147997 -7.4646783 -1.2004867 0
1.3421315 -7.4730988 -1.2025578 0
1.3614084 -7.4370289 -1.1974813 0
1.389433 -7.4490285 -1.2001567 0
1.4180697 -7.4636402 -1.2032702 0
1.4375454 -7.4302073 -1.1986505 0
1.459549 -7.4106188 -1.1962732 0
1.4851383 -7.409431 -1.1968786 0
1.5134761 -7.4215913 -1.1996558 0
1.534306 -7.396975 -1.1965015 0
1.5665215 -7.4269843 -1.2021985 0
1.584658 -7.390183 -1.1970948 0
1.608611 -7.381084 -1.1964879 0
1.6400298 -7.4058161 -1.2013816 0
1.6641064 -7.3969665 -1.2008443 0
1.6818265 -7.3603988 -1.1958165 0
1.7054919 -7.3503957 -1.1951137 0
1.7379657 -7.377913 -1.2005285 0
1.7557293 -7.3429222 -1.1957859 0
1.7859449 -7.3600974 -1.1995512 0
1.8083526 -7.3448911 -1.1980544 0
1.8364236 -7.3526206 -1.2003129 0
1.8535007 -7.3165617 -1.195434 0
1.888656 -7.3517022 -1.2022034 0
1.9073126 -7.3223643 -1.1984448 0
1.9359721 -7.3315296 -1.2010006 0
1.9618897 -7.3300309 -1.2018259 0
1.9820402 -7.3071365 -1.1991549 0
2.004643 -7.2935896 -1.1980281 0
2.0323343 -7.2984943 -1.1999462 0
2.0588155 -7.2988081 -1.2011259 0
2.0796807 -7.2792816 -1.1990533 0
2.0998907 -7.2578058 -1.1966687 0
2.1279163 -7.2633653 -1.198755 0
2.155009 -7.2654681 -1.2002878 0
2.1706519 -7.2292113 -1.1954937 0
2.2001414 -7.2392116 -1.1983606 0
2.2211049 -7.2210784 -1.1965848 0
2.2499809 -7.2286196 -1.1990777 0
2.2745452 -7.2221169 -1.1992574 0
2.2977693 -7.2113824 -1.1987474 0
2.3251743 -7.2136884 -1.2004199 0
2.3444831 -7.1909323 -1.1979345 0
2.3714941 -7.1918693 -1.1994084 0
2.3895402 -7.1657248 -1.1963776 0
2.4218526 -7.1822886 -1.200492 0
2.4443688 -7.1695786 -1.1997308 0
2.4667456 -7.1565623 -1.1989299 0
2.4883754 -7.1415048 -1.1977983 0
2.5204487 -7.1562424 -1.2016808 0
2.5344715 -7.119782 -1.1969784 0
2.5615101 -7.1200871 -1.198467 0
2.5908566 -7.1265564 -1.2010112 0
2.6053491 -7.0922766 -1.1966996 0
2.6451464 -7.126698 -1.2039974 0
2.6669793 -7.1123314 -1.2030741 0
2.6886778 -7.0977192 -1.2021205 0
2.7094688 -7.0808477 -1.2007949 0
2.7335441 -7.0726285 -1.2009485 0
2.7611012 -7.0733109 -1.2026296 0
2.774971 -7.0390773 -1.1983843 0
2.8046522 -7.0450473 -1.2009947 0
2.8168352 -7.0071907 -1.1961445 0
2.8469472 -7.014051 -1.1989383 0
2.8769517 -7.0203366 -1.2016548 0
2.9019508 -7.0142226 -1.2022669 0
2.9253211 -7.0041404 -1.2022132 0
2.9497101 -6.9964795 -1.2025889 0
2.9668703 -6.9717908 -1.2000484 0
2.9913166 -6.9643369 -1.200485 0
3.0168362 -6.959312 -1.2013556 0
3.038202 -6.9446998 -1.2005849 0
3.0461206 -6.8997083 -1.1945658 0
3.0867038 -6.9286637 -1.2013639 0
3.1020548 -6.9007854 -1.1983268 0
3.1263618 -6.8929644 -1.1987821 0
3.1530066 -6.8902044 -1.2001339 0
3.1836989 -6.8960748 -1.2030089 0
3.2071869 -6.8861876 -1.2031533 0
3.2296438 -6.8740907 -1.2029248 0
3.252913 -6.86373 -1.2030135 0
3.2651737 -6.8303308 -1.1990718 0
3.2899251 -6.8232212 -1.1997534 0
3.3224165 -6.8319607 -1.2032419 0
3.3495657 -6.8294721 -1.2047749 0
3.367871 -6.8089561 -1.2031409 0
3.3784192 -6.7730427 -1.1987897 0
3.4151824 -6.7896566 -1.2037503 0
3.4378576 -6.7780299 -1.2037257 0
3.4542909 -6.7542005 -1.2015438 0
3.4654229 -6.7202907 -1.1975716 0
3.4853783 -6.7037163 -1.1966938 0
3.5175958 -6.7106133 -1.2000237 0
3.5313613 -6.6822925 -1.1970698 0
3.5623233 -6.6865149 -1.199959 0
3.593987 -6.6917844 -1.2030604 0
3.6107247 -6.6692085 -1.2011714 0
3.6193619 -6.6319561 -1.1966408 0
3.6473825 -6.6303368 -1.1985484 0
3.6693122 -6.6175652 -1.198457 0
3.6951814 -6.6118503 -1.199659 0
3.7102406 -6.5868402 -1.1973715 0
3.7320559 -6.573926 -1.1972919 0
3.7573814 -6.5671535 -1.198346 0
3.7897303 -6.5724711 -1.2016282 0
3.8004861 -6.5403519 -1.1980789 0
3.8209603 -6.5251255 -1.1976297 0
3.8542135 -6.5315924 -1.2011817 0
3.8767407 -6.5197253 -1.2013829 0
3.9002717 -6.5095172 -1.2019048 0
3.9146113 -6.4840412 -1.1996175 0
3.9208047 -6.4453592 -1.1948864 0
3.9560759 -6.4545021 -1.1990336 0
3.9689317 -6.427012 -1.1963922 0
3.988364 -6.4103036 -1.1957644 0
4.0145488 -6.4044166 -1.1971704 0
4.0347061 -6.3888731 -1.1967869 0
4.0543294 -6.3725204 -1.1962633 0
4.0765362 -6.3602386 -1.1965168 0
4.112834 -6.36976 -1.2008954 0
4.1359334 -6.3586497 -1.2014084 0
4.151803 -6.3364654 -1.1998402 0
4.1808457 -6.3343587 -1.2020888 0
4.2105742 -6.3331118 -1.2045245 0
4.202148 -6.2747054 -1.1960889 0
4.2473178 -6.2963905 -1.2029303 0
4.2632899 -6.2745872 -1.2014889 0
4.2864246 -6.2633576 -1.2020837 0
4.3002138 -6.2385244 -1.200078 0
4.3114257 -6.2101278 -1.1973896 0
4.3336568 -6.1976881 -1.1977859 0
4.3611693 -6.192719 -1.1996447 0
4.3797317 -6.174993 -1.1990489 0
4.4142561 -6.1796565 -1.2028215 0
4.4271917 -6.154037 -1.2007172 0
4.4459743 -6.1366386 -1.2002244 0
4.4621782 -6.1157413 -1.1990565 0
4.5117769 -6.1403756 -1.2068454 0
4.5150723 -6.1018786 -1.2022477 0
4.5251622 -6.0728254 -1.199506 0
4.5551949 -6.0705423 -1.202065 0
4.5660629 -6.0427165 -1.1995797 0
4.5794363 -6.0183568 -1.1977853 0
4.6131053 -6.0206089 -1.201305 0
4.6468248 -6.0226822 -1.2048206 0
4.6372304 -5.9687619 -1.1971376 0
4.6693525 -5.9686937 -1.2002572 0
4.6808672 -5.9422512 -1.198089 0
4.693306 -5.9171205 -1.1961881 0
4.7220168 -5.9124937 -1.1984465 0
4.7412686 -5.8959503 -1.1983087 0
4.7821379 -5.9061141 -1.2036264 0
4.7928796 -5.8789668 -1.2013621 0
4.8227272 -5.8752456 -1.2038993 0
4.8376212 -5.8532624 -1.2027115 0
4.850945 -5.8294702 -1.2011579 0
4.8599644 -5.8006434 -1.1985689 0
4.8747907 -5.7788692 -1.1974403 0
4.9049969 -5.7752767 -1.2000968 0
4.9252224 -5.7598391 -1.2003136 0
4.9511843 -5.7510505 -1.2019348 0
4.9563894 -5.7182088 -1.1985375 0
4.9718513 -5.6973395 -1.1976504 0
5.0170021 -5.7103181 -1.203908 0
4.9923987 -5.6440372 -1.1934563 0
5.0418987 -5.661633 -1.2007449 0
5.0570626 -5.6404696 -1.1998456 0
5.0748301 -5.6222463 -1.1995819 0
5.1084752 -5.6215119 -1.2030728 0
5.1090837 -5.5844479 -1.1987998 0
5.1183968 -5.5571008 -1.1966065 0
5.1414175 -5.5446725 -1.1976355 0
5.178678 -5.5474339 -1.2019757 0
5.1857734 -5.5178294 -1.1993219 0
5.2057405 -5.5019927 -1.1996665 0
5.2052011 -5.4646063 -1.1953133 0
5.228168 -5.4519978 -1.1963829 0
5.2567549 -5.4451451 -1.1987401 0
5.2809134 -5.4335928 -1.200088 0
5.3064175 -5.4233332 -1.2017448 0
5.3158803 -5.3966885 -1.1997833 0
5.3273726 -5.3722076 -1.1983051 0
5.3221917 -5.3311143 -1.1931126 0
5.3583183 -5.3314309 -1.1971973 0
5.3984118 -5.3354239 -1.2021517 0
5.4139771 -5.315043 -1.2016428 0
5.4113507 -5.2769518 -1.1971263 0
5.4523444 -5.2813787 -1.2022709 0
5.4706697 -5.2636924 -1.2024134 0
5.4760871 -5.2336607 -1.1997406 0
5.4851789 -5.207273 -1.1979008 0
5.4955673 -5.1822147 -1.1963681 0
5.4997115 -5.1513963 -1.1935036 0
5.5620184 -5.1748567 -1.2032529 0
5.5616155 -5.1398015 -1.1994311 0
5.5741248 -5.116818 -1.1984222 0
5.5876136 -5.0947857 -1.1976429 0
5.5884585 -5.0613456 -1.19418 0
5.6309772 -5.0655923 -1.1996297 0
5.6432037 -5.0424609 -1.1986258 0
5.6749554 -5.0367165 -1.2017764 0
5.693264 -5.0189419 -1.2020832 0
5.6833458 -4.9764342 -1.1964594 0
5.7262354 -4.9801693 -1.2019666 0
5.7225699 -4.9433799 -1.1977115 0
5.7623372 -4.9440923 -1.2025584 0
5.7729979 -4.9197311 -1.2013341 0
5.7878051 -4.8989463 -1.2009906 0
5.7830024 -4.8616948 -1.1966048 0
5.8413496 -4.8774133 -1.2052873 0
5.8399467 -4.8431034 -1.2016407 0
5.8434334 -4.8130202 -1.1990309 0
5.844398 -4.7810159 -1.1959329 0
5.8934207 -4.7882266 -1.2026725 0
2.1923742 -1.769068 -0.44618565 0
2.1890442 -1.7542953 -0.4443084 0
2.1931555 -1.7455467 -0.4439525 0
2.2068906 -1.7444241 -0.44554639 0
2.1989875 -1.7262294 -0.44277984 0
2.1900222 -1.707355 -0.43981951 0
2.1764178 -1.6850473 -0.43595028 0
2.1906443 -1.6843446 -0.4376663 0
2.1699741 -1.6569047 -0.43242428 0
2.1865113 -1.6579564 -0.43460956 0
2.2152288 -1.668064 -0.43920359 0
2.1827879 -1.6321967 -0.43168426 0
2.1978292 -1.6319834 -0.43357435 0
2.2177148 -1.6352426 -0.4364132 0
2.1971774 -1.6087552 -0.43130788 0
2.189352 -1.5917773 -0.4287217 0
2.2133112 -1.597881 -0.43236187 0
2.2086627 -1.5832874 -0.43041441 0
2.1905186 -1.5591887 -0.42585742 0
2.1693313 -1.5331755 -0.4207367 0
2.2082944 -1.5496367 -0.42728344 0
2.2028577 -1.5348245 -0.42523336 0
2.1988373 -1.5210977 -0.42347041 0
2.1965981 -1.5086845 -0.42206261 0
2.2102215 -1.5071603 -0.42370692 0
2.1822104 -1.4773651 -0.41738519 0
2.20171 -1.4798255 -0.42016348 0
2.199755 -1.4678283 -0.41884887 0
2.2020776 -1.4587314 -0.41835752 0
2.195868 -1.4440483 -0.41625562 0
2.2360015 -1.4597254 -0.42293331 0
2.2064531 -1.4299077 -0.41643515 0
2.203747 -1.4176848 -0.41502497 0
2.2235169 -1.4198853 -0.41784927 0
2.2014675 -1.3954363 -0.41282415 0
2.2130446 -1.3923955 -0.41411734 0
2.2203302 -1.3866099 -0.41460836 0
2.2073147 -1.368216 -0.41131905 0
2.2067358 -1.3576369 -0.41036063 0
2.2119861 -1.3506645 -0.41049254 0
2.2150373 -1.3423527 -0.41022125 0
2.2189479 -1.3345712 -0.41011447 0
2.2008431 -1.3136542 -0.40595198 0
2.1966202 -1.3011646 -0.40436605 0
2.1838751 -1.2837434 -0.40122527 0
2.2118006 -1.2902001 -0.40555876 0
2.1956937 -1.2709571 -0.40182176 0
2.1928267 -1.259501 -0.40052205 0
2.1952302 -1.251112 -0.40019262 0
2.2183337 -1.2544444 -0.40363541 0
2.2194905 -1.2452958 -0.40308389 0
2.2303562 -1.2415787 -0.40429896 0
2.1810672 -1.2045798 -0.39462996 0
2.2180088 -1.2152952 -0.40057445 0
2.207289 -1.1998167 -0.39790967 0
2.2265956 -1.2006577 -0.40066215 0
2.1947415 -1.1739998 -0.3942197 0
2.2149775 -1.17529 -0.39714447 0
2.2096627 -1.1629921 -0.39549014 0
2.2306597 -1.1645093 -0.39854717 0
2.2298837 -1.1546069 -0.39771464 0
2.2099969 -1.1349298 -0.3934868 0
2.2038267 -1.1224393 -0.39171591 0
2.2225266 -1.1225947 -0.3943685 0
2.2337308 -1.1188699 -0.39568874 0
2.2207389 -1.1030639 -0.39272997 0
2.2107685 -1.0888858 -0.3903189 0
2.2214718 -1.0849178 -0.39156419 0
2.2009895 -1.0657899 -0.38732186 0
2.2288167 -1.0700547 -0.39158523 0
2.2197959 -1.0565803 -0.38937575 0
2.2269621 -1.0508478 -0.39001259 0
2.2050667 -1.0314906 -0.38557011 0
2.2147839 -1.0269997 -0.38666499 0
2.2340615 -1.0268518 -0.3894273 0
2.2243707 -1.0133779 -0.38714358 0
2.2175846 -1.0013216 -0.38537601 0
2.2266858 -0.99645686 -0.38637486 0
2.2228103 -0.98579079 -0.38512671 0
2.2093067 -0.9709509 -0.38222086 0
2.1927867 -0.9549315 -0.3788068 0
2.2434359 -0.96805334 -0.38699365 0
5.1623874 -2.207093 -0.88923246 0
5.1314182 -2.1735322 -0.88263774 0
5.1235905 -2.1499848 -0.88004643 0
5.1158643 -2.1265981 -0.87748975 0
5.1558299 -2.1229658 -0.88311893 0
5.1282158 -2.0915141 -0.87718302 0
5.1432381 -2.0775554 -0.87855613 0
5.2209554 -2.0886147 -0.89063036 0
5.2418776 -2.0766239 -0.89300668 0
5.3405614 -2.0950298 -0.90861672 0
5.3830171 -2.0908864 -0.91464204 0
5.4070845 -2.0793974 -0.91754162 0
5.4891949 -2.0898759 -0.93028098 0
7.0872645 -2.6711292 -1.1995891 0
7.112936 -2.6536028 -1.2024215 0
7.0990152 -2.6213288 -1.1985759 0
7.1209493 -2.6023309 -1.2007992 0
7.0892382 -2.5638318 -1.1939956 0
7.1229415 -2.5490479 -1.1982259 0
7.1384091 -2.5276165 -1.1993955 0
7.1335788 -2.4990215 -1.1971693 0
7.1759386 -2.4868803 -1.2028722 0
7.1791172 -2.4610519 -1.202015 0
7.1726623 -2.4319952 -1.1995623 0
7.1952152 -2.4127748 -1.2019744 0
7.204123 -2.3889217 -1.2021177 0
7.1956363 -2.3593585 -1.1993748 0
7.2151561 -2.3389964 -1.2013144 0
7.2127404 -2.3115177 -1.1996151 0
7.2329473 -2.2912807 -1.2016915 0
7.216661 -2.2595253 -1.1977203 0
7.24334 -2.24124 -1.2008941 0
7.25667 -2.2187326 -1.2018641 0
7.2610116 -2.1934664 -1.2013583 0
7.236547 -2.1596258 -1.1961058 0
7.255096 -2.1386962 -1.1979798 0
7.2467904 -2.1098652 -1.1954335 0
7.2884545 -2.0955131 -1.2011408 0
7.2876625 -2.0688567 -1.1998603 0
7.2853742 -2.041837 -1.1983497 0
7.2949414 -2.0181632 -1.1988037 0
7.3026462 -1.9939607 -1.1989645 0
7.3186121 -1.9719768 -1.2004935 0
7.3152261 -1.9447807 -1.1988617 0
7.3094192 -1.917021 -1.1968501 0
7.3281941 -1.8957078 -1.1988767 0
7.2993083 -1.8621471 -1.193123 0
7.3303909 -1.8439219 -1.1971864 0
7.3742332 -1.8286834 -1.2033385 0
7.3402863 -1.7941626 -1.1968106 0
7.367281 -1.7746053 -1.2002351 0
7.3677182 -1.7485957 -1.1993445 0
7.3981657 -1.7296407 -1.2033501 0
7.3902736 -1.7016834 -1.2011317 0
7.3801146 -1.673308 -1.1985619 0
7.3805857 -1.6474167 -1.1977346 0
7.4021611 -1.6261973 -1.2003444 0
7.4239421 -1.6049091 -1.2029971 0
7.421886 -1.5784361 -1.2017996 0
7.4274197 -1.5536023 -1.2018454 0
7.4383202 -1.52987 -1.2027725 0
7.4088321 -1.4979316 -1.1971854 0
7.4164453 -1.4736059 -1.1976105 0
7.4327354 -1.4509553 -1.1994487 0
7.4381156 -1.4261334 -1.1995386 0
7.4385362 -1.4003737 -1.1988425 0
7.427413 -1.3725104 -1.1963015 0
7.4258809 -1.3464954 -1.1953208 0
7.4752169 -1.3295697 -1.2025379 0
7.4820199 -1.3049157 -1.2029217 0
7.4853401 -1.2796494 -1.202759 0
7.4532247 -1.2484541 -1.1969193 0
7.4714403 -1.2257664 -1.1991779 0
7.4717674 -1.2001084 -1.1985778 0
7.4748368 -1.1749068 -1.1984315 0
7.5011997 -1.1532925 -1.2020316 0
7.4855661 -1.125211 -1.198915 0
7.5155888 -1.1039691 -1.203124 0
7.5136485 -1.0779612 -1.2022281 0
7.5190401 -1.0530181 -1.2025191 0
7.5070205 -1.0256835 -1.2000401 0
7.4869747 -0.99738514 -1.1962943 0
7.5035024 -0.9739939 -1.1984066 0
7.5094318 -0.94917262 -1.1988386 0
7.5083632 -0.92347199 -1.198167 0
7.5145774 -0.89867055 -1.1986711 0
7.5384254 -0.87589628 -1.2019999 0
7.5265312 -0.84894842 -1.1996429 0
7.511271 -0.82173234 -1.1967646 0
7.5386539 -0.79915905 -1.2006938 0
7.509397 -0.77060598 -1.1956159 0
7.5369258 -0.74790359 -1.1995928 0
7.5696063 -0.72552556 -1.2044004 0
7.5302286 -0.69627994 -1.1977569 0
7.5604081 -0.67351294 -1.2021912 0
7.5354066 -0.64582783 -1.1978647 0
7.5498753 -0.62157583 -1.1998266 0
7.5836911 -0.59876776 -1.2048749 0
7.594202 -0.57398367 -1.2062323 0
7.5622211 -0.54607326 -1.200855 0
7.5760369 -0.52154344 -1.2027645 0
7.5546131 -0.49462512 -1.1990932 0
7.5731664 -0.47034508 -1.201781 0
7.5692606 -0.44463146 -1.2009178 0
7.5715351 -0.41929641 -1.201049 0
7.5577207 -0.39311865 -1.1986418 0
7.5803928 -0.3688179 -1.2020347 0
7.5515833 -0.34204119 -1.1972777 0
7.5768518 -0.31773356 -1.2011083 0
7.5775146 -0.29231414 -1.2010512 0
7.5617213 -0.26631728 -1.1983997 0
7.5823703 -0.2415936 -1.2015371 0
7.5894461 -0.21634981 -1.2025367 0
7.6018829 -0.19119826 -1.204399 0
7.5660133 -0.16491461 -1.1986216 0
7.597384 -0.14011541 -1.2035103 0
7.587007 -0.11447901 -1.2017989 0
7.5797014 -0.088950828 -1.2005876 0
7.5505724 -0.063290708 -1.1959333 0
7.5758734 -0.038101103 -1.1999139 0
7.5637426 -0.012679936 -1.197979 0
7.565465 0.012682823 -1.1982518 0
7.5961232 0.038202945 -1.2031211 0
7.6053505 0.063749872 -1.2046096 0
7.5821266 0.088979289 -1.2009717 0
7.5985703 0.11465349 -1.2036304 0
7.5936852 0.14004721 -1.2029243 0
7.5688124 0.16497561 -1.199065 0
7.5678988 0.1903435 -1.1990147 0
7.5518532 0.21527816 -1.1965802 0
7.5680041 0.24113585 -1.1992606 0
7.5588326 0.26621553 -1.1979419 0
7.5722318 0.29211035 -1.2002139 0
7.5835028 0.31801248 -1.2021626 0
7.577939 0.34323499 -1.2014564 0
7.5751972 0.36856508 -1.2012107 0
7.5812755 0.39434388 -1.2023776 0
7.5551281 0.41838783 -1.1984464 0
7.5909266 0.4459042 -1.2043554 0
7.576313 0.47054052 -1.2022804 0
7.5593925 0.49493805 -1.1998519 0
7.595871 0.52290887 -1.2059133 0
7.5592675 0.54585999 -1.200386 0
7.5454645 0.57029998 -1.1984911 0
7.5472512 0.5958907 -1.1990855 0
7.5414248 0.62088013 -1.1984837 0
7.5338321 0.64569294 -1.1976144 0
7.5538373 0.67292762 -1.2011465 0
7.5293431 0.69619811 -1.1976161 0
7.5395885 0.72264838 -1.1996243 0
7.5284309 0.7470606 -1.1982408 0
7.5301428 0.77273488 -1.1989189 0
7.5298991 0.79823101 -1.1992995 0
7.5435839 0.82526737 -1.201913 0
7.5231385 0.8485657 -1.199102 0
7.5370774 0.87573969 -1.2017851 0
7.5255632 0.89998436 -1.2004235 0
7.5510163 0.92871797 -1.2049735 0
7.5155768 0.94994932 -1.1998197 0
7.4944954 0.97282475 -1.1969681 0
7.5193005 1.0016915 -1.2014595 0
7.4760914 1.0214576 -1.1950958 0
7.5167303 1.0526947 -1.2021496 0
7.5098891 1.0774219 -1.2016265 0
7.4790745 1.0986055 -1.1972786 0
7.4978704 1.1270607 -1.2008858 0
7.520051 1.1561909 -1.2050524 0
7.4962435 1.1782715 -1.2018636 0
7.4681325 1.1995246 -1.1979947 0
7.4651818 1.2247397 -1.1981734 0
7.4533234 1.2484707 -1.1969352 0
7.473947 1.2777016 -1.2009283 0
7.4471006 1.2988255 -1.1973076 0
7.4615936 1.3271468 -1.2003465 0
7.4492464 1.3507321 -1.1990819 0
7.4565849 1.3779012 -1.2010001 0
7.4499531 1.402523 -1.2006825 0
7.4562364 1.4296077 -1.202461 0
7.4483447 1.4540024 -1.2019677 0
7.4521503 1.4807003 -1.2033763 0
7.4247518 1.5011503 -1.1997578 0
7.4148097 1.5250345 -1.1989708 0
7.4083533 1.5496142 -1.1987603 0
7.4198322 1.5779994 -1.201467 0
7.4421053 1.6088356 -1.2059404 0
7.3912964 1.6238104 -1.1985825 0
7.3859673 1.6486179 -1.198608 0
7.3756437 1.6722944 -1.1978358 0
7.3864594 1.7008051 -1.2005117 0
7.3852935 1.7266314 -1.2012564 0
7.356864 1.7460196 -1.1975776 0
7.3811727 1.7779515 -1.2024983 0
7.3565812 1.7981455 -1.1994674 0
7.3591003 1.8249307 -1.2008691 0
7.3574715 1.8507339 -1.201609 0
7.3601785 1.8776758 -1.2030725 0
7.3415227 1.8991557 -1.2010572 0
7.3184481 1.919389 -1.1983284 0
7.3370118 1.9505726 -1.202432 0
7.3067222 1.9687731 -1.1985432 0
7.3046718 1.9945139 -1.1992971 0
7.2983575 2.0191083 -1.199365 0
7.299161 2.0457008 -1.2006174 0
7.3092484 2.0749846 -1.2034143 0
7.3031549 2.0997396 -1.2035633 0
7.2690144 2.1163356 -1.1990997 0
7.2821803 2.1466804 -1.2024521 0
7.2771969 2.171757 -1.2028247 0
7.2466197 2.1891189 -1.1989772 0
7.2131095 2.2054138 -1.1946495 0
7.2341719 2.2384033 -1.1993741 0
7.2280345 2.2630863 -1.1996078 0
7.2301083 2.2903814 -1.2012198 0
7.2204332 2.313983 -1.2008946 0
7.2005458 2.33426 -1.1988819 0
7.2155719 2.3658953 -1.2026976 0
7.1724277 2.3784115 -1.1968288 0
7.1920342 2.4117081 -1.201443 0
7.1606865 2.4279346 -1.1975595 0
4.7618303 1.6323889 -0.79728353 0
4.7086601 1.6318247 -0.78929269 0
4.6620293 1.6331933 -0.7823897 0
4.598156 1.6281463 -0.77258211 0
4.5450745 1.6265208 -0.76457536 0
4.5198908 1.6346242 -0.76125669 0
4.4423628 1.6234491 -0.74911165 0
4.4539194 1.6446208 -0.75198603 0
4.4480114 1.6594071 -0.75192368 0
4.4501848 1.6772366 -0.75323749 0
4.4589024 1.6976173 -0.75567216 0
4.4591441 1.7148491 -0.75668329 0
4.4657302 1.7345911 -0.75878352 0
4.4369268 1.7405463 -0.75487679 0
4.479044 1.7744197 -0.76305032 0
4.4728465 1.7893379 -0.76301223 0
4.4437113 1.7949891 -0.75906456 0
4.4458961 1.8132337 -0.76047194 0
4.4584422 1.8358092 -0.76366651 0
6.9796891 2.9013658 -1.1971791 0
6.9729581 2.9260249 -1.1977005 0
6.9809484 2.956944 -1.2007691 0
6.9917984 2.9892273 -1.2043525 0
6.9646831 3.0052941 -1.2014108 0
6.9375539 3.021219 -1.1984715 0
6.9062753 3.0351849 -1.1948195 0
6.9169049 3.0675678 -1.198431 0
6.9237981 3.0984464 -1.2014185 0
6.9213605 3.1252508 -1.2028069 0
6.8779655 3.1334608 -1.1970848 0
6.8637586 3.1548204 -1.1964464 0
6.8877454 3.193861 -1.2024876 0
6.8404813 3.1998544 -1.1961023 0
6.8668509 3.2402949 -1.2026061 0
6.8262839 3.2491806 -1.1974026 0
6.8450685 3.2863164 -1.2026236 0
6.8296494 3.3071358 -1.201856 0
6.8080111 3.324882 -1.2000031 0
6.7742615 3.336576 -1.1960194 0
6.8029194 3.3790803 -1.2030727 0
6.7444777 3.3782911 -1.1947339 0
6.7590518 3.4139867 -1.1993364 0
6.7741995 3.4501932 -1.2040701 0
6.7254729 3.4538236 -1.1974609 0
6.7342601 3.4869189 -1.2011002 0
6.7533865 3.5255857 -1.2066131 0
6.6938004 3.5230887 -1.1980706 0
6.7181864 3.564739 -1.2045678 0
6.6596522 3.5623465 -1.1962074 0
6.659523 3.5910463 -1.1983402 0
6.6559844 3.6179957 -1.1998794 0
6.6576734 3.6478839 -1.202382 0
6.6188836 3.6555378 -1.1975833 0
6.6125426 3.6810226 -1.1986624 0
6.605288 3.7060478 -1.1995929 0
6.6049528 3.7350314 -1.2017996 0
6.6091056 3.7666805 -1.2048464 0
6.5771842 3.7777586 -1.2013295 0
6.5602026 3.7973127 -1.2005464 0
6.5454392 3.8181229 -1.2001806 0
6.5217156 3.8336484 -1.1981808 0
6.5231476 3.8639765 -1.2008172 0
6.5128012 3.8874047 -1.2013052 0
6.4856157 3.9007297 -1.1986965 0
6.4566455 3.9128439 -1.19576 0
6.469172 3.9501519 -1.200526 0
6.4443364 3.9647105 -1.1983773 0
6.4386125 3.991009 -1.1997944 0
6.4198065 4.0092087 -1.1987882 0
6.4125032 4.0345955 -1.1999437 0
6.381247 4.044858 -1.1966258 0
6.3794208 4.0737472 -1.1988379 0
6.370791 4.0983715 -1.1997917 0
6.3435693 4.1109953 -1.1972542 0
6.3535552 4.1477814 -1.2017568 0
6.3164353 4.1538186 -1.1973633 0
6.3238888 4.1891594 -1.2014319 0
6.3149624 4.2137785 -1.2024133 0
6.2915401 4.2287045 -1.2006465 0
6.289207 4.2578182 -1.2029188 0
6.2528253 4.2638307 -1.1986878 0
6.2240434 4.2748456 -1.195911 0
6.2247496 4.3061175 -1.1988142 0
6.2126012 4.3285832 -1.1992629 0
6.1988444 4.3499436 -1.1994159 0
6.1974602 4.3800569 -1.2019829 0
6.1909442 4.406651 -1.2035778 0
6.165719 4.4199166 -1.2015481 0
6.1603174 4.4473882 -1.2033945 0
6.130939 4.4575243 -1.2005683 0
6.0889726 4.4582958 -1.1952708 0
6.1129985 4.5074487 -1.202947 0
6.092392 4.5238652 -1.20187 0
6.0492759 4.5233932 -1.1963495 0
6.0242953 4.5362854 -1.1944103 0
6.0344868 4.5757442 -1.199466 0
6.0153694 4.5930939 -1.1987203 0
5.9959865 4.6101999 -1.1979312 0
5.9938126 4.6405878 -1.2005987 0
5.9846873 4.6656995 -1.2018975 0
5.9629579 4.6809878 -1.2006788 0
5.9439287 4.6983447 -1.2000123 0
5.9219146 4.7132902 -1.1987516 0
5.9163265 4.7413316 -1.2008317 0
5.9087262 4.7678628 -1.2025268 0
5.8775158 4.7753038 -1.1994267 0
5.8536043 4.788547 -1.1978167 0
5.8618422 4.8281827 -1.2028083 0
5.8134432 4.8211236 -1.1961871 0
5.8089094 4.8503265 -1.1985939 0
5.7897158 4.8673382 -1.197994 0
5.8039899 4.9126453 -1.2043489 0
5.7716994 4.9186244 -1.2010639 0
5.7566676 4.9392281 -1.2013752 0
5.7557907 4.9720769 -1.2046643 0
5.6856532 4.9448748 -1.1934482 0
5.7094212 4.9992666 -1.2019489 0
5.6684732 4.9970875 -1.1968489 0
5.6794209 5.0406795 -1.2027221 0
5.6554074 5.0533657 -1.201218 0
5.6318555 5.0663824 -1.1998168 0
5.6128674 5.0834522 -1.1993959 0
5.6172972 5.121851 -1.2040052 0
5.5695486 5.1126175 -1.1974384 0
5.5532384 5.1320596 -1.1976243 0
5.537991 5.1525016 -1.1980549 0
5.5271573 5.1771035 -1.1994597 0
5.4967246 5.1833057 -1.1966201 0
5.4978056 5.2192602 -1.2006582 0
5.4863381 5.2434578 -1.2019864 0
5.4576707 5.2511854 -1.1995564 0
5.4311318 5.2608314 -1.1975935 0
5.4325228 5.2975984 -1.20181 0
5.4216084 5.322535 -1.2033366 0
5.3917446 5.3288345 -1.200667 0
5.3617315 5.3348265 -1.1979599 0
5.3428273 5.3517847 -1.1977386 0
5.3340216 5.3789129 -1.1998007 0
5.316823 5.3976455 -1.1999961 0
5.2996407 5.4164071 -1.2002101 0
5.2797241 5.4323692 -1.1998178 0
5.2713618 5.4602757 -1.2020711 0
5.2314429 5.4554129 -1.1971323 0
5.2191558 5.4792562 -1.1985178 0
5.1961508 5.4918575 -1.1974567 0
5.1906776 5.5230479 -1.2004561 0
5.1913147 5.5609698 -1.2049086 0
5.1540947 5.5583439 -1.2005886 0
5.1346364 5.5747318 -1.2004031 0
5.1146989 5.5905852 -1.2001175 0
5.1043353 5.6169562 -1.2020979 0
5.0789165 5.6267743 -1.2005479 0
5.0446167 5.6265879 -1.1968926 0
5.0378885 5.6571298 -1.1997898 0
5.0273314 5.6835294 -1.201807 0
4.9898171 5.6793761 -1.1973845 0
4.9779277 5.7043023 -1.1991141 0
4.9680295 5.731638 -1.2013521 0
4.9275384 5.7235842 -1.1961945 0
4.9169531 5.7501683 -1.1982983 0
4.9090629 5.7800641 -1.2010916 0
4.8900375 5.7969437 -1.2011855 0
4.8620348 5.8031144 -1.1990795 0
4.8480735 5.8260198 -1.200447 0
4.8229384 5.8354974 -1.1990612 0
4.8160381 5.8670969 -1.2022295 0
4.7957168 5.8824468 -1.2020733 0
4.7815967 5.9054456 -1.2034901 0
4.751987 5.9092789 -1.2010176 0
4.7300487 5.9225502 -1.200485 0
4.7089462 5.9368391 -1.2001743 0
4.6901436 5.9540272 -1.2004633 0
4.6647601 5.9628234 -1.1990767 0
4.6506987 5.9860978 -1.2006146 0
4.625567 5.995131 -1.199309 0
4.6096573 6.016109 -1.200407 0
4.5805173 6.0197773 -1.1980679 0
4.5698524 6.0477314 -1.2005754 0
4.5329146 6.0408502 -1.1961855 0
4.526547 6.0746841 -1.1998731 0
4.4917727 6.0703907 -1.1960437 0
4.4903483 6.1112123 -1.2011136 0
4.4739652 6.1318955 -1.2022238 0
4.4482951 6.139842 -1.2008508 0
4.4184985 6.141953 -1.1983595 0
4.3940959 6.1514339 -1.1973282 0
4.3863149 6.1842752 -1.2008512 0
4.3718839 6.2079325 -1.2025919 0
4.3493705 6.220161 -1.202129 0
4.319993 6.2224684 -1.199769 0
4.3019552 6.2410507 -1.2005641 0
4.2847891 6.2609673 -1.201625 0
4.2681494 6.2817392 -1.2028584 0
4.23105 6.2722745 -1.1983229 0
4.2248669 6.3086295 -1.2025555 0
4.1949883 6.309669 -1.2000659 0
4.1780643 6.3301449 -1.2012892 0
4.1566916 6.3439264 -1.2012529 0
4.1173439 6.33007 -1.1960084 0
4.0965104 6.3444786 -1.1961291 0
4.0747552 6.3574595 -1.1959939 0
4.0699539 6.397078 -1.2008733 0
4.0533056 6.4183254 -1.2023039 0
4.0246663 6.4205575 -1.2001876 0
4.018579 6.4588661 -1.2048233 0
3.9760964 6.4386144 -1.1985519 0
3.9649622 6.4690003 -1.2017269 0
3.9403698 6.4775224 -1.2008491 0
3.8969984 6.4548678 -1.1942202 0
3.8913779 6.4946733 -1.199164 0
3.8688812 6.5065079 -1.1989473 0
3.8609107 6.5429416 -1.2032688 0
3.8374181 6.5532308 -1.2027881 0
3.8024409 6.543716 -1.1986951 0
3.7761314 6.5488863 -1.1973163 0
3.7582791 6.5687218 -1.1986322 0
3.7410905 6.5898404 -1.2001902 0
3.7148914 6.5950966 -1.1988723 0
3.7032576 6.6263008 -1.2022809 0
3.6762562 6.6300888 -1.200725 0
3.6470776 6.6297822 -1.1984483 0
3.6251173 6.6425018 -1.1985437 0
3.6073127 6.6629062 -1.2000363 0
3.5796955 6.6651745 -1.1982764 0
3.5598843 6.6819367 -1.1991374 0
3.5447357 6.7076006 -1.2016034 0
3.5164347 6.7083983 -1.1996275 0
3.4838974 6.7008677 -1.1961854 0
3.4638183 6.7171788 -1.1970172 0
3.4603245 6.7659984 -1.2036426 0
3.4256785 6.7540183 -1.1994613 0
3.4100084 6.7793708 -1.2019266 0
3.3732836 6.7627473 -1.1969675 0
3.3521638 6.7772002 -1.1975296 0
3.3339887 6.7977118 -1.199172 0
3.319664 6.8263006 -1.2022451 0
3.2865605 6.8162432 -1.1985264 0
3.2690525 6.8384452 -1.2004962 0
3.2407718 6.8381114 -1.1985234 0
3.2182529 6.8498459 -1.1986822 0
3.205544 6.8826599 -1.2025369 0
3.1821835 6.8927922 -1.2024362 0
3.156677 6.8982258 -1.2015311 0
3.1263542 6.8929477 -1.1987792 0
3.1006603 6.8976836 -1.1977881 0
3.0862238 6.9275866 -1.2011772 0
3.0603969 6.932045 -1.2001643 0
3.028415 6.922328 -1.1967174 0
3.0082357 6.9394722 -1.1979308 0
2.9927561 6.9676881 -1.2010627 0
2.964313 6.9657817 -1.1990141 0
2.9414542 6.9768968 -1.199223 0
2.9160922 6.9820433 -1.1984203 0
2.893177 6.9930153 -1.1986319 0
2.8703623 7.0042577 -1.1989025 0
2.8526263 7.0280428 -1.2013299 0
2.8198135 7.0145993 -1.1974092 0
2.8013699 7.0368023 -1.1995893 0
2.7695012 7.0252028 -1.1960222 0
2.7470129 7.037219 -1.1964931 0
2.7404311 7.0904474 -1.2039742 0
2.7117994 7.0869384 -1.2018278 0
2.6815197 7.0788226 -1.19892 0
2.6576269 7.0873899 -1.1988552 0
2.6373959 7.1058164 -1.2004695 0
2.6157374 7.1205559 -1.2014713 0
2.5838795 7.1073647 -1.1977769 0
2.5616512 7.1204801 -1.1985331 0
2.5399261 7.1351042 -1.1995544 0
2.5186167 7.1510406 -1.2008073 0
2.4892528 7.1440229 -1.1982206 0
2.4656618 7.1534176 -1.1984031 0
2.4451447 7.1718545 -1.2001116 0
2.4185796 7.1725817 -1.1988696 0
2.3885455 7.1627417 -1.1958796 0
2.3713448 7.1914163 -1.1993328 0
2.3430431 7.1865149 -1.1971986 0
2.3185494 7.1931353 -1.1969997 0
2.3056967 7.2362618 -1.2028831 0
2.2681091 7.2016811 -1.195864 0
2.2479527 7.2221036 -1.1979969 0
2.226079 7.2372503 -1.1992646 0
2.1985221 7.2338834 -1.1974785 0
2.1853039 7.2780089 -1.2035633 0
2.1559989 7.268805 -1.200839 0
2.1308641 7.2734275 -1.2004157 0
2.1062071 7.2796369 -1.2002683 0
2.0812392 7.2847366 -1.1999519 0
2.0571752 7.2929926 -1.2001688 0
2.0312312 7.2945328 -1.1992948 0
2.0101357 7.3135743 -1.2013106 0
1.9761314 7.2853527 -1.19558 0
1.9525082 7.2949796 -1.1960788 0
1.9293315 7.3063822 -1.1968811 0
1.9114586 7.3382812 -1.2010499 0
1.8831422 7.3302398 -1.1986936 0
1.8595878 7.34059 -1.1993599 0
1.8435977 7.3813438 -1.2050018 0
1.8121134 7.3601665 -1.200546 0
1.7818497 7.3432202 -1.1968007 0
1.7660941 7.3862696 -1.2028451 0
1.7388879 7.3818278 -1.2011656 0
1.7119255 7.3781233 -1.1996219 0
1.6846949 7.3729525 -1.1978561 0
1.6579925 7.3697901 -1.1964325 0
1.6359965 7.3876028 -1.198427 0
1.6144551 7.4078999 -1.2008348 0
1.5877951 7.4048133 -1.1994647 0
1.5664465 7.4266286 -1.2021409 0
1.5493534 7.4695187 -1.2082359 0
1.5146217 7.4272084 -1.2005638 0
1.4927126 7.4472198 -1.2029828 0
1.4585257 7.4054227 -1.1954345 0
1.4411405 7.4487886 -1.2016481 0
1.413888 7.4416308 -1.1997219 0
1.391078 7.4578476 -1.2015777 0
1.3665974 7.4653759 -1.2020456 0
1.338433 7.4525056 -1.1992439 0
1.3135122 7.4573693 -1.1993111 0
1.2872934 7.4547338 -1.1981865 0
1.2650031 7.4750295 -1.2007601 0
1.2381659 7.4685655 -1.1990482 0
1.2138519 7.4771938 -1.1997733 0
1.1895136 7.485867 -1.2005183 0
1.1657064 7.4981637 -1.2018567 0
1.1403396 7.5005808 -1.2016245 0
1.1149958 7.5030875 -1.2014205 0
1.0887281 7.4991722 -1.2002023 0
1.0652319 7.5144429 -1.202068 0
1.0390223 7.5106783 -1.2009017 0
1.0148098 7.521348 -1.202057 0
0.98918986 7.5216923 -1.2015752 0
0.96173406 7.5075474 -1.1987936 0
0.93689442 7.5134335 -1.1992252 0
0.91244644 7.5227027 -1.2002096 0
0.88951457 7.5451903 -1.2033149 0
0.86304826 7.5379663 -1.2016945 0
0.83802211 7.5430865 -1.2020562 0
0.81109089 7.5306649 -1.1996365 0
0.78456569 7.5211501 -1.197695 0
0.75971794 7.527441 -1.1982844 0
0.73701632 7.5559936 -1.2024295 0
0.70848978 7.5245576 -1.1970422 0
0.68895251 7.5896297 -1.2070199 0
0.65934449 7.5443254 -1.1994567 0
0.63675719 7.5787616 -1.2045854 0
0.60952157 7.5582619 -1.2009956 0
0.58429879 7.5618429 -1.2012465 0
0.55864447 7.5597324 -1.2006069 0
0.53318119 7.5599494 -1.2003508 0
0.50841612 7.570406 -1.2017336 0
0.48173374 7.5517297 -1.1985058 0
0.45864749 7.5903063 -1.2043773 0
0.43305156 7.5892696 -1.2039757 0
0.40689516 7.5774832 -1.2018827 0
0.38009733 7.5511971 -1.1975045 0
0.3567974 7.5954285 -1.2043225 0
0.32960793 7.5571141 -1.1980654 0
0.30436599 7.5605989 -1.1984494 0
0.27999684 7.5881848 -1.2026665 0
0.25342971 7.5555768 -1.1973569 0
0.22861037 7.5734291 -1.2000579 0
0.20295054 7.5642285 -1.1984854 0
0.17733119 7.5539284 -1.1967525 0
0.15243877 7.5761237 -1.2001811 0
0.12735596 7.5956392 -1.2031983 0
0.10190665 7.5973759 -1.2034125 0
0.076031521 7.5577164 -1.1970835 0
0.050809179 7.5754743 -1.1998625 0
0.025413265 7.5766478 -1.2000281 0
1.0074919e-05 7.5934267 -1.2026788 0
-0.025379047 7.5724368 -1.1993611 0
-0.050761867 7.5714159 -1.1992196 0
-0.076054871 7.5620317 -1.1977669 0
-0.10158176 7.5746531 -1.1998132 0
-0.12662126 7.5530162 -1.1964465 0
-0.1525564 7.5829706 -1.2012657 0
-0.17802709 7.5844302 -1.2015848 0
-0.20333834 7.5794325 -1.2008944 0
-0.22866662 7.5759587 -1.2004586 0
-0.25447518 7.587347 -1.2023916 0
-0.27929419 7.5696883 -1.1997348 0
-0.30474749 7.5705757 -1.2000307 0
-0.33094132 7.5881486 -1.2029853 0
-0.35539314 7.5659642 -1.1996504 0
-0.38231438 7.5956435 -1.2045529 0
-0.4068523 7.5770607 -1.2018155 0
-0.43120083 7.557188 -1.198886 0
-0.45784819 7.5774126 -1.2023313 0
-0.47987723 7.5229416 -1.1939367 0
-0.50729364 7.5539918 -1.1991278 0
-0.53514314 7.5880547 -1.204813 0
-0.5593338 7.5693345 -1.2021316 0
-0.58270091 7.5414238 -1.1980026 0
-0.60657305 7.5219488 -1.1952251 0
-0.63299733 7.5342517 -1.1975106 0
-0.6602487 7.554903 -1.201138 0
-0.68309319 7.5253038 -1.1967896 0
-0.70889956 7.5291243 -1.1977684 0
-0.73782688 7.5645118 -1.2037848 0
-0.75841045 7.5146856 -1.1962537 0
-0.78630418 7.5380101 -1.2003796 0
-0.80963743 7.5173573 -1.1975162 0
-0.83703291 7.5343652 -1.200666 0
-0.85997194 7.5112739 -1.1974388 0
-0.88860017 7.5376062 -1.2021049 0
-0.91133034 7.5136676 -1.1987678 0
-0.9347955 7.4967628 -1.1965641 0
-0.96433848 7.5280361 -1.2020649 0
-0.98634541 7.500217 -1.1981441 0
-1.0135585 7.5122237 -1.2005982 0
-1.038424 7.5064998 -1.2002332 0
-1.0692924 7.5432315 -1.2066728 0
-1.0866655 7.485105 -1.1979505 0
-1.1155127 7.5067034 -1.2019991 0
-1.1372271 7.4802413 -1.1983656 0
-1.160607 7.4654927 -1.1966195 0
-1.1872233 7.4715815 -1.1982268 0
-1.2181481 7.5037842 -1.2040393 0
-1.2380768 7.4681506 -1.198981 0
-1.264972 7.4749656 -1.2007494 0
-1.2877206 7.4573255 -1.1986024 0
-1.3180859 7.4834523 -1.2035054 0
-1.3385639 7.4533482 -1.199379 0
-1.3585211 7.4213681 -1.194959 0
-1.3920389 7.4631085 -1.2024246 0
-1.4163382 7.4546347 -1.2018178 0
-1.4387417 7.4364958 -1.1996644 0
-1.4588385 7.407115 -1.195707 0
-1.48466 7.4071465 -1.1965089 0
-1.5168345 7.4381604 -1.2023335 0
-1.5408427 7.4285874 -1.2016144 0
-1.5609323 7.4005823 -1.1979243 0
-1.5867879 7.4002118 -1.1987187 0
-1.6152288 7.4115443 -1.2014248 0
-1.6372254 7.3932457 -1.1993417 0
-1.6636161 7.3948789 -1.2005047 0
-1.6900448 7.3964562 -1.201674 0
-1.7077748 7.3603225 -1.196727 0
-1.7371386 7.3744898 -1.1999707 0
-1.7610756 7.3653679 -1.1994405 0
-1.7922618 7.3862157 -1.2038072 0
-1.8133298 7.365191 -1.2013649 0
-1.83483 7.346323 -1.199284 0
-1.8629441 7.3539209 -1.2015373 0
-1.8827529 7.3288045 -1.1984582 0
-1.9093201 7.3301511 -1.1997184 0
-1.9295205 7.3071761 -1.1970103 0
-1.9572413 7.3127413 -1.1989901 0
-1.9743764 7.2789593 -1.19453 0
-2.0035627 7.2897348 -1.197394 0
-2.0342755 7.3055406 -1.2011037 0
-2.0539951 7.2817922 -1.1983248 0
-2.0832729 7.2919283 -1.2011355 0
-2.1030061 7.2686453 -1.1984551 0
-2.1217561 7.2424088 -1.1952955 0
-2.1586425 7.2777891 -1.2023224 0
-2.1841419 7.274209 -1.2029339 0
-2.2086504 7.2672782 -1.2030057 0
-2.2302089 7.2507453 -1.2014999 0
-2.254353 7.2427335 -1.201418 0
-2.2737079 7.2195249 -1.198826 0
-2.2932825 7.1973667 -1.1964166 0
-2.3294373 7.2269793 -1.2026306 0
-2.3487413 7.2040577 -1.20012 0
-2.3695719 7.1861043 -1.1984459 0
-2.3923187 7.1741199 -1.1977782 0
-2.4250257 7.191762 -1.2020744 0
-2.4372232 7.1486826 -1.196233 0
-2.4667122 7.156527 -1.1989229 0
-2.5002711 7.1757059 -1.2035335 0
-2.5154798 7.1421947 -1.1993207 0
-2.5498011 7.1629057 -1.2042273 0
-2.5638573 7.1266718 -1.1995741 0
-2.5754311 7.0841851 -1.1938694 0
-2.616751 7.1233735 -1.2019454 0
-2.6333623 7.0950065 -1.1986421 0
-2.663316 7.1026192 -1.2014301 0
-2.6743858 7.0600471 -1.1957389 0
-2.7196703 7.1075644 -1.2053243 0
-2.7318146 7.0682096 -1.200197 0
-2.7583241 7.0662513 -1.2014281 0
-2.786231 7.0676956 -1.2032552 0
-2.7949154 7.0206428 -1.1968333 0
-2.8286994 7.0367575 -1.2011904 0
-2.8565714 7.037816 -1.2029992 0
-2.8831215 7.0354457 -1.2042396 0
-2.900681 7.0112057 -1.2017485 0
-2.9173334 6.9850674 -1.1989381 0
-2.9505763 6.9985862 -1.2029498 0
-2.9667695 6.9716048 -1.2000151 0
-2.9874394 6.9553604 -1.1989363 0
-3.0065217 6.9355683 -1.1972555 0
-3.0271757 6.9195457 -1.1962349 0
-3.0552905 6.9205279 -1.198169 0
-3.0804918 6.9147692 -1.1989534 0
-3.1155825 6.9309282 -1.2035596 0
-3.1262681 6.8928065 -1.1987532 0
-3.1616371 6.9091129 -1.203426 0
-3.177247 6.8821473 -1.2005779 0
-3.2078652 6.887692 -1.2034146 0
-3.2173777 6.8480301 -1.1983629 0
-3.2458324 6.8488364 -1.2004017 0
-3.27507 6.8510795 -1.2027127 0
-3.2989407 6.8419657 -1.2030476 0
-3.3141274 6.8149614 -1.2002466 0
-3.3412724 6.8126082 -1.2017983 0
-3.3636703 6.800509 -1.2016467 0
-3.3908803 6.79807 -1.2032179 0
-3.4005854 6.7606816 -1.1986116 0
-3.4278409 6.7583261 -1.2002248 0
-3.4454019 6.7368636 -1.1984581 0
-3.4785771 6.7458439 -1.2021236 0
-3.4896953 6.7120628 -1.1981821 0
-3.5172727 6.7100401 -1.1999195 0
-3.5401886 6.699039 -1.200068 0
-3.5665574 6.6945052 -1.2013912 0
-3.5858309 6.676641 -1.2003362 0
-3.6201026 6.6865726 -1.2042971 0
-3.6252797 6.6428413 -1.1986033 0
-3.6591327 6.6517386 -1.2024155 0
-3.6748295 6.6275573 -1.2002647 0
-3.6936963 6.6092343 -1.1991825 0
-3.7214136 6.6067166 -1.2009829 0
-3.7286909 6.5680389 -1.1962178 0
-3.75331 6.5600777 -1.197053 0
-3.7788303 6.5536079 -1.1981776 0
-3.8102205 6.5571442 -1.201153 0
-3.8176064 6.5194373 -1.1965839 0
-3.8476973 6.5205889 -1.1991562 0
-3.8850939 6.533813 -1.203977 0
-3.902046 6.5125179 -1.202457 0
-3.9171817 6.4883375 -1.2004105 0
-3.9422624 6.4806719 -1.201431 0
-3.9491446 6.4432321 -1.196938 0
-3.972312 6.4325242 -1.1974163 0
-4.0129104 6.4497943 -1.2031289 0
-4.0318742 6.4320936 -1.202342 0
-4.0570769 6.424335 -1.2034277 0
-4.0565634 6.3760691 -1.1969274 0
-4.0865078 6.3758335 -1.1994485 0
-4.1082644 6.36272 -1.199566 0
-4.1432114 6.3698759 -1.2035273 0
-4.14152 6.3208079 -1.1968733 0
-4.1836329 6.3386183 -1.202895 0
-4.192203 6.3055158 -1.1992738 0
-4.1980834 6.268672 -1.1949366 0
-4.2439489 6.2914324 -1.2019809 0
-4.2496543 6.2545543 -1.1976508 0
-4.2822046 6.2572269 -1.200905 0
-4.2990499 6.2368712 -1.1997579 0
-4.3078222 6.2049727 -1.1963935 0
-4.3280959 6.1897702 -1.1962534 0
-4.3558354 6.1851792 -1.198182 0
-4.3920836 6.1924434 -1.202435 0
-4.4193769 6.1868606 -1.2042214 0
-4.421886 6.1466961 -1.1992828 0
-4.452105 6.1451354 -1.2018839 0
-4.4582229 6.1103544 -1.197998 0
-4.4776354 6.0939441 -1.1977173 0
-4.5071259 6.0911732 -1.2001361 0
-4.5296435 6.0788736 -1.2006983 0
-4.5552931 6.0707068 -1.2020952 0
-4.5668979 6.0438547 -1.1998034 0
-4.5815382 6.021152 -1.1983391 0
-4.592319 5.9935136 -1.1958961 0
-4.6242957 5.9935155 -1.1989834 0
-4.6592507 5.9971385 -1.2028265 0
-4.6674552 5.966301 -1.1997736 0
-4.6818624 5.9435468 -1.1983477 0
-4.7168903 5.9468875 -1.2022032 0
-4.7278547 5.9198356 -1.1999321 0
-4.748796 5.9053431 -1.2002152 0
-4.7476921 5.8636041 -1.1949606 0
-4.7755089 5.8576913 -1.1970119 0
-4.81844 5.8700547 -1.2028329 0
-4.8211789 5.8334002 -1.1986276 0
-4.843956 5.8211031 -1.1994313 0
-4.8600526 5.8007798 -1.1985945 0
-4.8885536 5.7952151 -1.2008246 0
-4.9106808 5.7820001 -1.2014912 0
-4.9242735 5.7587605 -1.2000861 0
-4.9312711 5.7279506 -1.1971043 0
-4.960897 5.7234397 -1.1996311 0
-4.9908381 5.7191272 -1.2022277 0
-4.9990125 5.6898723 -1.1995946 0
-5.0268044 5.6829643 -1.2016847 0
-5.0369201 5.6560731 -1.1995628 0
-5.0606275 5.6444759 -1.2006949 0
-5.0724587 5.6196494 -1.1990248 0
-5.105957 5.6187706 -1.2024833 0
-5.1155725 5.5915704 -1.200326 0
-5.1178408 5.5565267 -1.19648 0
-5.1459732 5.5496149 -1.1987003 0
-5.1723838 5.5407205 -1.2005181 0
-5.176208 5.5076814 -1.197113 0
-5.2186432 5.5156589 -1.2026434 0
-5.2202983 5.4804845 -1.1987835 0
-5.2539377 5.4788995 -1.2022831 0
-5.2577929 5.4462495 -1.1989801 0
-5.2711735 5.4236002 -1.1978779 0
-5.2732735 5.3894877 -1.194242 0
-5.3282313 5.409256 -1.2025743 0
-5.3288798 5.3737564 -1.1986474 0
-5.3448915 5.3538804 -1.1982045 0
-5.366374 5.3394742 -1.1990004 0
-5.3801737 5.3174272 -1.1980935 0
-5.4128413 5.3139563 -1.2013938 0
-5.4197564 5.2851768 -1.1989888 0
-5.4522276 5.2812939 -1.2022482 0
-5.46837 5.2615075 -1.201911 0
-5.4739389 5.2316351 -1.199273 0
-5.4940929 5.2157631 -1.1998504 0
-5.5289803 5.2137504 -1.2036451 0
-5.525763 5.1758251 -1.1991601 0
-5.5477343 5.1615944 -1.2001657 0
-5.5384264 5.1183982 -1.1944329 0
-5.5665555 5.1098971 -1.1967977 0
-5.6101785 5.1153874 -1.2024823 0
-5.5950575 5.0673494 -1.195593 0
-5.6407208 5.0743842 -1.2017083 0
-5.6327729 5.0331678 -1.1964133 0
-5.6816702 5.0427027 -1.2032012 0
-5.6802802 5.0075226 -1.1993446 0
-5.7145009 5.0037413 -1.203021 0
-5.7320452 4.985249 -1.2031889 0
-5.7514133 4.9683223 -1.203751 0
-5.757637 4.9400864 -1.2015803 0
-5.7794704 4.9252734 -1.2026837 0
-5.7592301 4.8747859 -1.1950638 0
-5.7873402 4.8653674 -1.1975051 0
-5.8025789 4.8450665 -1.1972902 0
-5.8031874 4.8126445 -1.1940796 0
-5.8289185 4.8010907 -1.1960552 0
-5.8592715 4.7932091 -1.198979 0
-5.8640428 4.7643833 -1.1966798 0
-5.8915076 4.7539945 -1.1990252 0
-5.9094658 4.7358594 -1.1994417 0
-5.9409237 4.7284455 -1.2026021 0
-5.9431763 4.6977754 -1.199863 0
-5.9514318 4.6719651 -1.1983604 0
-5.980917 4.662786 -1.2011428 0
-5.9695458 4.6218247 -1.1957403 0
-5.9993052 4.6127768 -1.1985967 0
-6.0308013 4.6049023 -1.2017978 0
-6.0435138 4.5826144 -1.2012626 0
-6.0574026 4.5612402 -1.2009767 0
-6.0656595 4.5356693 -1.199592 0
-6.0846939 4.5181742 -1.2003537 0
-6.0902572 4.490705 -1.1984742 0
-6.0934496 4.4615989 -1.196152 0
-6.1195045 4.4492354 -1.1983315 0
-6.1327667 4.4275231 -1.1980149 0
-6.1832199 4.432487 -1.2049608 0
-6.1836147 4.4014583 -1.2021551 0
-6.1822915 4.3693609 -1.1990432 0
-6.1856666 4.3407211 -1.1968683 0
-6.2086096 4.3258266 -1.1984944 0
-6.2604499 4.3308387 -1.2056918 0
-6.2392693 4.2853279 -1.1988388 0
-6.2466364 4.259635 -1.1975034 0
-6.2711673 4.2456293 -1.1994705 0
-6.2940388 4.2304082 -1.2011254 0
-6.2878203 4.1956916 -1.1972475 0
-6.3141274 4.1827178 -1.1995796 0
-6.331955 4.1640487 -1.2003073 0
-6.3199821 4.1258883 -1.1954087 0
-6.3633456 4.1238356 -1.2009888 0
-6.3626432 4.0931535 -1.1982592 0
-6.3783236 4.0730705 -1.1986338 0
-6.3830037 4.0459952 -1.1969572 0
-6.4125228 4.0346317 -1.1999493 0
-6.4315553 4.0165696 -1.200984 0
-6.4552612 4.0013523 -1.2028987 0
-6.4555631 3.9716408 -1.2004669 0
-6.4861159 3.9605215 -1.2036723 0
-6.4743066 3.9235706 -1.1990328 0
-6.486793 3.9014614 -1.198916 0
-6.5120716 3.8869927 -1.2011726 0
-6.5193038 3.8617232 -1.2001116 0
-6.5368004 3.8425391 -1.2009541 0
-6.5773253 3.8367465 -1.2060293 0
-6.5586305 3.7964261 -1.2002606 0
-6.5658374 3.7712646 -1.1992588 0
-6.5683775 3.7434916 -1.1974235 0
-6.6111774 3.7385743 -1.202934 0
-6.6049623 3.7058883 -1.1995356 0
-6.6280313 3.6896677 -1.2014717 0
-6.6431241 3.6689484 -1.2019711 0
-6.6370873 3.6366274 -1.198666 0
-6.6872406 3.6350086 -1.2055159 0
-6.6760626 3.5999875 -1.201318 0
-6.6750832 3.5706236 -1.1989808 0
-6.6925001 3.5511324 -1.1999639 0
-6.7009296 3.5268636 -1.1993483 0
-6.7038398 3.4997425 -1.1977623 0
-6.7195401 3.4793196 -1.1984764 0
-6.7224841 3.452311 -1.1969303 0
-6.7554846 3.4406841 -1.2007452 0
-6.7562375 3.4125874 -1.1988386 0
-6.7650428 3.3886144 -1.1983783 0
-6.7776146 3.3665335 -1.1985991 0
-6.7981529 3.3483658 -1.2002392 0
-6.797719 3.3198781 -1.1981906 0
-6.8146996 3.2999189 -1.1992267 0
-6.837028 3.2824786 -1.2012125 0
-6.8515472 3.2612276 -1.2018356 0
-6.8632751 3.2386298 -1.2019813 0
-6.8782778 3.2175572 -1.2027128 0
-6.8659058 3.1837561 -1.1986761 0
-6.8874044 3.1657109 -1.2005696 0
-6.8781767 3.133579 -1.1971231 0
-6.8858891 3.109256 -1.1966442 0
-6.936151 3.1039965 -1.2035635 0
-6.9266162 3.0718966 -1.2001151 0
-6.9228411 3.0424871 -1.1976868 0
-6.9359899 3.0205598 -1.1982027 0
-6.9354429 2.9926987 -1.1963682 0
-6.9553504 2.9736664 -1.1980757 0
-6.987092 2.9595683 -1.2018272 0
-6.9827256 2.9301455 -1.1993796 0
-6.9943609 2.9074864 -1.1996969 0
-6.9906073 2.8784759 -1.197391 0
-6.9972148 2.8537962 -1.1968771 0
-7.0240555 2.8373129 -1.1998342 0
-7.0157294 2.8066258 -1.1967978 0
-7.0405803 2.7892206 -1.1994351 0
-7.0722108 2.7743545 -1.2032323 0
-7.0551443 2.7404001 -1.1987587 0
-7.038774 2.7069166 -1.1944283 0
-7.0680327 2.6910009 -1.1978556 0
-7.088253 2.6715233 -1.1997576 0
-7.1265259 2.6586943 -1.2047201 0
-7.1014633 2.6222544 -1.1989903 0
-7.1248317 2.6037712 -1.2014551 0
-7.1114597 2.5718896 -1.1977394 0
-7.1228404 2.5490329 -1.19821 0
-7.1500454 2.5317581 -1.2013518 0
-7.1499152 2.5047657 -1.1999121 0
-7.1755805 2.4867775 -1.2028133 0
-7.16611 2.4566143 -1.1998383 0
-7.1613741 2.4281888 -1.1976755 0
-7.1858435 2.4096534 -1.2004099 0
-7.1893239 2.3840353 -1.1996492 0
