# .PCD v0.7 - Point Cloud Data file format
VERSION 0.7
FIELDS x y z intensity
SIZE 4 4 4 4
TYPE F F F F
COUNT 1 1 1 1
WIDTH 1399
HEIGHT 1
VIEWPOINT 0 0 0 1 0 0 0
POINTS 1399
DATA ascii
-3.0123396 6.9489894 -1.1995723 0
-3.0410433 6.9512444 -1.2017149 0
-3.0632098 6.9384661 -1.2012746 0
-3.0887451 6.9332952 -1.2021656 0
-3.1069934 6.9118209 -1.2002417 0
-3.1315732 6.9045029 -1.2007874 0
-3.1581247 6.9014373 -1.2020891 0
-3.1863337 6.9018297 -1.2040114 0
-3.1970165 6.864398 -1.1993446 0
-3.210706 6.8338299 -1.1958779 0
-3.2472148 6.8517532 -1.200913 0
-3.278888 6.859066 -1.2041147 0
-3.2845864 6.8121953 -1.197813 0
-3.3147862 6.8163161 -1.2004851 0
-3.3427732 6.8156681 -1.2023381 0
-3.3659544 6.8051267 -1.2024626 0
-3.3835857 6.7834463 -1.2006295 0
-3.4014862 6.7624726 -1.1989291 0
-3.4255269 6.7537637 -1.1994146 0
-3.4480293 6.7420011 -1.1993721 0
-3.4682114 6.7257423 -1.1985415 0
-3.4900665 6.7127771 -1.1983095 0
-3.5118113 6.6996217 -1.1980563 0
-3.5361791 6.691452 -1.1987089 0
-3.5456097 6.6551857 -1.194335 0
-3.5868614 6.6785598 -1.2006811 0
-3.6061275 6.6607594 -1.1996479 0
-3.6371291 6.6645541 -1.202521 0
-3.645896 6.627676 -1.1980658 0
-3.664551 6.6090198 -1.1969076 0
-3.6916807 6.6056275 -1.1985281 0
-3.7150652 6.5954461 -1.1989341 0
-3.7368288 6.5823741 -1.1988286 0
-3.7585919 6.5693092 -1.1987375 0
-3.7793283 6.5544715 -1.1983355 0
-3.7928367 6.5272274 -1.1956728 0
-3.8271248 6.5356927 -1.1995673 0
-3.8504987 6.5253363 -1.2000293 0
-3.870435 6.5091605 -1.1994343 0
-3.8876381 6.488471 -1.198017 0
-3.9153311 6.4852724 -1.1998434 0
-3.929692 6.4600081 -1.1976001 0
-3.9604237 6.4616346 -1.2003566 0
-3.987716 6.4574685 -1.2020597 0
-4.0025463 6.433136 -1.2000215 0
-4.0204153 6.4138131 -1.1989249 0
-4.0528102 6.4175787 -1.202162 0
-4.0673895 6.393085 -1.2001216 0
-4.0973673 6.3927765 -1.2026359 0
-4.1207995 6.3821344 -1.2032262 0
-4.1197324 6.3337789 -1.1967071 0
-4.1544471 6.3405371 -1.2006091 0
-4.1729817 6.3224807 -1.1998326 0
-4.1857519 6.2958126 -1.1974283 0
-4.2249165 6.3087401 -1.2025745 0
-4.2362924 6.2800817 -1.1998124 0
-4.2460866 6.2493033 -1.1966453 0
-4.277782 6.2507639 -1.1996646 0
-4.2916551 6.2261434 -1.1976942 0
-4.3188934 6.2209196 -1.1994681 0
-4.3473411 6.2172937 -1.2015727 0
-4.3522735 6.1801214 -1.1972021 0
-4.376719 6.1707807 -1.1982286 0
-4.4110332 6.1751795 -1.2019478 0
-4.4333658 6.1626534 -1.2023962 0
-4.4413543 6.1302958 -1.1989815 0
-4.4639692 6.1182299 -1.1995422 0
-4.4827013 6.1008387 -1.1990724 0
-4.50348 6.0862465 -1.1991653 0
-4.5414076 6.0946608 -1.2038165 0
-4.5525484 6.067049 -1.2013708 0
-4.5591726 6.0336313 -1.1977738 0
-4.5914335 6.0341568 -1.2009274 0
-4.6083488 6.0144343 -1.2000705 0
-4.6264939 5.9963646 -1.1995534 0
-4.6478405 5.9824514 -1.1998807 0
-4.6536312 5.9486308 -1.1962202 0
-4.6895795 5.9533434 -1.2003229 0
-4.7092705 5.9372807 -1.200261 0
-4.7362399 5.9303346 -1.2020603 0
-4.7392035 5.893414 -1.1977907 0
-4.7756715 5.89816 -1.2020028 0
-4.780345 5.8636236 -1.1982242 0
-4.8056331 5.8544526 -1.1996359 0
-4.8310905 5.8453922 -1.2010916 0
-4.8541303 5.8333297 -1.2019506 0
-4.8601356 5.8008785 -1.198615 0
-4.8879099 5.7944522 -1.2006665 0
-4.903142 5.7731237 -1.1996467 0
-4.9025216 5.7333221 -1.194785 0
-4.9450221 5.7439232 -1.2004424 0
-4.979425 5.7448158 -1.2041115 0
-4.969007 5.6941104 -1.1969689 0
-5.0028429 5.6942325 -1.2005138 0
-5.0032258 5.6563077 -1.1960481 0
-5.0492463 5.6699142 -1.2024982 0
-5.0608821 5.6447601 -1.2007554 0
-5.0748487 5.6222973 -1.1995898 0
-5.0839944 5.5946026 -1.197311 0
-5.113771 5.589601 -1.1999032 0
-5.128427 5.5680203 -1.1989549 0
-5.1385231 5.5415807 -1.1969649 0
-5.1762018 5.5448108 -1.2014043 0
-5.200171 5.5331788 -1.202655 0
-5.2039866 5.5001683 -1.1992657 0
-5.2380958 5.4991693 -1.2028705 0
-5.2302952 5.4542446 -1.1968729 0
-5.263154 5.4518027 -1.2002026 0
-5.2816877 5.4344182 -1.2002672 0
-5.2990785 5.4158611 -1.200086 0
-5.3165517 5.3973989 -1.1999382 0
-5.3425112 5.3875027 -1.2017136 0
-5.3695817 5.3786125 -1.2037395 0
-5.3678446 5.3409376 -1.199329 0
-5.3969898 5.3340468 -1.2018383 0
-5.4104962 5.3116541 -1.2008734 0
-5.4125643 5.2781634 -1.1973978 0
-5.4472551 5.2764769 -1.2011517 0
-5.46205 5.2554269 -1.2005219 0
-5.4529419 5.2115679 -1.1946727 0
-5.4784145 5.2008791 -1.1964264 0
-5.4992909 5.1857533 -1.1971818 0
-5.5262728 5.1763029 -1.1992707 0
-5.5533762 5.1668434 -1.2013862 0
-5.5486336 5.127831 -1.1966342 0
-5.5795946 5.1218667 -1.1996011 0
-5.6089897 5.1143036 -1.2022276 0
-5.6205549 5.0904417 -1.2010415 0
-5.6283937 5.0632949 -1.1990821 0
-5.6382422 5.0380549 -1.1975749 0
-5.6546907 5.0187573 -1.1974877 0
-5.6683531 4.9970083 -1.1968263 0
-5.7025056 4.9932375 -1.2004957 0
-5.7137194 4.9693103 -1.1993421 0
-5.7386837 4.9573259 -1.2010868 0
-5.7500772 4.9335999 -1.2000026 0
-5.7741823 4.9207668 -1.2015833 0
-5.79602 4.9059258 -1.2026979 0
-5.7968822 4.8733892 -1.1994795 0
-5.8144646 4.854991 -1.1997427 0
-5.852675 4.8536849 -1.2042623 0
-5.8465681 4.8156281 -1.1996768 0
-5.8645864 4.7975574 -1.2000667 0
-5.886929 4.7829781 -1.2013503 0
-5.9139419 4.7720971 -1.203591 0
-5.9041152 4.7315712 -1.1983557 0
-5.9155955 4.7082863 -1.197475 0
-5.9528542 4.7054253 -1.2018168 0
-5.9755697 4.6909137 -1.2032207 0
-5.9889894 4.6690793 -1.202764 0
-5.9893599 4.6371655 -1.1997092 0
-6.0156546 4.6253476 -1.2018632 0
-6.035666 4.6086168 -1.2027673 0
-6.0602236 4.5952849 -1.204584 0
-6.0601501 4.5633092 -1.2015215 0
-6.0742517 4.5420938 -1.2012912 0
-6.0839119 4.5175929 -1.2001994 0
-6.1078753 4.503696 -1.2019411 0
-6.1186662 4.480062 -1.201102 0
-6.135253 4.4606857 -1.2014153 0
-6.1641321 4.4501672 -1.204142 0
-6.1497626 4.4085031 -1.1984408 0
-6.1776357 4.3972025 -1.2009928 0
-6.1948948 4.3782682 -1.2014875 0
-6.1994529 4.3503952 -1.1995358 0
-6.2134733 4.3292155 -1.1994333 0
-6.2242131 4.3057709 -1.1987131 0
-6.2559748 4.2968016 -1.2020487 0
-6.2631607 4.2709031 -1.2006713 0
-6.2451172 4.2279935 -1.194488 0
-6.289083 4.2270775 -1.2001797 0
-6.3147311 4.2136483 -1.2023715 0
-6.3278193 4.1917877 -1.2021807 0
-6.3317909 4.1639409 -1.2002763 0
-6.3190007 4.1252475 -1.195223 0
-6.3455276 4.1122885 -1.1976259 0
-6.3668714 4.0958738 -1.1990556 0
-6.3878813 4.0791736 -1.2004299 0
-6.4026299 4.0584354 -1.2006376 0
-6.4011893 4.0275011 -1.1978285 0
-6.4534793 4.030261 -1.2050779 0
-6.4375043 3.9903457 -1.1995898 0
-6.4443502 3.9647427 -1.1983818 0
-6.4577575 3.9432054 -1.1984097 0
-6.4819441 3.9281991 -1.2004472 0
-6.4910955 3.9040489 -1.1997112 0
-6.5082364 3.8847036 -1.2004651 0
-6.5310121 3.8686585 -1.2022669 0
-6.5537686 3.8525133 -1.2040714 0
-6.5400014 3.8149741 -1.1991854 0
-6.5412064 3.7863402 -1.1970719 0
-6.5822768 3.7807069 -1.2022614 0
-6.5633793 3.7406428 -1.1965122 0
-6.5880456 3.7254934 -1.1987251 0
-6.6158948 3.7120221 -1.2015212 0
-6.5862112 3.6663878 -1.193891 0
-6.6548963 3.6754501 -1.204101 0
-6.6655588 3.6522276 -1.203808 0
-6.6646905 3.6227508 -1.2014506 0
-6.6886148 3.6067564 -1.2035768 0
-6.6858687 3.5763931 -1.2009182 0
-6.7030816 3.556747 -1.2018611 0
-6.6888285 3.5204945 -1.1971824 0
-6.6990561 3.4972453 -1.1969076 0
-6.7250509 3.482173 -1.1994593 0
-6.7427626 3.4627252 -1.2005409 0
-6.7287693 3.4270775 -1.1959969 0
-6.7546873 3.4118044 -1.1985636 0
-6.7960186 3.4041302 -1.2038655 0
-6.759973 3.3577707 -1.1954793 0
-6.8119502 3.3551617 -1.2026751 0
-6.8076687 3.3247371 -1.1999444 0
-6.8430095 3.3136277 -1.2042086 0
-6.8241673 3.276304 -1.198953 0
-6.8356762 3.2536731 -1.1990516 0
-6.8407636 3.2280073 -1.1980388 0
-6.8747182 3.2158921 -1.2020904 0
-6.8839626 3.1921291 -1.2018286 0
-6.9021401 3.1724842 -1.2031384 0
-6.8941483 3.1408556 -1.1999028 0
-6.8953876 3.1135452 -1.1982949 0
-6.9300933 3.1012855 -1.2025123 0
-6.9244027 3.070915 -1.1997315 0
-6.9523029 3.0554352 -1.2027838 0
-6.92588 3.0161572 -1.1964563 0
-6.9520297 2.999856 -1.1992295 0
-6.9563155 2.9740791 -1.1982419 0
-6.9876204 2.9597921 -1.2019181 0
-6.9832973 2.9303854 -1.1994778 0
-6.9829168 2.9027293 -1.197734 0
-6.9998541 2.8822834 -1.1989748 0
-7.0163922 2.8616178 -1.2001574 0
-7.0179095 2.8348303 -1.1987845 0
-7.0297804 2.812247 -1.1991948 0
-7.033392 2.7863727 -1.1982105 0
-7.033741 2.7592628 -1.1966871 0
-7.0981112 2.7570896 -1.2060593 0
-7.0876327 2.7257061 -1.2027193 0
-7.1009741 2.7035425 -1.2034383 0
-7.0582881 2.6602297 -1.1946858 0
-7.0856023 2.6434271 -1.1978021 0
-7.1069813 2.6242919 -1.199922 0
-7.0912051 2.5914824 -1.1957847 0
-7.1024275 2.5686231 -1.1962181 0
-7.1323771 2.5524459 -1.1998142 0
-7.1332135 2.5257981 -1.1985236 0
-7.1859636 2.5173945 -1.2059618 0
-7.1542754 2.4793942 -1.199242 0
-7.1779037 2.4606574 -1.201813 0
-7.1688442 2.4307218 -1.1989249 0
-7.1817708 2.4082878 -1.1997296 0
-7.1901417 2.3843067 -1.1997857 0
-7.1740384 2.352298 -1.1957759 0
-7.192018 2.3315167 -1.197463 0
-7.2023182 2.3081987 -1.1978828 0
-7.2604218 2.3000054 -1.2062571 0
-7.2453456 2.2685277 -1.202482 0
-7.2323279 2.2378538 -1.1990694 0
-7.2295513 2.2104619 -1.1973736 0
-7.2486439 2.1897511 -1.199313 0
-7.2872376 2.1747744 -1.2044853 0
-7.275723 2.1447976 -1.2013867 0
-7.2748303 2.1180499 -1.20006 0
-7.2769747 2.0922334 -1.1992499 0
-7.2844372 2.0679619 -1.1993302 0
-7.2844596 2.0416017 -1.1982002 0
-7.3076715 2.0217059 -1.2008965 0
-7.31037 1.9960905 -1.2002333 0
-7.3045912 1.9682198 -1.1981945 0
-7.3364849 1.9504534 -1.2023466 0
-7.3194456 1.9196713 -1.1984925 0
-7.3299656 1.8961868 -1.1991674 0
-7.3283191 1.8695688 -1.1978658 0
-7.335721 1.8452834 -1.1980577 0
-7.3421283 1.8207426 -1.1981003 0
-7.3634748 1.7998512 -1.2005922 0
-7.3510399 1.7707138 -1.19759 0
-7.3688846 1.7488931 -1.1995351 0
-7.3592792 1.7205698 -1.1970258 0
-7.4143238 1.7072419 -1.2050412 0
-7.3884845 1.6752264 -1.199922 0
-7.3926268 1.650125 -1.1996894 0
-7.413012 1.6286018 -1.2021047 0
-7.4281592 1.6058414 -1.2036811 0
-7.4047055 1.5748029 -1.1990184 0
-7.3982291 1.5475169 -1.1971227 0
-7.409833 1.5240314 -1.1981667 0
-7.4263868 1.5015013 -1.2000227 0
-7.4200454 1.4743416 -1.1981925 0
-7.4117498 1.446879 -1.1960628 0
-7.4460697 1.4276791 -1.200822 0
-7.4417558 1.4010003 -1.199362 0
-7.4630709 1.3791201 -1.2020453 0
-7.4427772 1.3495795 -1.1980411 0
-7.4529605 1.3256315 -1.1989582 0
-7.4701734 1.30287 -1.2010177 0
-7.4640579 1.2760315 -1.1993399 0
-7.4585824 1.249372 -1.1977803 0
-7.4648075 1.2246987 -1.1981138 0
-7.4777055 1.2010826 -1.199531 0
-7.4883742 1.177055 -1.2006024 0
-7.4821014 1.1503766 -1.1989716 0
-7.4960318 1.1268046 -1.2005917 0
-7.5205579 1.1047194 -1.2039199 0
-7.4883795 1.0743562 -1.1981853 0
-7.5191789 1.0530579 -1.2025417 0
-7.4823513 1.0223331 -1.196097 0
-7.4903455 0.99785441 -1.1968334 0
-7.5254087 0.97685778 -1.2019058 0
-7.5172114 0.95017624 -1.200081 0
-7.5209355 0.92503852 -1.2001736 0
-7.5114655 0.89831865 -1.1981751 0
-7.5332146 0.87531114 -1.2011695 0
-7.4930182 0.84518844 -1.1943016 0
-7.5136046 0.82200783 -1.1971369 0
-7.5351901 0.79881215 -1.2001426 0
-7.5334754 0.7730971 -1.1994499 0
-7.5282183 0.7470597 -1.1982074 0
-7.5513406 0.72379506 -1.2014945 0
-7.5409131 0.6972881 -1.1994566 0
-7.564733 0.67391849 -1.2028793 0
-7.542706 0.64647365 -1.1990254 0
-7.5536742 0.62190884 -1.2004308 0
-7.558702 0.59681499 -1.200905 0
-7.5526342 0.57086205 -1.19963 0
-7.5765491 0.54712808 -1.2031305 0
-7.5600076 0.52046013 -1.20022 0
-7.5654202 0.49535286 -1.2008088 0
-7.5536895 0.46915555 -1.1986904 0
-7.5778031 0.44515345 -1.2022734 0
-7.5734978 0.41942528 -1.2013605 0
-7.5476851 0.39261675 -1.1970503 0
-7.5734868 0.36850202 -1.2009398 0
-7.544559 0.34174311 -1.1961643 0
-7.5668921 0.31733602 -1.1995295 0
-7.6000371 0.29320318 -1.2046212 0
-7.5876961 0.26725224 -1.2025163 0
-7.5922899 0.24192983 -1.2031091 0
-7.5739288 0.21592759 -1.2000781 0
-7.5445223 0.18977557 -1.1953111 0
-7.5719309 0.16506369 -1.1995591 0
-7.5946231 0.14008465 -1.2030729 0
-7.5989475 0.11467935 -1.2036903 0
-7.5870123 0.08905676 -1.2017457 0
-7.5868473 0.063614905 -1.201679 0
-7.5875883 0.038180158 -1.2017694 0
-7.5540872 0.012683795 -1.1964498 0
-7.5778766 2.0108577e-05 -1.2002159 0
-9.7574558 -0.016383393 -1.1980648 0
-9.7624121 -0.049123701 -1.1986868 0
-9.7791452 -0.081997097 -1.2007685 0
-9.7782688 -0.11477785 -1.2007014 0
-9.77705 -0.14755014 -1.2006058 0
-9.7820587 -0.18043242 -1.2012882 0
-9.7940474 -0.21350455 -1.2028418 0
-9.7891808 -0.24623792 -1.2023387 0
-9.7749386 -0.27867687 -1.2006974 0
-9.7358751 -0.31023559 -1.1960201 0
-9.7680893 -0.3440496 -1.2001126 0
-9.7547503 -0.37633023 -1.1986219 0
-9.7657661 -0.40955114 -1.2001375 0
-9.7709827 -0.44259262 -1.2009542 0
-9.7420759 -0.47401872 -1.1975899 0
-9.7662992 -0.50802499 -1.2007703 0
-9.7817688 -0.54172081 -1.2028888 0
-9.7346849 -0.57185817 -1.1973279 0
-9.7491312 -0.60551327 -1.1993477 0
-9.7363901 -0.63749909 -1.1980363 0
-9.7686071 -0.67250866 -1.2022713 0
-9.7330313 -0.70285493 -1.1981761 0
-9.7544508 -0.7372852 -1.2011105 0
-9.7501516 -0.76984596 -1.2008922 0
-9.7313185 -0.80119848 -1.1988966 0
-9.7288866 -0.83384776 -1.1989348 0
-9.7142048 -0.86540818 -1.1974763 0
-9.7323542 -0.89992481 -1.2000788 0
-9.7395887 -0.93353838 -1.2013501 0
-9.7060471 -0.96317565 -1.1976044 0
-9.7291155 -0.99841708 -1.200857 0
-9.7397251 -1.0325167 -1.2025871 0
-9.7111826 -1.0624286 -1.199496 0
-9.7246752 -1.0969121 -1.2016101 0
-9.6774635 -1.124459 -1.1962355 0
-9.6876698 -1.1585774 -1.1979706 0
-9.7140465 -1.1947805 -1.201721 0
-9.6808538 -1.2236608 -1.1981155 0
-9.6714106 -1.2554258 -1.197461 0
-9.7022753 -1.2925249 -1.2018124 0
-9.6747084 -1.3218806 -1.1989399 0
-9.6617126 -1.3531189 -1.1978849 0
-9.6632614 -1.3863862 -1.1986465 0
-9.6799583 -1.4219209 -1.2013023 0
-9.6699944 -1.4535949 -1.2006638 0
-9.6437654 -1.4827334 -1.1980176 0
-9.6549406 -1.5176054 -1.2000313 0
-9.6708441 -1.5533484 -1.2026485 0
-9.6335392 -1.5805073 -1.1986616 0
-9.634079 -1.6137849 -1.1993953 0
-9.6162596 -1.643965 -1.1978562 0
-9.6258945 -1.6788485 -1.1997509 0
-9.6400614 -1.7146435 -1.2022264 0
-9.5811224 -1.7373201 -1.1955957 0
-9.5961552 -1.7732984 -1.1982069 0
-9.6120262 -1.8095797 -1.2009393 0
-9.6073942 -1.8420825 -1.2011255 0
-9.5733089 -1.8688462 -1.1976408 0
-9.5988741 -1.9072686 -1.2016323 0
-9.5941839 -1.9397967 -1.2018526 0
-9.5948868 -1.9734466 -1.2027627 0
-9.5543766 -1.9985269 -1.1985178 0
-9.5652018 -2.0342884 -1.2007246 0
-9.5725698 -2.0694263 -1.2025138 0
-9.545722 -2.0971475 -1.2000176 0
-9.5344677 -2.1282103 -1.1994932 0
-9.5316343 -2.1611531 -1.2000415 0
-9.5405741 -2.1968379 -1.2020876 0
-9.4932165 -2.219476 -1.1970515 0
-9.515975 -2.2584727 -1.2008694 0
-9.5037794 -2.2892644 -1.2002922 0
-9.4966269 -2.3212569 -1.2003651 0
-9.5149336 -2.3595672 -1.2036722 0
-9.4586134 -2.3792918 -1.1975499 0
-9.490859 -2.4212666 -1.2026535 0
-9.4482241 -2.4441588 -1.1982827 0
-9.4590635 -2.480829 -1.2007056 0
-9.4384041 -2.5092626 -1.1991444 0
-9.4375067 -2.5429332 -1.2001069 0
-9.4135904 -2.5703733 -1.1981548 0
-9.4350796 -2.6102648 -1.201997 0
-9.4334869 -2.6439052 -1.2029166 0
-9.3805037 -2.6630094 -1.1972923 0
-9.3712978 -2.694381 -1.1972636 0
-9.4004068 -2.7369065 -1.2021481 0
-9.3987417 -2.7706387 -1.2031164 0
-9.367197 -2.7955093 -1.2002715 0
-9.3631372 -2.828521 -1.2009597 0
-9.349719 -2.858711 -1.2004613 0
-9.3481407 -2.8925364 -1.2014971 0
-9.3150606 -2.9165583 -1.1984955 0
-9.3299141 -2.9555931 -1.2016747 0
-9.294076 -2.9785655 -1.1983385 0
-9.285327 -3.010128 -1.1985049 0
-9.298665 -3.0489426 -1.2015392 0
-9.2842379 -3.0787253 -1.2010021 0
-9.3049192 -3.1202502 -1.2050239 0
-9.2659092 -3.1417685 -1.2013295 0
-9.240469 -3.1677253 -1.1994014 0
-9.2283239 -3.1981788 -1.19921 0
-9.2351904 -3.2352817 -1.2015051 0
-9.2217112 -3.2653139 -1.201169 0
-9.1901665 -3.2888618 -1.1984898 0
-9.1734009 -3.3175995 -1.1977472 0
-9.190012 -3.3584919 -1.2013797 0
-9.1621084 -3.3831589 -1.199208 0
-9.1607304 -3.4175956 -1.2005208 0
-9.1342249 -3.4426389 -1.1985531 0
-9.1461201 -3.4821875 -1.2016391 0
-9.1226749 -3.5083265 -1.2000974 0
-9.1228542 -3.5435522 -1.2016773 0
-9.1060133 -3.5721936 -1.2010298 0
-9.0804396 -3.597338 -1.1992408 0
-9.0549984 -3.6224306 -1.1974782 0
-9.0734854 -3.6651642 -1.2015413 0
-9.0614538 -3.6956909 -1.2015822 0
-9.043438 -3.7237566 -1.2008421 0
-9.0198736 -3.7494719 -1.1993756 0
-9.0216112 -3.7857184 -1.2012877 0
-9.0273151 -3.8237591 -1.2037476 0
-8.9981995 -3.847059 -1.2015784 0
-8.9726677 -3.8717773 -1.1998957 0
-8.967041 -3.9050641 -1.2008874 0
-8.9425077 -3.9301012 -1.1993598 0
-8.9481993 -3.9684517 -1.2019008 0
-8.9122095 -3.9883022 -1.1988562 0
-8.9178762 -4.0267801 -1.2014279 0
-8.8823929 -4.0466657 -1.1984687 0
-8.8962183 -4.0890379 -1.2021772 0
-8.887023 -4.1209583 -1.2027949 0
-8.8577509 -4.1435256 -1.2007067 0
-8.8399086 -4.1713605 -1.2001771 0
-8.8494625 -4.2122035 -1.2033849 0
-8.7910891 -4.2206292 -1.1973646 0
-8.7690744 -4.2462969 -1.1962986 0
-8.7925425 -4.2941122 -1.2014575 0
-8.7871542 -4.3280296 -1.2026974 0
-8.7502165 -4.3463521 -1.1996295 0
-8.7343483 -4.3750405 -1.1994584 0
-8.7187529 -4.4038577 -1.1993377 0
-8.7042952 -4.4332471 -1.1993868 0
-8.7109337 -4.4734735 -1.2023615 0
-8.6783371 -4.4935679 -1.1999351 0
-8.6652861 -4.5237164 -1.2002208 0
-8.6399288 -4.5474067 -1.1988138 0
-8.6410961 -4.5850844 -1.201102 0
-8.6112537 -4.6063161 -1.1990938 0
-8.6043253 -4.6397805 -1.2002885 0
-8.6068201 -4.6784415 -1.202818 0
-8.5589552 -4.6896672 -1.1983196 0
-8.5445395 -4.7190862 -1.1985097 0
-8.5272846 -4.7469373 -1.1983151 0
-8.531105 -4.7866011 -1.2011005 0
-8.5134516 -4.8142967 -1.2008809 0
-8.4971619 -4.8427567 -1.2008667 0
-8.4697838 -4.8648467 -1.1992959 0
-8.4543867 -4.8937736 -1.1994323 0
-8.4344816 -4.9200802 -1.1989419 0
-8.4104586 -4.9439349 -1.1978767 0
-8.4091816 -4.9811964 -1.2000667 0
-8.4222651 -5.0271688 -1.2043325 0
-8.3665991 -5.0320649 -1.1987784 0
-8.3516607 -5.0612884 -1.1990627 0
-8.3258476 -5.08389 -1.1977972 0
-8.320467 -5.1189818 -1.1994855 0
-8.3138723 -5.1534295 -1.2010189 0
-8.2798805 -5.170867 -1.1986063 0
-8.2825613 -5.2112226 -1.2015169 0
-8.2330065 -5.218657 -1.1968598 0
-8.2165298 -5.2469125 -1.1970152 0
-8.2197962 -5.287879 -1.2000672 0
-8.2056608 -5.3177681 -1.2005998 0
-8.194562 -5.3496742 -1.2015934 0
-8.1875296 -5.3843198 -1.2032026 0
-8.1382284 -5.3910713 -1.198607 0
-8.1063557 -5.4091506 -1.1965771 0
-8.1138268 -5.4535408 -1.2003722 0
-8.1028986 -5.4857264 -1.2014698 0
-8.071435 -5.5039806 -1.1995341 0
-8.0392761 -5.5216293 -1.1974993 0
-8.0439835 -5.5646472 -1.2009728 0
-8.014678 -5.5841985 -1.1993862 0
-8.0040417 -5.616745 -1.2006059 0
-7.9814582 -5.6409297 -1.2000486 0
-7.9703841 -5.6732697 -1.2012367 0
-7.9665031 -5.7108469 -1.2035309 0
-7.9312277 -5.725914 -1.2010952 0
-7.910151 -5.7511396 -1.2008168 0
-7.8942976 -5.7801719 -1.2013453 0
-7.880528 -5.8107772 -1.202208 0
-7.8516641 -5.8302331 -1.20078 0
-7.8333392 -5.8574729 -1.2009743 0
-7.8121123 -5.8825412 -1.200737 0
-7.7864208 -5.9042082 -1.1998241 0
-7.7621064 -5.9268641 -1.1991327 0
-7.749136 -5.9581962 -1.2002084 0
-7.7144055 -5.9727545 -1.1979241 0
-7.7215466 -6.0197992 -1.2021604 0
-7.6862178 -6.0337987 -1.199803 0
-7.6614728 -6.0560007 -1.1991031 0
-7.667028 -6.1022706 -1.203168 0
-7.6341662 -6.1180377 -1.2012234 0
-7.6071658 -6.1383991 -1.2002065 0
-7.5816364 -6.159884 -1.1994305 0
-7.5860615 -6.2058191 -1.2034155 0
-7.5444999 -6.2141595 -1.2001208 0
-7.5099988 -6.2281208 -1.1979475 0
-7.4975162 -6.260314 -1.1992978 0
-7.4983273 -6.3037796 -1.2028016 0
-7.4548616 -6.3100195 -1.1992162 0
-7.4400096 -6.3403873 -1.2002401 0
-7.4128027 -6.3602281 -1.1992843 0
-7.4083815 -6.399684 -1.2020338 0
-7.3808465 -6.4192371 -1.2010515 0
-7.330389 -6.4186478 -1.196336 0
-7.325243 -6.4576607 -1.199023 0
-7.3011646 -6.4800668 -1.1986313 0
-7.2861147 -6.5105124 -1.1997374 0
-7.2708845 -6.5408773 -1.2008339 0
-7.2510295 -6.5671353 -1.2011845 0
-7.1959147 -6.5612693 -1.1956919 0
-7.2011194 -6.6103678 -1.2002327 0
-7.1764131 -6.6321616 -1.1998143 0
-7.1629276 -6.6643653 -1.2012887 0
-7.1270494 -6.6757045 -1.1990186 0
-7.1149087 -6.7092581 -1.2007538 0
-7.1019835 -6.7421985 -1.2023808 0
-7.0575266 -6.7451258 -1.1986762 0
-7.0423598 -6.7759552 -1.199952 0
-7.0318136 -6.811358 -1.2020396 0
-6.9983463 -6.8245683 -1.2002233 0
-6.9754171 -6.8479857 -1.2002219 0
-6.9397955 -6.8588595 -1.1980429 0
-6.9245601 -6.8898497 -1.1993939 0
-6.9010267 -6.9126329 -1.1993253 0
-6.8668251 -6.9246531 -1.1974096 0
-6.862782 -6.9671421 -1.2007712 0
-6.8316908 -6.9822502 -1.1994206 0
-6.8059659 -7.0027742 -1.1990196 0
-6.7792625 -7.0222535 -1.1984563 0
-6.7596712 -7.0491052 -1.1991643 0
-6.7291431 -7.0645323 -1.1979438 0
-6.7228079 -7.1054325 -1.2010504 0
-6.7062211 -7.135673 -1.2023546 0
-6.6745377 -7.1498466 -1.2009653 0
-6.6580186 -7.180263 -1.202318 0
-6.615314 -7.1823583 -1.1989481 0
-6.6194482 -7.2353792 -1.2040873 0
-6.5660148 -7.2254686 -1.1987677 0
-6.5505567 -7.2571974 -1.200381 0
-6.5204239 -7.2726903 -1.1993209 0
-6.4972792 -7.2959437 -1.1995565 0
-6.46802 -7.312305 -1.1986742 0
-6.4399395 -7.3299346 -1.198018 0
-6.4458671 -7.3864818 -1.203721 0
-6.395607 -7.3786807 -1.1989485 0
-6.3672342 -7.3959036 -1.1982715 0
-6.3486285 -7.4244919 -1.1994479 0
-6.334322 -7.4582429 -1.2014627 0
-6.3022609 -7.4711175 -1.2001261 0
-6.2772794 -7.4923291 -1.2001457 0
-6.2303014 -7.4871092 -1.1959568 0
-6.2361889 -7.545495 -1.2019365 0
-6.2088461 -7.5639143 -1.2015476 0
-6.177876 -7.5778503 -1.2004644 0
-6.1358581 -7.5780487 -1.19723 0
-6.1338663 -7.6277404 -1.2018247 0
-6.1053338 -7.6446028 -1.2012495 0
-6.0688586 -7.6514006 -1.1991136 0
-6.0412664 -7.6692877 -1.1987357 0
-6.0263886 -7.7033949 -1.2009019 0
-6.0006843 -7.7237597 -1.2009333 0
-5.9674511 -7.7343698 -1.1994654 0
-5.938343 -7.7502327 -1.198831 0
-5.914155 -7.7725048 -1.1992022 0
-5.8977871 -7.8051605 -1.2011828 0
-5.8625622 -7.8128667 -1.199337 0
-5.8299713 -7.8239398 -1.1980295 0
-5.8172288 -7.8617177 -1.2008209 0
-5.7763739 -7.8614926 -1.1978216 0
-5.7549696 -7.88765 -1.1988604 0
-5.7431951 -7.9271955 -1.2019376 0
-5.694222 -7.9153218 -1.1972357 0
-5.6772165 -7.9477601 -1.1992563 0
-5.6655822 -7.9879618 -1.2024494 0
-5.6421204 -8.011672 -1.2031642 0
-5.6026292 -8.0125284 -1.200465 0
-5.5797606 -8.0370684 -1.201332 0
-5.5497785 -8.0513735 -1.2006822 0
-5.5148535 -8.0583925 -1.1989648 0
-5.4942603 -8.08634 -1.2003753 0
-5.4563727 -8.0887871 -1.1980162 0
-5.4407148 -8.124197 -1.2005522 0
-5.412137 -8.1404257 -1.2002621 0
-5.3844776 -8.1580172 -1.2001873 0
-5.3465428 -8.1599197 -1.1978232 0
-5.3250594 -8.1868792 -1.1991531 0
-5.3065047 -8.2185087 -1.2011731 0
-5.287468 -8.2495899 -1.2031181 0
-5.2381749 -8.2333155 -1.1981764 0
-5.2252874 -8.2741833 -1.2015675 0
-5.1988764 -8.2938251 -1.2018819 0
-5.1588483 -8.2916155 -1.1990484 0
-5.1252947 -8.2995949 -1.1977106 0
-5.1149702 -8.345336 -1.2018299 0
-5.0745082 -8.3419666 -1.1988877 0
-5.0547767 -8.3726263 -1.2008516 0
-5.0353265 -8.403964 -1.2029181 0
-4.997654 -8.4048767 -1.2006435 0
-4.9630661 -8.4107742 -1.199102 0
-4.9348326 -8.4273567 -1.1991007 0
-4.9257355 -8.4768734 -1.2037895 0
-4.8824749 -8.4676533 -1.2001487 0
-4.8543248 -8.4844437 -1.2002149 0
-4.8207002 -8.4915991 -1.198934 0
-4.8028126 -8.5265512 -1.2015885 0
-4.7748561 -8.5437841 -1.2017542 0
-4.7474589 -8.5620451 -1.202077 0
-4.706964 -8.5565338 -1.1990811 0
-4.6858511 -8.5861969 -1.2010294 0
-4.6648331 -8.6162596 -1.20304 0
-4.6214814 -8.6049709 -1.1992936 0
-4.5996375 -8.6336193 -1.2011303 0
-4.5571318 -8.6233835 -1.1975739 0
-4.535357 -8.6522799 -1.1994683 0
-4.4967518 -8.6490307 -1.196921 0
-4.4815869 -8.6909351 -1.2006339 0
-4.4441266 -8.6896906 -1.1983968 0
-4.4018559 -8.6786919 -1.1948379 0
-4.3946466 -8.736968 -1.2008257 0
-4.3456993 -8.7123003 -1.1954261 0
-4.3305798 -8.7553606 -1.1993353 0
-4.3088694 -8.7854681 -1.2014738 0
-4.2718472 -8.7843561 -1.1993563 0
-4.2416949 -8.7972279 -1.1991652 0
-4.2065363 -8.7996025 -1.1975598 0
-4.1883516 -8.8375902 -1.2008116 0
-4.1582174 -8.8505621 -1.2006731 0
-4.1274023 -8.8620539 -1.2003481 0
-4.0912595 -8.8619652 -1.1984713 0
-4.0670233 -8.8876495 -1.200094 0
-4.0489178 -8.9270678 -1.2035767 0
-4.00633 -8.9124861 -1.199793 0
-3.9825039 -8.9395123 -1.201627 0
-3.9375324 -8.918891 -1.1970739 0
-3.9170232 -8.9535666 -1.1999586 0
-3.8855448 -8.963335 -1.199515 0
-3.8511961 -8.9663601 -1.1981851 0
-3.8313034 -9.003171 -1.2013808 0
-3.7979686 -9.0085487 -1.2003924 0
-3.7693336 -9.0250397 -1.200899 0
-3.7362487 -9.0308485 -1.1999984 0
-3.7118294 -9.0576744 -1.2019025 0
-3.673769 -9.0511694 -1.1993982 0
-3.6379642 -9.0499096 -1.1976081 0
-3.6224487 -9.0993519 -1.2025371 0
-3.5897501 -9.1059427 -1.2018106 0
-3.553477 -9.1032677 -1.1998785 0
-3.5207281 -9.1094189 -1.1991266 0
-3.5011504 -9.1498775 -1.2029004 0
-3.4735458 -9.1697302 -1.2039725 0
-3.4388804 -9.1709204 -1.2026081 0
-3.4041719 -9.1717806 -1.2012175 0
-3.3684034 -9.1695366 -1.1994377 0
-3.3429201 -9.1953011 -1.201335 0
-3.2975707 -9.166151 -1.1960754 0
-3.2728665 -9.1941414 -1.1982894 0
-3.2484608 -9.2233458 -1.2006693 0
-3.2203064 -9.2421865 -1.2017096 0
-3.1878059 -9.2485943 -1.2011462 0
-3.1495919 -9.2381487 -1.1984116 0
-3.1268909 -9.2732439 -1.2015975 0
-3.0884697 -9.2617474 -1.1987593 0
-3.0537817 -9.2610788 -1.1973407 0
-3.0219347 -9.2688761 -1.1970322 0
-2.9969952 -9.298049 -1.1994953 0
-2.968224 -9.3156414 -1.2004741 0
-2.9309192 -9.3063154 -1.1979994 0
-2.9022889 -9.3244066 -1.1990688 0
-2.8731 -9.3408823 -1.1999419 0
-2.8416541 -9.3500948 -1.1998948 0
-2.8109257 -9.3616905 -1.2001666 0
-2.7712743 -9.343255 -1.1966053 0
-2.7379847 -9.3458452 -1.1957546 0
-2.7119639 -9.373394 -1.1981091 0
-2.6861179 -9.4020224 -1.2006105 0
-2.6546376 -9.4111814 -1.2006369 0
-2.6148653 -9.3905687 -1.1968819 0
-2.5869439 -9.4123011 -1.1985396 0
-2.5594177 -9.4358387 -1.2004374 0
-2.5180454 -9.4080448 -1.1958207 0
-2.4926546 -9.4397888 -1.1987864 0
-2.4573231 -9.4340124 -1.1969999 0
-2.4406798 -9.5005913 -1.2044024 0
-2.3972731 -9.4631701 -1.1986327 0
-2.3712187 -9.4939251 -1.2015146 0
-2.3403258 -9.5056877 -1.2020035 0
-2.298516 -9.4725752 -1.196835 0
-2.2731311 -9.5069437 -1.2002078 0
-2.2451847 -9.5312443 -1.2023184 0
-2.2059963 -9.5076036 -1.1983966 0
-2.1703598 -9.4985476 -1.1963311 0
-2.144362 -9.5318241 -1.1996101 0
-2.1091871 -9.5244904 -1.1977903 0
-2.0828779 -9.5573711 -1.2010404 0
-2.0521293 -9.5703974 -1.2018059 0
-2.0138788 -9.5480614 -1.1981463 0
-1.9859036 -9.5742798 -1.2005942 0
-1.9464507 -9.5448856 -1.1960832 0
-1.9218749 -9.5884638 -1.2007298 0
-1.8841623 -9.5666571 -1.1972011 0
-1.854851 -9.5872602 -1.1989945 0
-1.8220149 -9.589839 -1.1985463 0
-1.7903185 -9.5983963 -1.1988589 0
-1.7581698 -9.6045799 -1.1988882 0
-1.7274851 -9.618926 -1.1999493 0
-1.6942768 -9.6192818 -1.1992781 0
-1.6615232 -9.622056 -1.1989229 0
-1.6318514 -9.6429281 -1.200835 0
-1.5979323 -9.6388206 -1.1996495 0
-1.5690963 -9.6656227 -1.2023239 0
-1.5315764 -9.6387072 -1.1983303 0
-1.5027856 -9.6665239 -1.2011553 0
-1.4692953 -9.6644583 -1.2002798 0
-1.4377196 -9.6749535 -1.2009779 0
-1.4049436 -9.6774502 -1.2006962 0
-1.3736631 -9.6903877 -1.2017233 0
-1.3409747 -9.6935606 -1.2015525 0
-1.3090935 -9.7026491 -1.2021283 0
-1.2760851 -9.7034121 -1.2016859 0
-1.2428178 -9.7019634 -1.2009838 0
-1.2112031 -9.7134638 -1.2018979 0
-1.1777974 -9.7106152 -1.2010499 0
-1.1437179 -9.7016582 -1.1994611 0
-1.1073632 -9.6720695 -1.1953372 0
-1.0810694 -9.7310047 -1.2021661 0
-1.0479198 -9.7297716 -1.2015729 0
-1.0128835 -9.7101431 -1.1987227 0
-0.98471183 -9.7569857 -1.2040912 0
-0.94874984 -9.7269821 -1.1999892 0
-0.91824687 -9.752573 -1.2027596 0
-0.88384795 -9.7369213 -1.2004571 0
-0.8487612 -9.7119598 -1.1970221 0
-0.81735897 -9.7286158 -1.1987305 0
-0.78402859 -9.7225275 -1.1976496 0
-0.75182831 -9.7303028 -1.1982902 0
-0.72044641 -9.7496338 -1.2003666 0
-0.68683547 -9.7389746 -1.198764 0
-0.65445447 -9.7453299 -1.1992694 0
-0.62377161 -9.7787457 -1.2031175 0
-0.58900154 -9.7480078 -1.199086 0
-0.55659896 -9.7549047 -1.1996981 0
-0.523476 -9.7490158 -1.1987512 0
-0.4910374 -9.7557011 -1.1993641 0
-0.45902354 -9.772151 -1.2011905 0
-0.42676735 -9.7853422 -1.2026292 0
-0.39418012 -9.7922716 -1.2033118 0
-0.36010945 -9.7600164 -1.199193 0
-0.32692841 -9.7475882 -1.1975245 0
-0.2948136 -9.767477 -1.1998397 0
-0.2619265 -9.7633047 -1.1992126 0
-0.22880681 -9.7477818 -1.1972049 0
-0.1970816 -9.7961397 -1.2030563 0
-0.16390531 -9.7770262 -1.2006348 0
-0.13130842 -9.7912836 -1.2023247 0
-0.098280035 -9.7718496 -1.1998911 0
-0.065630734 -9.7891912 -1.2019868 0
-0.032782625 -9.7814693 -1.2010183 0
1.2972619e-05 -9.7774105 -1.2005132 0
0.032747518 -9.7632647 -1.198783 0
0.065556131 -9.7741947 -1.2001454 0
0.098518603 -9.7929869 -1.2024866 0
0.13122608 -9.7832069 -1.201333 0
0.16401462 -9.7819986 -1.2012454 0
0.19643062 -9.7624941 -1.1989244 0
0.22924556 -9.7653694 -1.1993651 0
0.26222849 -9.7735949 -1.2004766 0
0.2951065 -9.7763205 -1.2009262 0
0.32789868 -9.7757435 -1.2009835 0
0.35972202 -9.7488146 -1.1978167 0
0.39345372 -9.7735815 -1.2010151 0
0.42574623 -9.7613335 -1.1996788 0
0.45946133 -9.7809172 -1.2022681 0
0.49077025 -9.7498789 -1.1986485 0
0.52466708 -9.7707129 -1.2014194 0
0.55417627 -9.7119913 -1.1944206 0
0.58933902 -9.7531633 -1.1997204 0
0.62131077 -9.7397604 -1.1983212 0
0.65642023 -9.7742128 -1.2028241 0
0.68752128 -9.7483301 -1.1999159 0
0.71873158 -9.7260761 -1.1974664 0
0.75436378 -9.7627802 -1.2022901 0
0.78665084 -9.7547216 -1.2016157 0
0.82037264 -9.7641754 -1.2031122 0
0.85112739 -9.7387362 -1.2003226 0
0.88258034 -9.7226706 -1.1987004 0
0.91399467 -9.7071352 -1.1971562 0
0.94752014 -9.7141085 -1.1984012 0
0.97973073 -9.7073727 -1.1979688 0
1.0144392 -9.7248068 -1.2005334 0
1.049016 -9.7397079 -1.2028003 0
1.0809808 -9.7299719 -1.2020388 0
1.1135225 -9.7256384 -1.2019579 0
1.1419381 -9.6863394 -1.1975676 0
1.1800539 -9.7290039 -1.2033247 0
1.2065498 -9.6759367 -1.1972548 0
1.2402974 -9.682085 -1.1985234 0
1.2750506 -9.6953459 -1.2006874 0
1.308486 -9.6979532 -1.2015468 0
1.3417436 -9.6989298 -1.2022184 0
1.3690885 -9.6579332 -1.197699 0
1.4034746 -9.6671495 -1.1994188 0
1.4378304 -9.6755238 -1.2010491 0
1.4670906 -9.6497841 -1.1984578 0
1.4977944 -9.6342506 -1.1971456 0
1.5313079 -9.6368532 -1.1981002 0
1.5681427 -9.659586 -1.2015734 0
1.5992523 -9.6466236 -1.2006212 0
1.6336076 -9.6531496 -1.2021085 0
1.6594683 -9.6100044 -1.1974217 0
1.6941371 -9.6183386 -1.1991612 0
1.7210311 -9.5828438 -1.1954485 0
1.7596313 -9.6124201 -1.1998674 0
1.7912172 -9.6030741 -1.1994436 0
1.8224016 -9.5917368 -1.198784 0
1.8539912 -9.5826797 -1.1984223 0
1.8887998 -9.5900688 -1.2001317 0
1.9198592 -9.5782757 -1.1994545 0
1.9463745 -9.544383 -1.1960208 0
1.9852272 -9.5708914 -1.2001699 0
2.0143683 -9.5502558 -1.1984224 0
2.0485067 -9.5533791 -1.1996696 0
2.0818472 -9.5525208 -1.2004315 0
2.1168022 -9.5587578 -1.2021005 0
2.1480556 -9.5481243 -1.2016622 0
2.1809657 -9.5448475 -1.2021633 0
2.2043808 -9.5005255 -1.1975051 0
2.2390645 -9.5051489 -1.1990274 0
2.2776215 -9.5256128 -1.2025653 0
2.3047159 -9.4980154 -1.2000501 0
2.3402095 -9.5051069 -1.2019308 0
2.3707473 -9.491931 -1.201263 0
2.3969791 -9.4619036 -1.1984732 0
2.4287636 -9.4541016 -1.1985097 0
2.4621015 -9.4522543 -1.1993152 0
2.4985843 -9.4621429 -1.2016261 0
2.5233381 -9.4277201 -1.1983223 0
2.5605664 -9.4399748 -1.2009645 0
2.5886004 -9.4182301 -1.1992955 0
2.620297 -9.4099789 -1.1993567 0
2.6470966 -9.3843517 -1.197215 0
2.6802025 -9.3812227 -1.1979555 0
2.7178669 -9.3937025 -1.200706 0
2.7504518 -9.3883085 -1.2011886 0
2.7765191 -9.3608465 -1.1988592 0
2.8099108 -9.3582201 -1.1997226 0
2.8445325 -9.359477 -1.2010996 0
2.8739624 -9.3435974 -1.2002916 0
2.899574 -9.3155975 -1.1979369 0
2.9272542 -9.2945929 -1.1964912 0
2.9663603 -9.3097067 -1.1997104 0
3.003525 -9.318223 -1.2020988 0
3.0243618 -9.2762365 -1.1979839 0
3.0585608 -9.2754898 -1.1992049 0
3.0938153 -9.2776966 -1.2008246 0
3.1218755 -9.2582884 -1.1996607 0
3.148917 -9.2360897 -1.1981454 0
3.1926134 -9.2624626 -1.2029485 0
3.2212324 -9.2447653 -1.202046 0
3.244972 -9.2133617 -1.1993707 0
3.2819846 -9.2196789 -1.2016188 0
3.3128586 -9.2085695 -1.2016118 0
3.3336115 -9.1696196 -1.197981 0
3.3656008 -9.1618328 -1.1984311 0
3.4021258 -9.166194 -1.200487 0
3.4324279 -9.1536388 -1.2003431 0
3.4555881 -9.1222506 -1.1977397 0
3.4798961 -9.0942602 -1.1955898 0
3.526686 -9.1247616 -1.2011474 0
3.5399053 -9.068428 -1.1952876 0
3.5868967 -9.0986338 -1.2008473 0
3.6253145 -9.1064806 -1.2034804 0
3.6422544 -9.0605125 -1.1990125 0
3.6707618 -9.0436907 -1.1984085 0
3.7109325 -9.0554161 -1.2016042 0
3.7402003 -9.0403318 -1.2012599 0
3.7784708 -9.0468493 -1.2038025 0
3.8007884 -9.0151701 -1.2012761 0
3.8235738 -8.9849415 -1.1989496 0
3.8628526 -8.993433 -1.2018043 0
3.8777926 -8.9453869 -1.1971145 0
3.9061854 -8.9287291 -1.1966312 0
3.96016 -8.9700813 -1.2039459 0
3.9858692 -8.9470024 -1.2026353 0
4.0161147 -8.9341898 -1.2027162 0
4.0395474 -8.9063444 -1.2007842 0
4.0572829 -8.8663015 -1.1972128 0
4.1001592 -8.8811808 -1.2010715 0
4.1279335 -8.8631334 -1.2004957 0
4.1537256 -8.8409395 -1.1993693 0
4.1871848 -8.8350668 -1.2004703 0
4.227303 -8.8429842 -1.2034652 0
4.256485 -8.8278418 -1.2033398 0
4.2915978 -8.8249102 -1.2048949 0
4.2964077 -8.7600002 -1.1979926 0
4.3302045 -8.7545433 -1.1992251 0
4.3722434 -8.7654581 -1.2027216 0
4.3907938 -8.7292509 -1.1997668 0
4.4193821 -8.7131901 -1.199589 0
4.4631133 -8.726759 -1.2035105 0
4.4720764 -8.6724348 -1.1980798 0
4.5113606 -8.6770725 -1.2008034 0
4.5348253 -8.6512108 -1.1993217 0
4.5670271 -8.6420527 -1.2001681 0
4.5902905 -8.6160192 -1.1986834 0
4.6150641 -8.592968 -1.1976224 0
4.6538005 -8.5958271 -1.2001889 0
4.6719584 -8.5606861 -1.1974628 0
4.7035623 -8.5502968 -1.1982086 0
4.729259 -8.5291681 -1.197463 0
4.7675071 -8.5305805 -1.1998988 0
4.8072705 -8.5344124 -1.2026982 0
4.8198848 -8.4901104 -1.1987256 0
4.8602061 -8.4946699 -1.2016635 0
4.8757539 -8.455945 -1.1984911 0
4.9109659 -8.4514046 -1.2001746 0
4.9389038 -8.4342585 -1.2000846 0
4.9814363 -8.4418545 -1.203535 0
5.00494 -8.4170799 -1.2023885 0
5.0247064 -8.3861876 -1.2003756 0
5.0545611 -8.3722191 -1.2007951 0
5.0733242 -8.3399715 -1.1986028 0
5.0880337 -8.3013382 -1.1954956 0
5.1398478 -8.3231125 -1.2011063 0
5.1576476 -8.2896357 -1.1987641 0
5.1904831 -8.280386 -1.1999364 0
5.2203331 -8.2662888 -1.2004231 0
5.2500634 -8.2519531 -1.2008909 0
5.2710104 -8.2238646 -1.1993684 0
5.3076243 -8.2201948 -1.2014216 0
5.3308368 -8.195713 -1.2004491 0
5.3643713 -8.1870823 -1.2018125 0
5.3961596 -8.1756687 -1.2027862 0
5.404851 -8.1294203 -1.1986414 0
5.423409 -8.0983095 -1.1967287 0
5.4521832 -8.08253 -1.1970916 0
5.4822397 -8.0686026 -1.1977445 0
5.5154791 -8.0592613 -1.1990962 0
5.5434937 -8.0422096 -1.1993178 0
5.5672283 -8.0189714 -1.1986293 0
5.6013188 -8.0106087 -1.2001796 0
5.6194882 -7.9794903 -1.1983335 0
5.6522527 -7.9691234 -1.1996158 0
5.686512 -7.9607282 -1.2012154 0
5.7031288 -7.9276586 -1.1991041 0
5.732121 -7.9118667 -1.1996156 0
5.7652078 -7.901638 -1.2009888 0
5.8008299 -7.8947334 -1.2028887 0
5.8284035 -7.8767757 -1.2031232 0
5.8342495 -7.8296375 -1.1989044 0
5.856173 -7.8043089 -1.1980258 0
5.8887887 -7.7932086 -1.1993459 0
5.918798 -7.778564 -1.2001394 0
5.9460206 -7.76021 -1.2003767 0
5.9600821 -7.7247763 -1.1979802 0
5.9907508 -7.7109313 -1.1989412 0
6.0274558 -7.7047172 -1.2011105 0
6.0465155 -7.6759095 -1.1997732 0
6.0556273 -7.6346779 -1.1964953 0
6.0959225 -7.6327767 -1.1993937 0
6.1252146 -7.61694 -1.2001256 0
6.1713653 -7.6218605 -1.2041543 0
6.1778526 -7.5777807 -1.2004559 0
6.224257 -7.5826473 -1.2045261 0
6.2124414 -7.5167217 -1.1973556 0
6.2346683 -7.4923167 -1.1967912 0
6.2781367 -7.4933124 -1.2003058 0
6.321332 -7.4936857 -1.2037539 0
6.3435082 -7.4690194 -1.2032014 0
6.3482637 -7.424026 -1.1993754 0
6.3730054 -7.4025674 -1.1993538 0
6.4022794 -7.3863387 -1.2001957 0
6.4439301 -7.384222 -1.2033557 0
6.4491386 -7.3403664 -1.1997257 0
6.4661541 -7.3101559 -1.1983248 0
6.4995251 -7.2984266 -1.1999675 0
6.5380883 -7.2923536 -1.2025664 0
1.6114769 -1.7853053 -0.29530019 0
1.6214393 -1.7842782 -0.29602787 0
1.6088321 -1.7585225 -0.29264805 0
1.6225165 -1.7615843 -0.29406124 0
1.6252469 -1.7527193 -0.2934894 0
1.6383303 -1.7549901 -0.29478779 0
1.611621 -1.7148166 -0.28894579 0
1.6385815 -1.7318312 -0.29273683 0
1.6224236 -1.7032783 -0.28882831 0
1.6528882 -1.7236521 -0.29322124 0
1.6350313 -1.6936272 -0.28904447 0
1.6413376 -1.6887912 -0.28915668 0
1.6473167 -1.6836119 -0.28921393 0
1.6559974 -1.6811708 -0.28974673 0
1.6587096 -1.6726694 -0.28923842 0
1.6696029 -1.6724019 -0.29015854 0
1.6755884 -1.6671803 -0.29022565 0
1.6495519 -1.6303051 -0.28476754 0
1.6785781 -1.647904 -0.28882301 0
1.6877035 -1.6457869 -0.28944206 0
1.6963174 -1.6431271 -0.2899729 0
1.6818365 -1.6182059 -0.28656843 0
1.6853141 -1.6107053 -0.28623921 0
1.6853521 -1.5999639 -0.28533292 0
1.7180821 -1.6201184 -0.2899529 0
1.6952962 -1.5879272 -0.2852073 0
1.7102287 -1.5911828 -0.28682035 0
1.7151232 -1.5850416 -0.28674829 0
1.7209525 -1.5797639 -0.28683576 0
1.7167438 -1.5653268 -0.28525794 0
1.7026374 -1.5420418 -0.28205332 0
1.7204357 -1.5476934 -0.2841405 0
1.7463784 -1.5604693 -0.28755939 0
1.7303324 -1.5357289 -0.28406778 0
1.7152739 -1.5121133 -0.28076175 0
1.7236308 -1.5092404 -0.28129977 0
1.7572874 -1.528332 -0.28595471 0
1.7571714 -1.5179133 -0.28510606 0
1.7548258 -1.5056428 -0.28390482 0
1.7485502 -1.490109 -0.28207964 0
1.7667369 -1.4954113 -0.28420311 0
1.7797261 -1.4961926 -0.28548405 0
1.767902 -1.4761639 -0.28279182 0
1.7698056 -1.4677105 -0.28230757 0
1.791566 -1.4756467 -0.28498787 0
1.7782542 -1.4547026 -0.28209287 0
1.7936382 -1.4572769 -0.28375664 0
1.7719624 -1.42983 -0.27956751 0
1.7790664 -1.42574 -0.27993256 0
1.7983152 -1.4312906 -0.2822046 0
1.8277754 -1.4447547 -0.28606597 0
1.7857945 -1.4018685 -0.27875832 0
1.8018309 -1.4047186 -0.28052479 0
1.7858135 -1.3826299 -0.27730778 0
1.8013933 -1.385057 -0.27900437 0
1.8073385 -1.3800108 -0.27920699 0
1.8056365 -1.3691522 -0.27823332 0
1.8034071 -1.3579627 -0.27718666 0
1.8136367 -1.356161 -0.2780585 0
1.8225548 -1.353326 -0.27872857 0
1.8366741 -1.3542804 -0.28019187 0
1.8243206 -1.3357525 -0.27762252 0
1.8275459 -1.3287247 -0.27743381 0
1.8342857 -1.3242469 -0.27778143 0
1.8409539 -1.319694 -0.27811959 0
1.8587276 -1.3230233 -0.28013301 0
1.8600777 -1.3146105 -0.27967063 0
1.8381315 -1.2898806 -0.27571914 0
1.8509269 -1.2896194 -0.2769883 0
1.8389423 -1.2721318 -0.274555 0
1.8527192 -1.272499 -0.27597335 0
1.877251 -1.2801062 -0.27898663 0
1.877423 -1.2710229 -0.27837729 0
1.8615024 -1.2511632 -0.2753931 0
1.8604497 -1.2414204 -0.27462003 0
1.8639301 -1.234731 -0.27452114 0
1.9037906 -1.2519721 -0.27977204 0
1.9142665 -1.2496877 -0.28069419 0
1.9076381 -1.2362584 -0.27911291 0
1.8904079 -1.2161118 -0.27599376 0
1.9064586 -1.2174194 -0.27773964 0
1.884517 -1.1945319 -0.27395809 0
1.900262 -1.1956 -0.27566269 0
1.9078113 -1.1914399 -0.27617678 0
1.9311291 -1.1970209 -0.27896973 0
1.8916647 -1.1637975 -0.27270353 0
1.9285194 -1.1775764 -0.27744576 0
1.9189925 -1.1629442 -0.2755127 0
1.9299927 -1.160781 -0.2765317 0
1.9274259 -1.150455 -0.2756097 0
1.9447739 -1.1519839 -0.27753648 0
1.9370785 -1.1386694 -0.2758919 0
1.9394907 -1.1313547 -0.27569366 0
1.9343239 -1.1196655 -0.27442405 0
1.9444897 -1.1168629 -0.27533346 0
1.9402947 -1.1058183 -0.27421296 0
1.9661161 -1.111818 -0.27733377 0
1.982252 -1.1121877 -0.2790823 0
1.9749399 -1.0993954 -0.27753228 0
8.549077 -4.7215624 -1.1991444 0
8.5988245 -4.711483 -1.2038999 0
8.5487928 -4.6468701 -1.1947069 0
8.597086 -4.6358476 -1.199277 0
8.6198854 -4.6109042 -1.2002941 0
8.6203032 -4.5740218 -1.19821 0
8.6724062 -4.5644708 -1.2033184 0
8.6755819 -4.5290623 -1.2016453 0
8.6745634 -4.4915848 -1.1994116 0
8.692831 -4.4641476 -1.1998612 0
8.7104521 -4.4363537 -1.2002336 0
8.7203331 -4.4046268 -1.1995534 0
8.7509508 -4.383328 -1.2017367 0
8.7359476 -4.3392353 -1.1976718 0
8.7780981 -4.3235402 -1.2014563 0
8.7954636 -4.2955103 -1.2018552 0
8.7781277 -4.2506518 -1.1975322 0
8.7890511 -4.2196221 -1.1970855 0
8.8553391 -4.2149715 -1.2041825 0
8.8407297 -4.1717186 -1.2002871 0
8.8455086 -4.1377702 -1.1990457 0
8.8822317 -4.1187081 -1.202145 0
8.8918638 -4.0870075 -1.2015872 0
8.8851871 -4.0479102 -1.1988443 0
8.8979712 -4.0177636 -1.1987448 0
5.1233325 -2.2927258 -0.68918169 0
5.1390371 -2.279104 -0.6902625 0
5.1413422 -2.2595284 -0.68955064 0
5.1244922 -2.2316532 -0.68628335 0
5.1196699 -2.209162 -0.68464172 0
5.1479363 -2.2009149 -0.68743104 0
5.126183 -2.1713147 -0.68355024 0
5.1465054 -2.1596005 -0.68529075 0
5.1350374 -2.1345682 -0.68280691 0
5.1410813 -2.1168931 -0.68266296 0
5.1414599 -2.0969155 -0.68177581 0
5.1351914 -2.0743051 -0.68001854 0
5.2155995 -2.0864723 -0.68973619 0
5.2379885 -2.0750835 -0.69177306 0
5.320868 -2.0873044 -0.70179057 0
5.3588767 -2.0815096 -0.70587927 0
5.3950787 -2.0747805 -0.70972753 0
5.4681287 -2.0818553 -0.71841508 0
9.1375656 -3.4438703 -1.1989902 0
9.1675148 -3.4200988 -1.2014086 0
9.1678963 -3.3852684 -1.1999644 0
9.1687832 -3.3507063 -1.1986034 0
9.210887 -3.3311288 -1.2026407 0
9.195632 -3.2907901 -1.1992015 0
9.2057514 -3.259635 -1.1990891 0
9.2037153 -3.2242279 -1.197409 0
9.2038822 -3.1896811 -1.1960328 0
9.2492294 -3.170701 -1.2005373 0
9.2425642 -3.1338255 -1.1983017 0
9.2871695 -3.1142709 -1.2027242 0
9.2626581 -3.071542 -1.1982095 0
9.2896547 -3.0459611 -1.200374 0
9.2759542 -3.0070622 -1.1972941 0
9.3044968 -2.9818776 -1.1996809 0
9.3148947 -2.950808 -1.1997393 0
9.3413982 -2.9247775 -1.2018832 0
9.3544655 -2.8944662 -1.202309 0
9.3321095 -2.8532996 -1.1981993 0
9.373621 -2.8316607 -1.2023034 0
9.3595276 -2.7931936 -1.1992878 0
9.3974609 -2.7702339 -1.2029514 0
9.3810091 -2.7312319 -1.1996666 0
9.3843451 -2.6981053 -1.1989297 0
9.4354553 -2.6785824 -1.2043052 0
9.4093313 -2.6371083 -1.1998357 0
9.4178057 -2.605459 -1.1997956 0
9.4227695 -2.5728528 -1.1993222 0
9.4354591 -2.5423546 -1.1998456 0
9.4437323 -2.5106523 -1.1998205 0
9.4430876 -2.4766121 -1.1986768 0
9.4575253 -2.446538 -1.1994615 0
9.4916191 -2.4214337 -1.2027491 0
9.4732885 -2.3829567 -1.1994072 0
9.4971533 -2.3551311 -1.2014222 0
9.4805851 -2.3173091 -1.1983367 0
9.4973211 -2.2876821 -1.1994758 0
9.5050793 -2.2558599 -1.1994936 0
9.5158901 -2.2247503 -1.1999099 0
9.5596046 -2.2011933 -1.2044846 0
9.5523815 -2.1658306 -1.2026529 0
9.5268011 -2.1264725 -1.1985279 0
9.5620384 -2.1007056 -1.2020681 0
9.5601826 -2.0667219 -1.2009569 0
9.5535202 -2.0317776 -1.1992576 0
9.6010513 -2.0082636 -1.204372 0
9.5798979 -1.9703373 -1.2008832 0
9.5880871 -1.9385375 -1.2010882 0
9.5802135 -1.9035344 -1.1992956 0
9.5806618 -1.8702551 -1.19856 0
9.6137857 -1.8432816 -1.201924 0
9.6288548 -1.8127216 -1.2030414 0
9.6183109 -1.7773662 -1.2009727 0
9.619173 -1.7441933 -1.2003434 0
9.6135015 -1.709893 -1.1989136 0
9.6182833 -1.6774945 -1.1988016 0
9.6422272 -1.648378 -1.2010905 0
9.6406765 -1.6148636 -1.2002161 0
9.6654501 -1.5857164 -1.2026316 0
9.6512728 -1.5501785 -1.2002141 0
9.679204 -1.5213928 -1.2030464 0
9.7009745 -1.4915029 -1.205124 0
9.6639824 -1.452665 -1.1999167 0
9.6726179 -1.4208163 -1.2003908 0
9.659174 -1.3857735 -1.1981391 0
9.6717634 -1.3545004 -1.1991307 0
9.6712427 -1.3213809 -1.1985099 0
9.6871014 -1.2904773 -1.1999323 0
9.6876411 -1.2575065 -1.1994702 0
9.690258 -1.2248235 -1.1992791 0
9.7012701 -1.1931828 -1.20014 0
9.6966457 -1.1596248 -1.1990802 0
9.7108278 -1.1283096 -1.2003595 0
9.7161188 -1.095921 -1.2005526 0
9.7504005 -1.0666929 -1.2043399 0
9.7181549 -1.0302041 -1.1999235 0
9.7268724 -0.99816084 -1.2005799 0
9.7360964 -0.96613151 -1.2013118 0
9.737855 -0.93334609 -1.201136 0
9.7453604 -0.90110141 -1.2016823 0
9.7568789 -0.86918378 -1.2027365 0
9.7382832 -0.83462715 -1.2000926 0
9.7298775 -0.80105388 -1.1987189 0
9.7534485 -0.77008021 -1.201298 0
9.7575541 -0.73749375 -1.2014924 0
9.7453823 -0.70372087 -1.1996964 0
9.752615 -0.67138171 -1.200303 0
9.764864 -0.63933748 -1.2015399 0
9.7489138 -0.60547376 -1.1993207 0
9.7546511 -0.57300508 -1.1997834 0
9.7838802 -0.54181165 -1.2031482 0
9.770092 -0.50819629 -1.2012365 0
9.762701 -0.47499633 -1.2001251 0
9.7677727 -0.44242123 -1.2005595 0
9.753191 -0.40899786 -1.1985919 0
9.767314 -0.37678897 -1.2001655 0
9.7669096 -0.34398213 -1.1999675 0
9.7674561 -0.31121597 -1.1998996 0
9.7782803 -0.27874619 -1.2011079 0
9.7785635 -0.24594489 -1.2010345 0
9.7639399 -0.2128223 -1.199144 0
9.77141 -0.18021008 -1.1999805 0
9.7828712 -0.14761202 -1.2013205 0
9.7859259 -0.11484176 -1.2016416 0
9.7479954 -0.081710033 -1.1969435 0
9.7572813 -0.04907199 -1.1980569 0
9.7823725 -0.01639927 -1.2011242 0
9.7731724 0.016383847 -1.1999946 0
9.7593212 0.049082249 -1.1983074 0
9.7669182 0.081868649 -1.199267 0
9.7508888 0.11443058 -1.1973393 0
9.7541361 0.14717844 -1.1977919 0
9.78477 0.18045647 -1.2016213 0
9.7633867 0.21281023 -1.1990761 0
9.7674541 0.24566546 -1.1996701 0
9.7737322 0.27861652 -1.2005491 0
9.7775583 0.31153789 -1.2011408 0
9.7584543 0.34368432 -1.1989286 0
9.7729931 0.37700805 -1.2008634 0
9.7873182 0.41042897 -1.2027858 0
9.7511759 0.44166949 -1.1985196 0
9.749547 0.47435632 -1.1985081 0
9.7666073 0.50801504 -1.2008079 0
9.7910261 0.54220742 -1.2040271 0
9.7600718 0.57332349 -1.2004501 0
9.7546415 0.60582948 -1.2000253 0
9.7440853 0.637977 -1.1989831 0
9.7566013 0.67165613 -1.2007935 0
9.7447615 0.70367604 -1.19962 0
9.7440271 0.73647135 -1.1998268 0
9.7658205 0.77105713 -1.2028219 0
9.7417355 0.80203009 -1.2001798 0
9.7481937 0.83547652 -1.2013139 0
9.7031679 0.86439902 -1.1961156 0
9.7140751 0.89820856 -1.1978246 0
9.7439728 0.93393248 -1.2018906 0
9.7260628 0.96513581 -1.2000738 0
9.717577 0.99720699 -1.1994326 0
9.7109346 1.0294386 -1.1990319 0
9.724143 1.0638204 -1.2010965 0
9.6876097 1.0927052 -1.1970298 0
9.6753559 1.1241881 -1.1959747 0
9.723155 1.1627949 -1.2023584 0
9.7156878 1.1949562 -1.2019237 0
9.7078791 1.2270507 -1.2014599 0
9.6857405 1.2572598 -1.199235 0
9.6805582 1.2896056 -1.1991218 0
9.6631355 1.3202733 -1.1975054 0
9.6592226 1.3527441 -1.1975758 0
9.6372137 1.382623 -1.1954151 0
9.661479 1.4191802 -1.1990085 0
9.6645384 1.4527485 -1.1999859 0
9.6608315 1.4853311 -1.2001373 0
9.6654434 1.5192299 -1.2013361 0
9.6375456 1.5479738 -1.1985071 0
9.64923 1.5830553 -1.2006134 0
9.6359434 1.6140709 -1.1996268 0
9.6362467 1.6473556 -1.2003454 0
9.632761 1.6800196 -1.2006061 0
9.6332417 1.7134041 -1.2013752 0
9.6369219 1.7474116 -1.2025582 0
9.6156778 1.7768795 -1.2006439 0
9.6110382 1.8093673 -1.2008152 0
9.6169052 1.8438796 -1.2023139 0
9.5859652 1.8712906 -1.1992235 0
9.569561 1.9014177 -1.197962 0
9.5890903 1.9387404 -1.2012138 0
9.5955982 1.9735664 -1.2028513 0
9.5621176 2.0001197 -1.1994882 0
9.5659933 2.0344303 -1.2008233 0
9.5400534 2.0623703 -1.1984283 0
9.5137358 2.0900939 -1.1959959 0
9.5534954 2.1324308 -1.2018862 0
9.5254183 2.1597171 -1.1992581 0
9.5599422 2.2012708 -1.2045271 0
9.5230274 2.226419 -1.2008098 0
9.4906282 2.2524304 -1.19767 0
9.5001059 2.2883527 -1.1998276 0
9.4917355 2.3200345 -1.199746 0
9.4714689 2.3487618 -1.198173 0
9.4881306 2.3866901 -1.2012863 0
9.4379797 2.4077497 -1.1959522 0
9.4497604 2.4445293 -1.1984768 0
9.4707584 2.4838696 -1.2021893 0
9.4447594 2.5109255 -1.1999511 0
9.4358788 2.5424676 -1.199899 0
9.4377117 2.5769327 -1.201224 0
9.4205265 2.6062117 -1.2001421 0
9.4000015 2.6344936 -1.1986459 0
9.4009132 2.6687765 -1.1998963 0
9.3923187 2.7003977 -1.1999483 0
9.3874626 2.7331109 -1.2004919 0
9.3777075 2.764411 -1.2004229 0
9.3592873 2.7931218 -1.199257 0
9.375268 2.8321583 -1.2025146 0
9.3420401 2.8563361 -1.1994745 0
9.3410635 2.8903193 -1.2005864 0
9.302515 2.9126029 -1.1968802 0
9.3027277 2.9469535 -1.1981721 0
9.3160992 2.9855959 -1.2011769 0
9.301198 3.0152457 -1.2005525 0
9.2686491 3.0390732 -1.1976596 0
9.2759991 3.0759659 -1.1999353 0
9.2692413 3.108259 -1.2004025 0
9.2530451 3.1373789 -1.1996604 0
4.7307506 1.6217346 -0.61404496 0
4.6916561 1.625932 -0.60967475 0
4.6554384 1.6308843 -0.60567546 0
4.6047754 1.6304902 -0.599792 0
4.5394187 1.6244967 -0.59198511 0
4.4969311 1.6263207 -0.58715212 0
4.4589114 1.6294967 -0.58289802 0
4.4506683 1.6434202 -0.58253747 0
4.435041 1.6545682 -0.5812149 0
4.458787 1.6804787 -0.58506197 0
4.4366302 1.6891377 -0.5828945 0
4.471365 1.7195488 -0.58821219 0
4.4568815 1.7311543 -0.58706713 0
4.4357562 1.7400872 -0.58504963 0
4.4496989 1.7627944 -0.5876649 0
4.414958 1.7661798 -0.58385545 0
