# .PCD v0.7 - Point Cloud Data file format
VERSION 0.7
FIELDS x y z intensity
SIZE 4 4 4 4
TYPE F F F F
COUNT 1 1 1 1
WIDTH 1394
HEIGHT 1
VIEWPOINT 0 0 0 1 0 0 0
POINTS 1394
DATA ascii
1.06815 4.338449 -1.197197 0
1.0551939 4.3485832 -1.1990105 0
1.0441706 4.3669963 -1.2031153 0
1.0337073 4.3882351 -1.2080051 0
1.0102601 4.3540583 -1.1976576 0
1.0005313 4.378757 -1.2035218 0
0.98512912 4.3789072 -1.2026485 0
0.97181457 4.3883839 -1.2043495 0
0.94829607 4.3512406 -1.1932766 0
0.93573761 4.3638892 -1.1958784 0
0.92731738 4.3964744 -1.2039492 0
0.9088459 4.3815966 -1.1990337 0
0.89033753 4.3659234 -1.1939212 0
0.8778913 4.3798447 -1.1969165 0
0.86833256 4.4088149 -1.2040311 0
0.84881616 4.3872561 -1.1973594 0
0.83349341 4.3868752 -1.1964861 0
0.82276922 4.4110303 -1.2023151 0
0.80867672 4.4175959 -1.2033589 0
0.79491401 4.426147 -1.2049555 0
0.77815926 4.417942 -1.2020047 0
0.75701904 4.3839078 -1.1920476 0
0.74607325 4.4086208 -1.1980805 0
0.73436952 4.4296865 -1.2031294 0
0.71812052 4.423543 -1.2008002 0
0.70508873 4.4372764 -1.2038796 0
0.68965411 4.4360566 -1.2029146 0
0.67335552 4.4289942 -1.2003804 0
0.65900493 4.4346104 -1.201297 0
0.64551574 4.4463201 -1.2038761 0
0.63207847 4.458858 -1.2066902 0
0.61267269 4.4287663 -1.197984 0
0.59597629 4.4171276 -1.1942885 0
0.58388031 4.4397621 -1.1998723 0
0.57043707 4.452981 -1.202921 0
0.55345315 4.4384227 -1.1984802 0
0.53957331 4.4485345 -1.2007155 0
0.52469462 4.4506531 -1.2008058 0
0.50747323 4.4323316 -1.1953968 0
0.49433494 4.4495382 -1.1995835 0
0.47857106 4.443347 -1.1974751 0
0.46636689 4.4707737 -1.2044384 0
0.44997492 4.4584436 -1.2007035 0
0.43487301 4.4583788 -1.2002865 0
0.4193387 4.4536114 -1.1986179 0
0.40439954 4.4549413 -1.1986041 0
0.38873389 4.4479556 -1.1963673 0
0.37327603 4.4427767 -1.1946309 0
0.36020717 4.4666839 -1.2007279 0
0.34342405 4.4445052 -1.1944495 0
0.33081985 4.4767466 -1.2028095 0
0.31489515 4.4648829 -1.1993316 0
0.29999217 4.4669366 -1.1996063 0
0.28325373 4.4403276 -1.1921988 0
0.27137768 4.491118 -1.2055844 0
0.25510731 4.4707799 -1.1998887 0
0.24042472 4.4773555 -1.2014303 0
0.22481382 4.46626 -1.198244 0
0.20985764 4.4674058 -1.1983559 0
0.19576168 4.4883428 -1.2037894 0
0.18013312 4.4745941 -1.1999332 0
0.16521506 4.4774876 -1.2005539 0
0.15028603 4.4805231 -1.2012259 0
0.13485794 4.4675884 -1.19763 0
0.12110229 4.513639 -1.2098593 0
0.1050367 4.4743381 -1.1992238 0
0.089949399 4.4704356 -1.1980902 0
0.074868426 4.465229 -1.1966208 0
0.060049642 4.4768395 -1.1996715 0
0.045058519 4.4789252 -1.2001833 0
0.030031474 4.4775896 -1.1997917 0
0.015052578 4.4877386 -1.2024908 0
5.9383815e-06 4.4757347 -1.1992676 0
-0.014983186 4.4705863 -1.1978949 0
-0.030155696 4.4978905 -1.2052313 0
-0.045273468 4.5014791 -1.2062268 0
-0.060069077 4.4791746 -1.2002972 0
-0.075449593 4.5006027 -1.2061003 0
-0.090366714 4.4917684 -1.2038075 0
-0.10471489 4.4611344 -1.1956848 0
-0.11963895 4.4595394 -1.195358 0
-0.13489486 4.4692044 -1.1980633 0
-0.14897862 4.4418964 -1.19087 0
-0.16486847 4.4684172 -1.1981215 0
-0.1805746 4.4858565 -1.2029532 0
-0.19614787 4.4974718 -1.2062376 0
-0.21030298 4.4771399 -1.2009668 0
-0.22375149 4.4453897 -1.1926447 0
-0.24157192 4.4989424 -1.2072227 0
-0.25530016 4.4743681 -1.2008514 0
-0.27117929 4.4880323 -1.204756 0
-0.28348404 4.4441237 -1.1932178 0
-0.29967228 4.4623499 -1.1983744 0
-0.31399727 4.4523201 -1.1959568 0
-0.33115625 4.4814601 -1.2040758 0
-0.3444725 4.4582276 -1.1981373 0
-0.36131489 4.4805684 -1.2044601 0
-0.37275091 4.4366679 -1.192988 0
-0.39138907 4.4784737 -1.2045754 0
-0.40469426 4.4583192 -1.1995127 0
-0.41978532 4.4584818 -1.1999283 0
-0.433469 4.4441066 -1.1964439 0
-0.45099792 4.4686985 -1.2034649 0
-0.4648042 4.4559078 -1.2004331 0
-0.48033449 4.4598308 -1.2019172 0
-0.49579072 4.4627495 -1.203145 0
-0.50495082 4.4104042 -1.1894826 0
-0.52647525 4.4658589 -1.204908 0
-0.54367769 4.4824729 -1.2098755 0
-0.55191392 4.4261746 -1.1951725 0
-0.56274581 4.3930335 -1.1867265 0
-0.58131588 4.4203534 -1.1946265 0
-0.59607893 4.4179769 -1.1945176 0
-0.613774 4.4368138 -1.2001604 0
-0.63017738 4.4455318 -1.2030834 0
-0.64070445 4.4132624 -1.194925 0
-0.66240132 4.4575467 -1.2075099 0
-0.6735093 4.4300847 -1.2006756 0
-0.68895078 4.4316096 -1.2017082 0
-0.70008624 4.40587 -1.1953583 0
-0.71715719 4.4176836 -1.199209 0
-0.73274273 4.4199467 -1.2004834 0
-0.74873883 4.4244432 -1.2023799 0
-0.76153463 4.4101276 -1.1991765 0
-0.77838838 4.4193115 -1.2023767 0
-0.79171312 4.4083915 -1.200121 0
-0.80830985 4.415658 -1.2028304 0
-0.82510412 4.4236131 -1.2057443 0
-0.83832765 4.4123831 -1.2034426 0
-0.85197735 4.4036579 -1.2018352 0
-0.86620885 4.3980937 -1.2011025 0
-0.88248044 4.4028006 -1.2031893 0
-0.88878077 4.3583488 -1.1918492 0
-0.91402578 4.4066281 -1.205883 0
-0.92156613 4.3692646 -1.1964972 0
-0.94045568 4.3859491 -1.201923 0
-0.95813507 4.3964424 -1.2056721 0
-0.96741283 4.3685617 -1.1989089 0
-0.98150194 4.3628383 -1.1982346 0
-0.99608392 4.3593464 -1.198186 0
-1.0120916 4.3620043 -1.1998426 0
-1.0261967 4.3564038 -1.1992418 0
-1.0397515 4.3485656 -1.1980368 0
-1.0496019 4.3255877 -1.1926693 0
-1.0723882 4.3557129 -1.2019601 0
-1.081969 4.3320055 -1.1964124 0
-1.099551 4.3404474 -1.1997553 0
-1.1179332 4.3516669 -1.2038858 0
-1.1305341 4.340281 -1.2017778 0
-1.1435238 4.3305736 -1.2001446 0
-1.1536188 4.3102074 -1.1955658 0
-1.1750408 4.3320384 -1.2027073 0
-1.1838927 4.3074589 -1.1969787 0
-1.2021173 4.3170733 -1.2007636 0
-1.215554 4.3093638 -1.1997461 0
-1.2297555 4.3044233 -1.1995118 0
-1.2530812 4.3310399 -1.208093 0
-1.2595787 4.2994499 -1.2004526 0
-1.2759335 4.3017654 -1.202287 0
-1.2920719 4.3032007 -1.203892 0
-1.3028803 4.2869592 -1.2005634 0
-1.3194934 4.2898722 -1.2026114 0
-1.3321031 4.2797503 -1.2010193 0
-1.3465801 4.2756896 -1.2011399 0
-1.3612559 4.2722421 -1.2014469 0
-1.3689705 4.2471724 -1.1956809 0
-1.3909762 4.2664013 -1.2024004 0
-1.3999565 4.2455907 -1.1978515 0
-1.4227346 4.2665172 -1.2050947 0
-1.4321394 4.2472148 -1.2009922 0
-1.4413487 4.2276568 -1.1968216 0
-1.4591851 4.233448 -1.1998394 0
-1.4760123 4.2361131 -1.2019905 0
-1.4850005 4.2163577 -1.1977909 0
-1.4936106 4.1958537 -1.193382 0
-1.5225531 4.232192 -1.2051624 0
-1.5340469 4.2196708 -1.2030549 0
-1.5464364 4.2097411 -1.2016953 0
-1.5575377 4.1964374 -1.1993817 0
-1.5675898 4.1805005 -1.1963221 0
-1.5827287 4.1782079 -1.1971779 0
-1.6005248 4.1827984 -1.2000241 0
-1.6097888 4.1651158 -1.1964929 0
-1.6233841 4.1587715 -1.1962272 0
-1.6378504 4.1546545 -1.1966158 0
-1.6527854 4.1516876 -1.1973506 0
-1.6604356 4.1305494 -1.1928532 0
-1.6846155 4.150435 -1.2002202 0
-1.7036866 4.1573672 -1.2038699 0
-1.6994185 4.1076469 -1.1911155 0
-1.7199897 4.118228 -1.1958493 0
-1.7385994 4.1238513 -1.1991681 0
-1.7475765 4.106626 -1.1958563 0
-1.7676569 4.1154613 -1.2001483 0
-1.7726374 4.0891929 -1.1942145 0
-1.7896355 4.090765 -1.1964191 0
-1.8181798 4.1183529 -1.2062639 0
-1.8200588 4.0854797 -1.1984159 0
-1.8413359 4.0962377 -1.2033759 0
-1.8453293 4.0685883 -1.1970639 0
-1.8729068 4.0928559 -1.2060448 0
-1.8799747 4.0721617 -1.2017975 0
-1.8928282 4.0641413 -1.2012967 0
-1.9045088 4.0536532 -1.2000773 0
-1.9227146 4.0570049 -1.2029712 0
-1.930439 4.0382619 -1.1993262 0
-1.941855 4.0273852 -1.1980227 0
-1.9652581 4.0412326 -1.2040951 0
-1.9764218 4.0297785 -1.2026501 0
-1.9896381 4.0225558 -1.2024786 0
-2.0038977 4.0174336 -1.202949 0
-2.0138481 4.0037184 -1.2008573 0
-2.028573 3.9995315 -1.2016348 0
-2.0353434 3.9797478 -1.1977345 0
-2.0534649 3.9821897 -1.2005347 0
-2.0662467 3.9742091 -1.2002106 0
-2.0818279 3.9715855 -1.2015195 0
-2.0843494 3.9441793 -1.1953357 0
-2.1050858 3.9512916 -1.1996235 0
-2.1168375 3.9414473 -1.1987828 0
-2.1244285 3.9239619 -1.1956244 0
-2.1465976 3.9333539 -1.2006723 0
-2.1560495 3.9193649 -1.1986021 0
-2.1702943 3.9141271 -1.1992188 0
-2.1785614 3.8981609 -1.1965582 0
-2.2049387 3.9144814 -1.2038304 0
-2.2128508 3.897907 -1.2010081 0
-2.2197571 3.8797162 -1.1976897 0
-2.2363863 3.8785543 -1.199639 0
-2.2534864 3.8781047 -1.20183 0
-2.2613664 3.8618011 -1.1991205 0
-2.2873242 3.876267 -1.2059867 0
-2.2849004 3.8426645 -1.1979091 0
-2.3028996 3.8435411 -1.2005826 0
-2.3115156 3.8287458 -1.1983752 0
-2.331604 3.8329163 -1.2021205 0
-2.3398287 3.8175507 -1.1997552 0
-2.3723707 3.841675 -1.2098298 0
-2.3683538 3.8065624 -1.2012661 0
-2.3740666 3.7873747 -1.197716 0
-2.39203 3.7877522 -1.2003648 0
-2.41536 3.7964406 -1.205678 0
-2.4239113 3.7818246 -1.2036104 0
-2.426044 3.7573624 -1.1984071 0
-2.4487934 3.7648358 -1.2034026 0
-2.4502659 3.7396076 -1.1979579 0
-2.4703751 3.7428632 -1.2016473 0
-2.4774654 3.7263696 -1.199012 0
-2.4982982 3.7305148 -1.2030343 0
-2.4948342 3.6984611 -1.1953883 0
-2.5282316 3.7209995 -1.205406 0
-2.5274875 3.6932056 -1.1991407 0
-2.5385935 3.6828792 -1.1985446 0
-2.5577078 3.6841137 -1.2017305 0
-2.5712788 3.6772811 -1.2023071 0
-2.586169 3.6722965 -1.2035056 0
-2.6063032 3.6746533 -1.2071351 0
-2.5851154 3.6190052 -1.1916951 0
-2.5921204 3.6032085 -1.1893486 0
-2.6158617 3.6106117 -1.1946805 0
-2.6466377 3.6274304 -1.2031748 0
-2.6466095 3.6019659 -1.1976651 0
-2.6683986 3.6062181 -1.2020471 0
-2.6835499 3.6013784 -1.2034261 0
-2.6853414 3.5786767 -1.198842 0
-2.6891193 3.5587938 -1.1951951 0
-2.7198105 3.5744312 -1.2035025 0
-2.7309866 3.5642571 -1.2031531 0
-2.741802 3.5536294 -1.2026621 0
-2.7391455 3.5256813 -1.1963049 0
-2.75863 3.5262938 -1.1996443 0
-2.7787092 3.5275254 -1.2032261 0
-2.7744877 3.4979753 -1.1963129 0
-2.7880573 3.4909787 -1.1971103 0
-2.7878067 3.466764 -1.1920053 0
-2.8047705 3.4640124 -1.1942859 0
-2.8356001 3.4781783 -1.202441 0
-2.8557415 3.479001 -1.2060287 0
-2.8374872 3.4332261 -1.1934516 0
-2.8663447 3.4445581 -1.2007248 0
-2.8928568 3.4528072 -1.2069746 0
-2.8888254 3.4246051 -1.2004952 0
-2.8901901 3.4030068 -1.1963141 0
-2.9154007 3.409456 -1.2020109 0
-2.9344544 3.4085352 -1.2051481 0
-2.9501383 3.4036062 -1.2068959 0
-2.9379833 3.366709 -1.1972986 0
-2.9555647 3.3640218 -1.1998603 0
-2.9632087 3.3500028 -1.1983969 0
-2.9808362 3.347249 -1.2009804 0
-2.9935706 3.3389411 -1.201594 0
-2.9964097 3.3196468 -1.1982592 0
-3.016777 3.3197653 -1.2019463 0
-3.0336108 3.3158844 -1.2042168 0
-3.0319493 3.2918386 -1.1991694 0
-3.0273604 3.2648218 -1.1930183 0
-3.0603182 3.2782505 -1.201668 0
-3.0502203 3.2455494 -1.1934234 0
-3.0975833 3.2738805 -1.207653 0
-3.0782988 3.2317252 -1.1959035 0
-3.0942044 3.2266912 -1.197873 0
-3.0970476 3.208056 -1.194803 0
-3.1164498 3.2065682 -1.1981338 0
-3.1300762 3.1990581 -1.1992421 0
-3.1372035 3.1849098 -1.1978748 0
-3.1403098 3.1667557 -1.1950001 0
-3.1656792 3.1710033 -1.2006015 0
-3.1539049 3.1380956 -1.192139 0
-3.1753826 3.1383495 -1.1962733 0
-3.1831622 3.1250103 -1.1952502 0
-3.2040839 3.1245224 -1.1991657 0
-3.2160325 3.115206 -1.1997217 0
-3.2318892 3.1096306 -1.2017409 0
-3.2306647 3.0876596 -1.1974294 0
-3.2644384 3.0990627 -1.2060894 0
-3.2617781 3.0758107 -1.2012897 0
-3.2626324 3.0560148 -1.1978238 0
-3.2818294 3.0534036 -1.2011064 0
-3.2902083 3.0406826 -1.200435 0
-3.3047345 3.033627 -1.2020172 0
-3.3042824 3.0128603 -1.1981719 0
-3.310631 2.9983826 -1.1968218 0
-3.3336051 2.9989064 -1.2014855 0
-3.3621705 3.0042696 -1.2081437 0
-3.33673 2.9614773 -1.1954274 0
-3.3462443 2.949924 -1.1952859 0
-3.3541563 2.9369719 -1.1945879 0
-3.372458 2.9330792 -1.1975969 0
-3.3775046 2.9176362 -1.1959084 0
-3.3954847 2.9133458 -1.1988095 0
-3.4165971 2.911629 -1.20281 0
-3.4195721 2.894429 -1.2004342 0
-3.4308555 2.8842909 -1.2009937 0
-3.4618187 2.8905671 -1.2084332 0
-3.4589751 2.8685646 -1.2040764 0
-3.4477172 2.8397725 -1.1968364 0
-3.4773207 2.8446414 -1.2037953 0
-3.4725449 2.8213532 -1.1988605 0
-3.490664 2.8166978 -1.2018487 0
-3.4828863 2.7911928 -1.195942 0
-3.4970636 2.7833507 -1.1975991 0
-3.5070918 2.772176 -1.1978436 0
-3.4951441 2.7437418 -1.1906141 0
-3.51754 2.7423112 -1.1951044 0
-3.5161285 2.722306 -1.191517 0
-3.5373571 2.7198215 -1.1956139 0
-3.57131 2.7269237 -1.2039928 0
-3.5754378 2.7111468 -1.2023132 0
-3.5884049 2.7020783 -1.2036203 0
-3.5851841 2.6808641 -1.1995183 0
-3.5921528 2.6673439 -1.198851 0
-3.5800302 2.6397669 -1.1918446 0
-3.6275923 2.6561081 -1.2047073 0
-3.620064 2.6319971 -1.1992698 0
-3.6343904 2.6238315 -1.2010947 0
-3.6357965 2.6063478 -1.1986648 0
-3.6414254 2.591944 -1.1976486 0
-3.6609292 2.5873773 -1.2012035 0
-3.6670637 2.5733202 -1.2003787 0
-3.688452 2.5699158 -1.2045525 0
-3.6913118 2.5535667 -1.2026837 0
-3.7033632 2.5435872 -1.2038249 0
-3.6956582 2.5201008 -1.1985669 0
-3.7087173 2.5108309 -1.2000653 0
-3.7324204 2.5086694 -1.2050066 0
-3.7253256 2.4858086 -1.2000185 0
-3.7469015 2.4820898 -1.2042811 0
-3.7497771 2.4659452 -1.2025412 0
-3.738385 2.4405382 -1.196257 0
-3.7723091 2.4446859 -1.2044828 0
-3.7729549 2.4271805 -1.2020838 0
-3.7661111 2.4049635 -1.1973276 0
-3.7948792 2.4054606 -1.2039028 0
-3.7787516 2.3775153 -1.1962508 0
-3.8178763 2.3843014 -1.2060992 0
-3.8042936 2.3581259 -1.1993037 0
-3.8192346 2.3496988 -1.2015235 0
-3.827678 2.3372388 -1.2017078 0
-3.8287389 2.3202989 -1.1995918 0
-3.8467066 2.3135896 -1.2027841 0
-3.8530135 2.2998266 -1.2023383 0
-3.8354552 2.2719398 -1.1944754 0
-3.8775938 2.2793729 -1.2052119 0
-3.8852019 2.2663519 -1.2052081 0
-3.8656349 2.2376008 -1.1968043 0
-3.8802452 2.2287226 -1.1990074 0
-3.898484 2.2218487 -1.2023345 0
-3.9250181 2.2195702 -1.2082161 0
-3.8955076 2.1856771 -1.1968694 0
-3.8971226 2.1694357 -1.1951241 0
-3.9277909 2.1692901 -1.2022918 0
-3.9149849 2.145119 -1.1961638 0
-3.9391675 2.1412282 -1.2013521 0
-3.9281523 2.1182096 -1.1958201 0
-3.9389105 2.1069951 -1.1969378 0
-3.9343567 2.0876238 -1.1934204 0
-3.9605153 2.0845163 -1.1992284 0
-3.9666166 2.0707741 -1.1989669 0
-3.9871683 2.0645211 -1.2030798 0
-3.9798834 2.0438569 -1.1988072 0
-3.9880066 2.0311601 -1.199196 0
-3.9771252 2.008853 -1.1938919 0
-4.0063977 2.0068073 -1.2006526 0
-4.0243826 1.9989657 -1.2040272 0
-4.0216746 1.9808377 -1.2012231 0
-4.0138073 1.9602679 -1.1969035 0
-4.0342479 1.9535257 -1.2010388 0
-4.027431 1.9335822 -1.1970726 0
-4.0445905 1.9251606 -1.2002476 0
-4.0242119 1.8989378 -1.1923041 0
-4.0458908 1.8926082 -1.1968405 0
-4.0662394 1.8855362 -1.200983 0
-4.0750251 1.8730353 -1.2017164 0
-4.07582 1.8568735 -1.2001081 0
-4.0606675 1.8335547 -1.1938297 0
-4.0940328 1.8321202 -1.2018262 0
-4.06111 1.8010684 -1.1903822 0
-4.1186461 1.8100847 -1.2054614 0
-4.0973778 1.7843703 -1.1974787 0
-4.0745735 1.7582108 -1.1890845 0
-4.1038938 1.7545645 -1.1959176 0
-4.1334076 1.7508144 -1.2028008 0
-4.1116986 1.7253828 -1.1947935 0
-4.1394572 1.7207314 -1.2011765 0
-4.1630683 1.7141991 -1.2063534 0
-4.1348357 1.6863823 -1.1965271 0
-4.1334658 1.6696814 -1.1945039 0
-4.1723461 1.6691372 -1.2041157 0
-4.1787333 1.6554613 -1.2043505 0
-4.1596375 1.6317823 -1.1972634 0
-4.1870399 1.6263543 -1.2035742 0
-4.156404 1.5984372 -1.1932206 0
-4.1754184 1.5897003 -1.1971424 0
-4.174994 1.5735322 -1.1955014 0
-4.1948318 1.5649668 -1.1996727 0
-4.1643863 1.5377226 -1.1894845 0
-4.2068205 1.5373834 -1.2001261 0
-4.2027402 1.5199389 -1.1975014 0
-4.2054906 1.5050083 -1.1968406 0
-4.2365956 1.5001353 -1.2042546 0
-4.2389946 1.4850091 -1.2035145 0
-4.2310133 1.4663049 -1.1998459 0
-4.2479935 1.4562547 -1.2032698 0
-4.2520204 1.4417217 -1.2030344 0
-4.2287288 1.418034 -1.1950926 0
-4.2357059 1.404593 -1.1957269 0
-4.2492657 1.3932933 -1.1982292 0
-4.2816048 1.3880156 -1.2060293 0
-4.2391233 1.3585542 -1.1927736 0
-4.2826586 1.3566895 -1.2037364 0
-4.2647166 1.3352885 -1.1974283 0
-4.2773376 1.3235096 -1.1997193 0
-4.2890444 1.3113911 -1.2017629 0
-4.2576046 1.2861847 -1.1917387 0
-4.2817521 1.2778292 -1.1972919 0
-4.3123255 1.2712228 -1.2046423 0
-4.3104062 1.2549647 -1.202924 0
-4.2952223 1.2349373 -1.1975244 0
-4.2708259 1.2124349 -1.1895825 0
-4.3212228 1.2111008 -1.202482 0
-4.325016 1.1965384 -1.2024145 0
-4.3164783 1.1786108 -1.1989355 0
-4.3257113 1.1655614 -1.2004079 0
-4.3310213 1.1514308 -1.2008034 0
-4.3579025 1.1429473 -1.2071871 0
-4.343256 1.1235558 -1.2020795 0
-4.3287387 1.104329 -1.1970302 0
-4.3366561 1.0908756 -1.1982014 0
-4.3519559 1.0792227 -1.2014221 0
-4.3564477 1.0648448 -1.2016698 0
-4.3482041 1.0473927 -1.1984205 0
-4.3688946 1.036891 -1.2031581 0
-4.3823047 1.0245652 -1.2058984 0
-4.359005 1.0037161 -1.1985542 0
-4.3793039 0.99294049 -1.2032133 0
-4.3711662 0.97569793 -1.2000719 0
-4.3840437 0.96315253 -1.202714 0
-4.3845754 0.94787049 -1.2019813 0
-4.3844414 0.93246526 -1.2010807 0
-4.3925552 0.91880822 -1.2024528 0
-4.3853273 0.90196061 -1.1996397 0
-4.3604512 0.88161629 -1.1920192 0
-4.3950329 0.87328041 -1.2006657 0
-4.3916802 0.85731852 -1.1989578 0
-4.3967748 0.8430196 -1.1995702 0
-4.4186435 0.83186293 -1.204769 0
-4.3780179 0.80902523 -1.1929458 0
-4.3954439 0.79701442 -1.1969593 0
-4.4159627 0.78545159 -1.2018231 0
-4.4254603 0.77184278 -1.2036968 0
-4.4174209 0.75518817 -1.2008146 0
-4.4354401 0.74297148 -1.2050289 0
-4.4274993 0.72638875 -1.2022032 0
-4.4215546 0.71019804 -1.1999357 0
-4.4151402 0.69399077 -1.1975567 0
-4.4331756 0.68160278 -1.201822 0
-4.4279666 0.66561252 -1.1997981 0
-4.4412394 0.65238822 -1.202795 0
-4.4340272 0.63614893 -1.2002574 0
-4.4558558 0.62404078 -1.2055932 0
-4.4351969 0.6059925 -1.1994472 0
-4.4452796 0.59219462 -1.2016302 0
-4.458323 0.5787257 -1.2046248 0
-4.4557838 0.5632115 -1.2034216 0
-4.4497356 0.54729581 -1.2012858 0
-4.453475 0.5326044 -1.2018065 0
-4.4734607 0.51978737 -1.2067227 0
-4.4232712 0.49893084 -1.1927261 0
-4.4573345 0.48764396 -1.2014636 0
-4.4522347 0.47198528 -1.1996555 0
-4.4721856 0.45894271 -1.20461 0
-4.4406657 0.44066766 -1.1957152 0
-4.4711571 0.42855987 -1.2035319 0
-4.4676175 0.41310865 -1.2021993 0
-4.4321289 0.39484456 -1.1922868 0
-4.4712281 0.38322201 -1.2024524 0
-4.4420266 0.36572078 -1.1942629 0
-4.4404702 0.35060769 -1.1935216 0
-4.4548826 0.33672005 -1.1970853 0
-4.4567671 0.32183814 -1.1972948 0
-4.4823489 0.30858222 -1.2038827 0
-4.4541092 0.29163691 -1.1960286 0
-4.4505043 0.27641842 -1.194805 0
-4.4754353 0.26290673 -1.2012547 0
-4.4562149 0.2467881 -1.1958669 0
-4.4791532 0.23299734 -1.2018063 0
-4.4576244 0.21689397 -1.1958281 0
-4.4900274 0.20338312 -1.2043309 0
-4.4878922 0.18821068 -1.2035823 0
-4.4663186 0.1723069 -1.1976348 0
-4.4550509 0.15691487 -1.1944656 0
-4.4610991 0.14215381 -1.1959528 0
-4.4683275 0.12738898 -1.1977693 0
-4.4820991 0.11274312 -1.2013528 0
-4.4945998 0.097979665 -1.2046087 0
-4.464004 0.082339637 -1.1963279 0
-4.491837 0.067788459 -1.2037193 0
-4.444818 0.052173514 -1.1910657 0
-4.4878063 0.037629783 -1.2025446 0
-4.472682 0.022506189 -1.1984649 0
-4.4590077 0.0074869595 -1.1947874 0
-4.494349 1.1926159e-05 -1.2042553 0
-5.2013621 -0.0087334197 -1.2008289 0
-5.1964307 -0.026148034 -1.1997039 0
-5.1958776 -0.043566883 -1.1996032 0
-5.206069 -0.061109122 -1.2019967 0
-5.186173 -0.078267016 -1.1974568 0
-5.1853681 -0.095645361 -1.1973383 0
-5.1575017 -0.11243054 -1.1909841 0
-5.2053928 -0.13093691 -1.2021379 0
-5.2024865 -0.14831936 -1.2015748 0
-5.2033734 -0.16580653 -1.2019013 0
-5.1959386 -0.18301027 -1.2003189 0
-5.1928949 -0.20033762 -1.1997643 0
-5.204093 -0.21824628 -1.2025137 0
-5.2122087 -0.2360955 -1.2045652 0
-5.1770635 -0.2518996 -1.1966314 0
-5.1543107 -0.26811779 -1.1915735 0
-5.2103901 -0.28855482 -1.2047547 0
-5.1978741 -0.30534598 -1.2020907 0
-5.1748366 -0.3214063 -1.1970055 0
-5.2098732 -0.34112126 -1.2053676 0
-5.1877375 -0.35714391 -1.2005166 0
-5.1996064 -0.37548107 -1.2035477 0
-5.1629329 -0.39023766 -1.1953552 0
-5.2117019 -0.41150209 -1.2069591 0
-5.1887054 -0.42719629 -1.2019584 0
-5.171124 -0.44320899 -1.1982231 0
-5.1830049 -0.46173772 -1.201328 0
-5.1510434 -0.47630322 -1.1942834 0
-5.1822429 -0.49671736 -1.2018965 0
-5.1702161 -0.51306427 -1.1994994 0
-5.1597891 -0.52950567 -1.1974854 0
-5.1930542 -0.55052024 -1.2056272 0
-5.1826773 -0.5669983 -1.2036526 0
-5.1704154 -0.5832063 -1.2012523 0
-5.1649828 -0.60013783 -1.2004509 0
-5.1435866 -0.61513692 -1.1959506 0
-5.1204953 -0.62979603 -1.1910659 0
-5.1481938 -0.65073222 -1.1980095 0
-5.1470528 -0.66812825 -1.1982585 0
-5.1279283 -0.68313617 -1.1943327 0
-5.1802602 -0.7077924 -1.2070671 0
-5.148119 -0.72099197 -1.2001344 0
-5.1708288 -0.74185771 -1.2060015 0
-5.1210947 -0.75225443 -1.1949836 0
-5.1384425 -0.77241141 -1.1996292 0
-5.1503377 -0.79186678 -1.2030193 0
-5.1230788 -0.80526763 -1.197276 0
-5.1405454 -0.82568371 -1.2019984 0
-5.1375251 -0.84287769 -1.201946 0
-5.1432161 -0.86152959 -1.2039465 0
-5.116631 -0.8747229 -1.1984032 0
-5.1437554 -0.89712036 -1.205454 0
-5.1073613 -0.90842819 -1.197632 0
-5.1186566 -0.92815274 -1.2010036 0
-5.1014986 -0.9427191 -1.1977125 0
-5.1181102 -0.96354592 -1.2023643 0
-5.1161833 -0.98095608 -1.2026776 0
-5.1084509 -0.99724233 -1.2016391 0
-5.0988865 -1.013134 -1.2001816 0
-5.0885067 -1.028818 -1.1985437 0
-5.0814395 -1.0451348 -1.1976976 0
-5.1044164 -1.0677111 -1.2039503 0
-5.0934477 -1.0832539 -1.202213 0
-5.0910563 -1.1005995 -1.2025129 0
-5.085659 -1.117294 -1.202116 0
-5.0728383 -1.1323197 -1.1999762 0
-5.0927048 -1.1546932 -1.2055846 0
-5.0727139 -1.1680566 -1.2017726 0
-5.067153 -1.18468 -1.2013894 0
-5.0592132 -1.2007277 -1.2004547 0
-5.0621634 -1.2193707 -1.202118 0
-5.0191712 -1.2268341 -1.1928787 0
-5.0181241 -1.2444228 -1.1936147 0
-5.0578046 -1.2722788 -1.2040612 0
-5.017314 -1.2799952 -1.1954368 0
-5.0450931 -1.3051138 -1.2030914 0
-5.0186176 -1.3162332 -1.1978235 0
-5.0117388 -1.3324041 -1.1972412 0
-5.0004797 -1.3473775 -1.195624 0
-5.0260105 -1.3723481 -1.202822 0
-4.9927177 -1.3812617 -1.1959559 0
-4.9973907 -1.4006091 -1.1981934 0
-4.9932542 -1.4175234 -1.1983345 0
-5.013907 -1.4415693 -1.2044441 0
-4.9961891 -1.4546288 -1.2013527 0
-4.9729829 -1.465977 -1.1969478 0
-4.9768734 -1.4852784 -1.1990761 0
-5.0046744 -1.511868 -1.2069887 0
-4.9682136 -1.5190496 -1.1994169 0
-4.9627485 -1.5355921 -1.1993338 0
-4.9525275 -1.5506431 -1.1981134 0
-4.930449 -1.561901 -1.1940323 0
-4.9667501 -1.5917439 -1.2041092 0
-4.9144492 -1.5931717 -1.192718 0
-4.9222569 -1.6139606 -1.1959195 0
-4.927753 -1.634081 -1.1985792 0
-4.885488 -1.6382673 -1.1896285 0
-4.8971934 -1.6604789 -1.1938277 0
-4.8980312 -1.6790941 -1.1953976 0
-4.9249463 -1.7067951 -1.2033563 0
-4.9031277 -1.7176689 -1.1994256 0
-4.9001312 -1.7350864 -1.2001089 0
-4.8949947 -1.7517594 -1.2002827 0
-4.8938904 -1.7698961 -1.2014601 0
-4.909164 -1.794055 -1.2066798 0
-4.8982372 -1.8087009 -1.2054778 0
-4.8674331 -1.8158941 -1.1993884 0
-4.8659215 -1.8339388 -1.2005243 0
-4.8317838 -1.8395972 -1.1936169 0
-4.8316503 -1.8581182 -1.1951163 0
-4.871408 -1.8921806 -1.2065128 0
-4.8533063 -1.9039012 -1.2036037 0
-4.8262353 -1.911978 -1.1984733 0
-4.825624 -1.9304795 -1.1999221 0
-4.8226752 -1.9480824 -1.2008063 0
-4.8077292 -1.9608202 -1.198715 0
-4.8002095 -1.9765505 -1.1984857 0
-4.8102913 -1.9995904 -1.20267 0
-4.7958202 -2.0124593 -1.2007321 0
-4.7759318 -2.0229728 -1.1974442 0
-4.7941227 -2.0496626 -1.2037213 0
-4.7846413 -2.0646107 -1.203072 0
-4.789813 -2.0859196 -1.2061242 0
-4.7561903 -2.090276 -1.1994157 0
-4.767199 -2.114213 -1.2039726 0
-4.7379727 -2.1202898 -1.1983801 0
-4.7395349 -2.1400909 -1.2005833 0
-4.7213173 -2.1509511 -1.1977887 0
-4.6988864 -2.1597855 -1.1939284 0
-4.7333417 -2.194875 -1.2045461 0
-4.7196932 -2.207803 -1.2029499 0
-4.6906228 -2.2134027 -1.1974252 0
-4.70085 -2.2375298 -1.2019444 0
-4.7022777 -2.2575784 -1.2042381 0
-4.696106 -2.2740209 -1.2046033 0
-4.6610336 -2.276361 -1.1975578 0
-4.6672988 -2.2988338 -1.2011411 0
-4.6698284 -2.3195674 -1.2037868 0
-4.668376 -2.3383925 -1.2054267 0
-4.6206994 -2.3339233 -1.1951299 0
-4.6560936 -2.3714283 -1.2063342 0
-4.6449633 -2.3854065 -1.2055159 0
-4.6203799 -2.3923924 -1.2012107 0
-4.6178131 -2.4107316 -1.202638 0
-4.605948 -2.4242234 -1.201658 0
-4.6124535 -2.4474311 -1.2054893 0
-4.5892425 -2.4548695 -1.2015674 0
-4.561738 -2.4598632 -1.1965188 0
-4.5838633 -2.491668 -1.2045066 0
-4.5469346 -2.49138 -1.1969911 0
-4.5480518 -2.5118554 -1.1994954 0
-4.5532885 -2.5347078 -1.2031113 0
-4.5171642 -2.5344739 -1.1958047 0
-4.518085 -2.5549452 -1.1983094 0
-4.5186305 -2.5752866 -1.2007375 0
-4.5079603 -2.5892677 -1.2002022 0
-4.5086789 -2.6098232 -1.2027165 0
-4.4909539 -2.619705 -1.2003245 0
-4.457108 -2.6200297 -1.1936195 0
-4.4569016 -2.6400549 -1.195928 0
-4.4442391 -2.6527236 -1.1949102 0
-4.4599023 -2.682394 -1.2015327 0
-4.450603 -2.6971624 -1.201457 0
-4.4288988 -2.7043531 -1.1980388 0
-4.4033995 -2.7090933 -1.1935915 0
-4.4443769 -2.7548876 -1.2071959 0
-4.4148464 -2.7571151 -1.2016788 0
-4.4066558 -2.7725801 -1.201973 0
-4.3834872 -2.7785616 -1.1981877 0
-4.3695292 -2.7902942 -1.1969229 0
-4.3645072 -2.8077323 -1.1981193 0
-4.3768148 -2.8364425 -1.2041017 0
-4.3602481 -2.8465104 -1.2021629 0
-4.3541837 -2.8634179 -1.2031311 0
-4.3278027 -2.8669009 -1.1984909 0
-4.3323288 -2.8908453 -1.2024217 0
-4.3295107 -2.909991 -1.2043406 0
-4.305059 -2.9145586 -1.2002504 0
-4.2940116 -2.9281232 -1.1999009 0
-4.2747889 -2.9360607 -1.1972734 0
-4.2516322 -2.9411836 -1.1935428 0
-4.273479 -2.9775312 -1.2024716 0
-4.2657986 -2.9934752 -1.2031279 0
-4.2428627 -2.9986615 -1.1994879 0
-4.2245669 -3.0070205 -1.1971591 0
-4.2153192 -3.0217829 -1.1974028 0
-4.2438135 -3.0638018 -1.2084081 0
-4.2033224 -3.0560598 -1.1997893 0
-4.2220893 -3.0913966 -1.2080979 0
-4.1750898 -3.0785396 -1.1975963 0
-4.182436 -3.1056571 -1.2026836 0
-4.1758056 -3.1225083 -1.2037807 0
-4.1302962 -3.1101236 -1.1936607 0
-4.1318212 -3.1330354 -1.1971306 0
-4.149509 -3.1684155 -1.2053266 0
-4.1155381 -3.164376 -1.1985339 0
-4.1198668 -3.1897409 -1.2029023 0
-4.1144676 -3.2076826 -1.2044593 0
-4.1031995 -3.2210743 -1.2043153 0
-4.0884051 -3.2316742 -1.2031465 0
-4.0729918 -3.2417383 -1.2018025 0
-4.0468888 -3.2431858 -1.1973021 0
-4.0649886 -3.280134 -1.2059041 0
-4.0427151 -3.2846017 -1.2025567 0
-4.0465388 -3.3102932 -1.2069888 0
-4.0150585 -3.3070731 -1.2008995 0
-3.9997237 -3.317013 -1.1996325 0
-3.9919991 -3.3332596 -1.2006609 0
-3.9707332 -3.3381617 -1.1976244 0
-3.9770911 -3.3663297 -1.2029395 0
-3.942914 -3.360157 -1.196003 0
-3.9607885 -3.3983798 -1.2048743 0
-3.9230158 -3.3888726 -1.1968334 0
-3.9280519 -3.4162879 -1.2018576 0
-3.9015727 -3.4163017 -1.1972537 0
-3.8963454 -3.4348724 -1.1991769 0
-3.8947482 -3.4567399 -1.2022456 0
-3.8776238 -3.4648533 -1.2005389 0
-3.8554096 -3.4683211 -1.1972548 0
-3.85186 -3.4885647 -1.199778 0
-3.8425238 -3.5036314 -1.2005221 0
-3.8164811 -3.503392 -1.1960487 0
-3.8369052 -3.5459187 -1.2061685 0
-3.8067367 -3.5417757 -1.2004111 0
-3.7950907 -3.5547535 -1.2004902 0
-3.7839401 -3.5682018 -1.2007406 0
-3.7763991 -3.5850873 -1.2021552 0
-3.753552 -3.5874012 -1.1987044 0
-3.754535 -3.6125052 -1.2028797 0
-3.7238233 -3.6070771 -1.1969081 0
-3.7262383 -3.6337109 -1.2015935 0
-3.711123 -3.643326 -1.2006516 0
-3.6927257 -3.6496589 -1.1986518 0
-3.705225 -3.6866519 -1.2067145 0
-3.6773419 -3.6835265 -1.2016491 0
-3.6648667 -3.69573 -1.2016149 0
-3.6406593 -3.6960216 -1.1977341 0
-3.6395929 -3.7198036 -1.2014797 0
-3.6342213 -3.7393122 -1.2038383 0
-3.6066487 -3.7359226 -1.1988474 0
-3.5902407 -3.7439668 -1.1975592 0
-3.5960517 -3.7752836 -1.2037129 0
-3.5683205 -3.7714095 -1.1986564 0
-3.5714159 -3.8001215 -1.2039694 0
-3.5309169 -3.7823613 -1.1945851 0
-3.5325961 -3.8096874 -1.1994679 0
-3.5351436 -3.8381653 -1.2046956 0
-3.5079033 -3.8343093 -1.1997869 0
-3.5057898 -3.8578918 -1.2034813 0
-3.4694314 -3.8436956 -1.1954173 0
-3.4777582 -3.8789897 -1.2027608 0
-3.4600062 -3.8853204 -1.2011199 0
-3.4481735 -3.8982711 -1.2015427 0
-3.4290829 -3.9029799 -1.1994437 0
-3.4216428 -3.9209466 -1.2014328 0
-3.3952508 -3.9171374 -1.1967707 0
-3.4003062 -3.9496484 -1.2032136 0
-3.3861151 -3.9599397 -1.2028835 0
-3.3785837 -3.9780576 -1.2049392 0
-3.3292062 -3.9466617 -1.1920418 0
-3.3297975 -3.9743235 -1.1970179 0
-3.341975 -4.0161352 -1.2062294 0
-3.3192096 -4.0160875 -1.202866 0
-3.3111806 -4.0338387 -1.2048509 0
-3.2768393 -4.0194068 -1.1972519 0
-3.2775021 -4.0478563 -1.202446 0
-3.2609689 -4.0551624 -1.2013618 0
-3.2447507 -4.0628133 -1.2003986 0
-3.2189195 -4.0582991 -1.1958694 0
-3.2125888 -4.0783286 -1.1985908 0
-3.2087383 -4.1016569 -1.2022783 0
-3.1834691 -4.0975909 -1.1979511 0
-3.1799555 -4.1215172 -1.2018223 0
-3.1738782 -4.1422825 -1.2047675 0
-3.1385357 -4.1247287 -1.1965948 0
-3.132607 -4.1457071 -1.199627 0
-3.117753 -4.1549387 -1.1992668 0
-3.1057286 -4.1679506 -1.2000102 0
-3.09676 -4.1851287 -1.2019597 0
-3.0902226 -4.2057118 -1.2048887 0
-3.0673616 -4.2040668 -1.2014643 0
-3.0531309 -4.2141643 -1.2014179 0
-3.0565743 -4.2488279 -1.2083718 0
-3.0003614 -4.2003245 -1.1917096 0
-2.9991705 -4.2285609 -1.1968611 0
-2.9799795 -4.2314978 -1.1948576 0
-2.9696214 -4.2469659 -1.1964072 0
-2.9592514 -4.2624955 -1.1979803 0
-2.9606338 -4.2951565 -1.204363 0
-2.9251769 -4.2743158 -1.1957624 0
-2.9336259 -4.3176508 -1.2051272 0
-2.9186475 -4.3267422 -1.2049267 0
-2.8994544 -4.3295302 -1.2029891 0
-2.8657022 -4.3103185 -1.1949745 0
-2.8508849 -4.3193731 -1.1948282 0
-2.851274 -4.3516283 -1.2010994 0
-2.8247616 -4.3428588 -1.196058 0
-2.7959614 -4.3302765 -1.1900043 0
-2.812855 -4.3886604 -1.2034504 0
-2.7910597 -4.3869619 -1.2004117 0
-2.7821598 -4.4055181 -1.2029301 0
-2.7670124 -4.4142456 -1.2027732 0
-2.7451084 -4.4121051 -1.1996753 0
-2.7398021 -4.4366717 -1.2038506 0
-2.7280443 -4.4509439 -1.2052346 0
-2.6923637 -4.4259677 -1.1960205 0
-2.6856601 -4.4484711 -1.1996615 0
-2.6653271 -4.4484329 -1.1972345 0
-2.6624572 -4.4776258 -1.2026821 0
-2.6433582 -4.4796281 -1.2008326 0
-2.6193182 -4.4730859 -1.196718 0
-2.6182568 -4.5058513 -1.2031286 0
-2.5816317 -4.4773116 -1.1931901 0
-2.5772054 -4.5044684 -1.1981179 0
-2.5596173 -4.5087318 -1.1969625 0
-2.5520184 -4.5306606 -1.2005057 0
-2.5304689 -4.5278392 -1.1975032 0
-2.5252781 -4.5543408 -1.2022662 0
-2.5074794 -4.5582104 -1.2010617 0
-2.5018344 -4.5842781 -1.2057134 0
-2.4701378 -4.5625105 -1.1978033 0
-2.4544914 -4.5701423 -1.1976397 0
-2.4530654 -4.6044564 -1.2044698 0
-2.4399946 -4.6171603 -1.2056462 0
-2.4046504 -4.5874472 -1.1957754 0
-2.3948593 -4.6062608 -1.1985797 0
-2.3803234 -4.6160512 -1.1990439 0
-2.3718085 -4.6376448 -1.2025805 0
-2.3496716 -4.6326094 -1.1992251 0
-2.3292377 -4.6307421 -1.1967134 0
-2.3173726 -4.6458912 -1.1986138 0
-2.2997897 -4.6496058 -1.1975759 0
-2.2922776 -4.6737847 -1.2018174 0
-2.268234 -4.6642528 -1.197404 0
-2.2598178 -4.6868367 -1.2012498 0
-2.2351787 -4.6757431 -1.1964791 0
-2.2315032 -4.7085609 -1.2029555 0
-2.2109046 -4.705802 -1.20035 0
-2.1927145 -4.708035 -1.1990376 0
-2.183023 -4.7285862 -1.2024008 0
-2.1594715 -4.7190847 -1.1981369 0
-2.1457887 -4.7310419 -1.1993394 0
-2.1290584 -4.7363057 -1.1988574 0
-2.1173611 -4.7528329 -1.201237 0
-2.0980546 -4.7522969 -1.199317 0
-2.0777333 -4.7493014 -1.1967962 0
-2.0713003 -4.778161 -1.202312 0
-2.0426126 -4.7556138 -1.1949084 0
-2.0461578 -4.8082619 -1.2064064 0
-2.0314059 -4.8183703 -1.207227 0
-1.9995979 -4.787703 -1.1978569 0
-1.9862561 -4.8009591 -1.1995006 0
-1.9758079 -4.8214025 -1.2029463 0
-1.9462855 -4.7951188 -1.1947536 0
-1.9415023 -4.82974 -1.2017512 0
-1.9247736 -4.8349042 -1.2014238 0
-1.9138345 -4.8547297 -1.2047489 0
-1.8897506 -4.8411469 -1.1997992 0
-1.8678763 -4.8328834 -1.1961923 0
-1.8657036 -4.8758149 -1.2052633 0
-1.838928 -4.8545418 -1.1984739 0
-1.8222927 -4.8597507 -1.1982447 0
-1.8143879 -4.888463 -1.2038175 0
-1.7868023 -4.8640699 -1.1963285 0
-1.7750582 -4.8826156 -1.1994194 0
-1.7588561 -4.8890352 -1.199541 0
-1.7433716 -4.8974824 -1.2001727 0
-1.7296513 -4.9109941 -1.2020558 0
-1.7204095 -4.9375257 -1.2071313 0
-1.6889356 -4.9000096 -1.1965683 0
-1.6798208 -4.9271255 -1.2018077 0
-1.6617687 -4.9282131 -1.2007072 0
-1.6429324 -4.9268494 -1.1990261 0
-1.6246707 -4.9270725 -1.1977481 0
-1.6036818 -4.9188118 -1.1944261 0
-1.5997231 -4.9630723 -1.2038646 0
-1.5797538 -4.9579883 -1.2013397 0
-1.5576015 -4.9457288 -1.1970972 0
-1.5511382 -4.9834609 -1.2049645 0
-1.5345076 -4.9889159 -1.2050327 0
-1.5138345 -4.9810767 -1.2019064 0
-1.4971641 -4.9862533 -1.2019376 0
-1.4833709 -5.0011339 -1.2043189 0
-1.4656878 -5.0029836 -1.2035742 0
-1.445899 -4.997478 -1.2010767 0
-1.4268637 -4.9943466 -1.1991676 0
-1.4109328 -5.0020175 -1.1998669 0
-1.3941512 -5.0067101 -1.1998644 0
-1.3755864 -5.0049148 -1.1983222 0
-1.3693068 -5.0482411 -1.2075897 0
-1.3432794 -5.0188265 -1.1994694 0
-1.3354903 -5.0575585 -1.2076491 0
-1.3103811 -5.0307393 -1.2001894 0
-1.2973872 -5.05021 -1.2037901 0
-1.275102 -5.0334301 -1.1987646 0
-1.2654027 -5.0664401 -1.205609 0
-1.2461135 -5.0613322 -1.2033926 0
-1.224378 -5.0458698 -1.1987333 0
-1.2094518 -5.0583053 -1.2007176 0
-1.1894113 -5.0492811 -1.1976221 0
-1.1744882 -5.0619159 -1.1996781 0
-1.1605836 -5.079277 -1.2028637 0
-1.1409606 -5.0716419 -1.200143 0
-1.121775 -5.0656176 -1.1978205 0
-1.1052064 -5.0712852 -1.1982778 0
-1.0870272 -5.0695062 -1.1969895 0
-1.0675973 -5.0616169 -1.1942749 0
-1.05844 -5.1028662 -1.2031635 0
-1.0414388 -5.1069441 -1.2032949 0
-1.0221909 -5.099833 -1.2008051 0
-1.0060662 -5.1082063 -1.2019757 0
-0.98634517 -5.0981712 -1.1988295 0
-0.96977115 -5.1042113 -1.1994785 0
-0.95232171 -5.1056623 -1.1990623 0
-0.93466693 -5.1059251 -1.1983814 0
-0.92270321 -5.1377664 -1.2051218 0
-0.90012068 -5.1104484 -1.1979995 0
-0.88410121 -5.1199236 -1.1995189 0
-0.86628222 -5.11903 -1.1986225 0
-0.84783089 -5.1141648 -1.196811 0
-0.83910143 -5.168859 -1.2089453 0
-0.81623119 -5.1368079 -1.200802 0
-0.79889941 -5.138844 -1.200645 0
-0.77939707 -5.126574 -1.197161 0
-0.76448327 -5.1444945 -1.2007405 0
-0.74708122 -5.1460009 -1.2005006 0
-0.72830838 -5.1377888 -1.1980084 0
-0.7157957 -5.1743031 -1.2059563 0
-0.69530666 -5.1534266 -1.2005407 0
-0.67871356 -5.1609702 -1.2017611 0
-0.66266108 -5.1730146 -1.2040416 0
-0.64329106 -5.1589899 -1.2002685 0
-0.62463349 -5.149931 -1.197667 0
-0.60658014 -5.1453538 -1.1961228 0
-0.59136027 -5.165132 -1.2002529 0
-0.57424235 -5.1689143 -1.2006778 0
-0.55880803 -5.1884456 -1.2047726 0
-0.53748041 -5.1526275 -1.1960304 0
-0.52124637 -5.164753 -1.1984324 0
-0.50555408 -5.1831532 -1.2023021 0
-0.48798382 -5.1828089 -1.2018359 0
-0.47014117 -5.179316 -1.2006536 0
-0.45162645 -5.1677408 -1.1976125 0
-0.43559462 -5.1846652 -1.2011895 0
-0.41710687 -5.1724296 -1.198024 0
-0.40332893 -5.2199588 -1.2087126 0
-0.38349736 -5.1897802 -1.2014201 0
-0.3649407 -5.1746721 -1.1976326 0
-0.34897271 -5.1964712 -1.2024003 0
-0.3303262 -5.1784592 -1.1979696 0
-0.31350741 -5.1885648 -1.2000575 0
-0.29663724 -5.1988382 -1.2021967 0
-0.2786164 -5.1888447 -1.199663 0
-0.26144478 -5.1942625 -1.2007062 0
-0.24499919 -5.2157869 -1.2054852 0
-0.22659987 -5.1957049 -1.2006614 0
-0.2091144 -5.1948462 -1.2002941 0
-0.19217463 -5.2084932 -1.2032918 0
-0.17403014 -5.1888242 -1.1986063 0
-0.15605414 -5.1702332 -1.1941842 0
-0.13965075 -5.2054787 -1.2022099 0
-0.12201294 -5.1980777 -1.2003995 0
-0.10531134 -5.2346067 -1.2087468 0
-0.086600855 -5.1657805 -1.1927801 0
-0.06980215 -5.2049413 -1.2017616 0
-0.052300252 -5.2001429 -1.2006065 0
-0.03478523 -5.1884112 -1.1978642 0
-0.017414138 -5.1959186 -1.1995772 0
6.9026091e-06 -5.2024689 -1.2010827 0
0.017425315 -5.1951404 -1.1993976 0
0.034914538 -5.2056379 -1.2018414 0
0.052359309 -5.2046413 -1.201645 0
0.06946826 -5.1790195 -1.1957766 0
0.087220334 -5.2019091 -1.2011223 0
0.10523729 -5.2302356 -1.2077376 0
0.122172 -5.2042651 -1.2018285 0
0.13903241 -5.1819177 -1.1967686 0
0.15678814 -5.1940947 -1.1996956 0
0.1749756 -5.2166009 -1.2050226 0
0.19188195 -5.2001867 -1.2013729 0
0.20898807 -5.1913652 -1.1994901 0
0.22639745 -5.1907473 -1.1995159 0
0.24542399 -5.224535 -1.2075071 0
0.26187697 -5.2025743 -1.2026278 0
0.27832428 -5.1831474 -1.198346 0
0.29524586 -5.1742115 -1.1965021 0
0.31271854 -5.175281 -1.1969852 0
0.3320151 -5.2047181 -1.2040443 0
0.34853274 -5.189714 -1.2008369 0
0.36680692 -5.2009373 -1.2037116 0
0.38320836 -5.1856823 -1.2004718 0
0.39874345 -5.1604342 -1.1949296 0
0.41824627 -5.1863871 -1.2012571 0
0.43444145 -5.1707749 -1.1979717 0
0.45061672 -5.1560287 -1.1948986 0
0.4706915 -5.1852255 -1.2020239 0
0.48528418 -5.1539893 -1.1951532 0
0.50403225 -5.1674085 -1.1986502 0
0.52356023 -5.187542 -1.2037208 0
0.5388934 -5.1660404 -1.1991441 0
0.55804074 -5.1811924 -1.2030886 0
0.57361531 -5.1631455 -1.1993381 0
0.59106731 -5.1624522 -1.1996305 0
0.60598516 -5.1401892 -1.1949226 0
0.62526882 -5.1550546 -1.1988589 0
0.64336258 -5.159452 -1.2003764 0
0.66451716 -5.1873946 -1.207389 0
0.6791296 -5.1640277 -1.2024734 0
0.69734269 -5.1684136 -1.2040324 0
0.71029788 -5.1344604 -1.1966708 0
0.72998476 -5.1495161 -1.2007436 0
0.74862391 -5.1565309 -1.2029576 0
0.7626552 -5.1320992 -1.1978478 0
0.77962464 -5.1279788 -1.1974895 0
0.79974723 -5.1442075 -1.2018987 0
0.8176682 -5.1457634 -1.2028959 0
0.83128345 -5.1206145 -1.1976618 0
0.85009307 -5.1277266 -1.1999851 0
0.86603314 -5.117476 -1.1982591 0
0.88439012 -5.1215153 -1.1998924 0
0.9007476 -5.1139283 -1.1988157 0
0.9255349 -5.1534548 -1.2088023 0
0.93469888 -5.1060233 -1.198405 0
0.95775515 -5.134717 -1.2058865 0
0.97054601 -5.1082158 -1.2004201 0
0.98957115 -5.1147728 -1.202734 0
1.0049289 -5.1023602 -1.2006007 0
1.021906 -5.0983415 -1.2004546 0
1.0359362 -5.0798922 -1.1969216 0
1.0621364 -5.1206183 -1.2073498 0
1.0712976 -5.0790939 -1.1983993 0
1.0969676 -5.1157985 -1.2079206 0
1.1014522 -5.0539951 -1.194193 0
1.128886 -5.0976648 -1.2053992 0
1.1467637 -5.0973735 -1.2062328 0
1.1634401 -5.0917163 -1.2058103 0
1.1746643 -5.0626135 -1.1998442 0
1.1915767 -5.0584135 -1.1997889 0
1.210914 -5.0643606 -1.2021557 0
1.2312529 -5.0741439 -1.2054511 0
1.2420628 -5.0448217 -1.1994678 0
1.2643764 -5.062274 -1.2046185 0
1.2759529 -5.0367327 -1.1995519 0
1.2914542 -5.02706 -1.1982727 0
1.3098418 -5.028614 -1.1996832 0
1.3318383 -5.0436735 -1.2043345 0
1.3402508 -5.0074582 -1.1967533 0
1.3597808 -5.0130687 -1.199177 0
1.3783624 -5.0149627 -1.2007288 0
1.3978226 -5.0198431 -1.2030127 0
1.4144008 -5.0142617 -1.2028048 0
1.4292884 -5.0027833 -1.2011943 0
1.452433 -5.0200119 -1.2064933 0
1.4588653 -4.9796462 -1.1979609 0
1.4685298 -4.9510498 -1.1922591 0
1.4980657 -4.9892077 -1.2026507 0
1.5177151 -4.9937973 -1.2049769 0
1.5304776 -4.9757667 -1.2018576 0
1.536867 -4.9375648 -1.1938682 0
1.5659246 -4.9721107 -1.2034838 0
1.5748049 -4.9424109 -1.1975664 0
1.5931511 -4.9426379 -1.1989089 0
1.6089907 -4.9350505 -1.1983703 0
1.6335825 -4.9540548 -1.2043083 0
1.646112 -4.9363408 -1.2013371 0
1.6618298 -4.9283514 -1.200742 0
1.6777843 -4.9211097 -1.2003413 0
1.6997143 -4.9312391 -1.2041954 0
1.7065941 -4.8978338 -1.1974285 0
1.7271466 -4.903841 -1.2003061 0
1.742875 -4.8960462 -1.1998217 0
1.7613884 -4.8960338 -1.2012593 0
1.7684171 -4.8643079 -1.1949233 0
1.7856081 -4.8607793 -1.1955203 0
1.7981029 -4.8445473 -1.1930041 0
1.8208768 -4.8559356 -1.1973052 0
1.8498132 -4.8832388 -1.2055596 0
1.8529289 -4.842391 -1.1970023 0
1.8722539 -4.8441715 -1.1989875 0
1.8855557 -4.8303628 -1.1971277 0
1.915078 -4.8578463 -1.2055235 0
1.9254564 -4.8365822 -1.201842 0
1.942233 -4.8315206 -1.2021955 0
1.9519107 -4.8089409 -1.1981989 0
1.9648316 -4.7945814 -1.1962558 0
1.9801345 -4.7861266 -1.195796 0
2.0080128 -4.8078156 -1.2028903 0
2.0237103 -4.8000808 -1.2026459 0
2.0351875 -4.7824473 -1.1999308 0
2.048399 -4.7690501 -1.1982859 0
2.0582533 -4.7480292 -1.1947314 0
2.0679266 -4.726851 -1.1911403 0
2.1054468 -4.7690063 -1.2035352 0
2.1133513 -4.7437983 -1.1989551 0
2.1397717 -4.7601047 -1.2048829 0
2.1257782 -4.6868901 -1.188148 0
2.1726098 -4.7477622 -1.2054193 0
2.1824167 -4.7272401 -1.2020599 0
2.191314 -4.7049952 -1.198265 0
2.2071095 -4.6976919 -1.1982828 0
2.2238419 -4.6923633 -1.1988188 0
2.2370064 -4.6795349 -1.1974509 0
2.2572176 -4.6814122 -1.199861 0
2.2738929 -4.6758575 -1.2003847 0
2.2840071 -4.6568913 -1.1974748 0
2.3037901 -4.6576619 -1.1996526 0
2.3309939 -4.6731682 -1.2056526 0
2.336802 -4.64575 -1.2005935 0
2.350971 -4.6351399 -1.1998819 0
2.358803 -4.612185 -1.1959801 0
2.3868456 -4.6286693 -1.2023231 0
2.3966486 -4.6096721 -1.199469 0
2.4119992 -4.6014371 -1.1994237 0
2.4333382 -4.6045351 -1.2023511 0
2.4596064 -4.6167045 -1.2076755 0
2.4696765 -4.5983868 -1.2050431 0
2.4798336 -4.58039 -1.2024989 0
2.4952753 -4.5722303 -1.2025465 0
2.518254 -4.5777683 -1.2062168 0
2.5276692 -4.5586243 -1.2033988 0
2.5330415 -4.532414 -1.198715 0
2.5574121 -4.5402083 -1.2030374 0
2.5675907 -4.5227485 -1.2006854 0
2.5800023 -4.5093293 -1.1994126 0
2.597306 -4.504468 -1.2004291 0
2.6044462 -4.4820566 -1.1967769 0
2.6236091 -4.4803863 -1.198673 0
2.6527655 -4.495543 -1.2051008 0
2.6502407 -4.4570537 -1.1971583 0
2.6755254 -4.4654269 -1.2018101 0
2.6932635 -4.4610386 -1.2030525 0
2.7199309 -4.4712586 -1.2082613 0
2.7107437 -4.4226909 -1.1975862 0
2.7412746 -4.4390297 -1.2044923 0
2.7378433 -4.4004025 -1.1964953 0
2.7825754 -4.4390473 -1.2095331 0
2.7725871 -4.3903341 -1.198786 0
2.7909987 -4.3868403 -1.2003804 0
2.7985711 -4.3663492 -1.1973342 0
2.8099489 -4.3519144 -1.1959527 0
2.8424878 -4.3700862 -1.2035588 0
2.8484714 -4.3473258 -1.199914 0
2.8674772 -4.3444872 -1.2017773 0
2.882627 -4.3357506 -1.2020273 0
2.8966405 -4.3253036 -1.2018168 0
2.904161 -4.3052421 -1.1989415 0
2.9258237 -4.3061428 -1.2019173 0
2.9277613 -4.2780676 -1.1968143 0
2.9471581 -4.2755823 -1.1988766 0
2.9699283 -4.2778506 -1.2022979 0
2.9658575 -4.241559 -1.1948862 0
2.9930825 -4.2500796 -1.2001069 0
3.0083532 -4.2414837 -1.200521 0
3.0123229 -4.2170463 -1.1964562 0
3.0457926 -4.2338171 -1.2041049 0
3.0524254 -4.2131667 -1.2011359 0
3.0813358 -4.2231956 -1.2069335 0
3.0754468 -4.1855788 -1.1991233 0
3.0938404 -4.1811595 -1.2008222 0
3.1145363 -4.1797476 -1.2034091 0
3.1030247 -4.1352878 -1.1935972 0
3.1443532 -4.1612291 -1.204121 0
3.1587834 -4.1513157 -1.2043102 0
3.1663649 -4.1324539 -1.2019114 0
3.1820676 -4.1242318 -1.2026163 0
3.1965497 -4.1144052 -1.2028692 0
3.1949759 -4.0840421 -1.1971176 0
3.2009149 -4.0634866 -1.1942313 0
3.2235103 -4.064065 -1.1975709 0
3.2511742 -4.0708337 -1.2027709 0
3.2580945 -4.0515661 -1.2002989 0
3.2646098 -4.0319118 -1.1977122 0
3.2760677 -4.0184388 -1.1969662 0
3.2860761 -4.0032339 -1.1957121 0
3.3152709 -4.0113001 -1.2014347 0
3.3334262 -4.0058403 -1.2031401 0
3.3482034 -3.9962704 -1.2036308 0
3.3558102 -3.9781783 -1.2015637 0
3.3464284 -3.9401758 -1.1934677 0
3.3765543 -3.9487374 -1.1994833 0
3.3883452 -3.9357338 -1.1989775 0
3.4028852 -3.9259241 -1.199458 0
3.4214439 -3.9206979 -1.2013594 0
3.4284663 -3.9022572 -1.1992244 0
3.4533913 -3.9041491 -1.2033573 0
3.4669228 -3.8930664 -1.2035173 0
3.4661653 -3.8660386 -1.1987479 0
3.4762166 -3.8511925 -1.1977518 0
3.502624 -3.8543875 -1.202391 0
3.5102015 -3.8368008 -1.2005695 0
3.5186124 -3.8201969 -1.1990587 0
3.5192566 -3.7952812 -1.1949351 0
3.5464017 -3.7989287 -1.1998205 0
3.5746081 -3.8034978 -1.205042 0
3.5747426 -3.7781765 -1.2008102 0
3.5756831 -3.7538798 -1.1968917 0
3.5870986 -3.7406704 -1.1965078 0
3.6163895 -3.7459929 -1.202082 0
3.6117554 -3.716177 -1.1963934 0
3.6421361 -3.722383 -1.202316 0
3.6372993 -3.692591 -1.1966256 0
3.6601243 -3.690928 -1.2000567 0
3.6771419 -3.6833065 -1.2015804 0
3.6687648 -3.6503553 -1.1948371 0
3.6947482 -3.6516383 -1.1993051 0
3.7163801 -3.6484675 -1.2023493 0
3.7429109 -3.6499503 -1.2069668 0
3.7458305 -3.6283751 -1.2039785 0
3.7374184 -3.5960169 -1.1973927 0
3.7606716 -3.5941865 -1.2009751 0
3.7569687 -3.5666225 -1.195967 0
3.775007 -3.5597591 -1.1979029 0
3.7870588 -3.5472114 -1.1979465 0
3.8143451 -3.5488358 -1.2028073 0
3.8373799 -3.5463386 -1.2063149 0
3.8291874 -3.5150371 -1.2000279 0
3.8518941 -3.5121567 -1.2034467 0
3.8432081 -3.4807103 -1.1970801 0
3.8676481 -3.4793122 -1.2010524 0
3.8628099 -3.4515977 -1.1959496 0
3.905935 -3.4666502 -1.2056959 0
3.8968766 -3.4353223 -1.1993376 0
3.9123013 -3.4256778 -1.2005432 0
3.9188955 -3.4083061 -1.1990533 0
1.7847488 -1.5417358 -0.5444898 0
1.7780503 -1.5255694 -0.54088271 0
1.7910645 -1.5263395 -0.54328185 0
1.7824267 -1.5086915 -0.53912437 0
1.7797713 -1.4962305 -0.5368008 0
1.7992294 -1.5023216 -0.54114735 0
1.7849268 -1.4802506 -0.53534991 0
1.8085674 -1.4896501 -0.54093933 0
1.8136255 -1.4836383 -0.54096133 0
1.8146961 -1.4743857 -0.53980309 0
1.8047028 -1.4562488 -0.53537512 0
1.8170848 -1.4562079 -0.53759688 0
1.8086151 -1.4394885 -0.53366017 0
1.8025389 -1.4248066 -0.53045475 0
1.8051956 -1.4170984 -0.52983534 0
1.8200074 -1.4188892 -0.53278345 0
1.8161309 -1.4061024 -0.53026557 0
1.8203285 -1.3996159 -0.53011805 0
1.8154323 -1.386191 -0.5273357 0
1.8345107 -1.3910465 -0.53151971 0
1.8334491 -1.3805844 -0.52986807 0
1.8338801 -1.3712981 -0.52866089 0
1.8265997 -1.3563294 -0.52524823 0
1.849322 -1.3636063 -0.53046447 0
1.8519992 -1.3560185 -0.52992529 0
1.839745 -1.3375943 -0.52513278 0
1.838124 -1.3270178 -0.52339709 0
1.8438569 -1.3217751 -0.52376467 0
1.859255 -1.3233987 -0.52687526 0
1.8561186 -1.3118123 -0.52473712 0
1.8646981 -1.3085232 -0.52591938 0
1.8432665 -1.2842821 -0.51865745 0
1.8742937 -1.296587 -0.52616167 0
1.8636618 -1.2800146 -0.52196926 0
1.8483045 -1.2603674 -0.51648164 0
1.8724382 -1.2676481 -0.52203482 0
1.8812122 -1.2644107 -0.52329618 0
1.8779589 -1.2531037 -0.52121955 0
1.8912472 -1.2528267 -0.52373886 0
1.8924216 -1.2444956 -0.52290565 0
1.9061362 -1.2443799 -0.5255394 0
1.8856237 -1.2219919 -0.51875138 0
1.8700912 -1.2030418 -0.51336569 0
1.9135797 -1.2219667 -0.52417624 0
4.3986988 -2.7881875 -1.2023437 0
4.3805585 -2.756144 -1.1948525 0
4.3691278 -2.7285473 -1.1892327 0
4.4183025 -2.7387087 -1.2001114 0
4.4150143 -2.7162228 -1.1967379 0
4.4340582 -2.7074876 -1.1994325 0
4.4615955 -2.7038076 -1.2044225 0
4.4525166 -2.6779358 -1.199541 0
4.4533062 -2.6581194 -1.197346 0
4.4734902 -2.6498652 -1.2003773 0
4.4947019 -2.6421125 -1.2036853 0
4.4757853 -2.6108408 -1.1962684 0
4.500741 -2.6052125 -1.200597 0
4.5102015 -2.590539 -1.2007971 0
4.505897 -2.5680139 -1.1973521 0
4.5083323 -2.5494142 -1.1957209 0
4.520062 -2.5360839 -1.19657 0
4.5347152 -2.5243528 -1.1982019 0
4.5359774 -2.5051711 -1.1963092 0
4.5514083 -2.4938157 -1.198167 0
4.5729885 -2.4857407 -1.2016472 0
4.5535316 -2.4554224 -1.1943647 0
4.5932512 -2.4569981 -1.2026153 0
4.5709972 -2.4254184 -1.1946529 0
4.6172309 -2.4301465 -1.2046 0
4.6201367 -2.4119289 -1.2032415 0
4.6535625 -2.4095585 -1.2098359 0
4.635323 -2.3804402 -1.2030122 0
4.6522112 -2.3694353 -1.2053267 0
4.6603179 -2.3539193 -1.2053756 0
4.6323328 -2.3203232 -1.1961184 0
4.6756101 -2.3224237 -1.2052757 0
4.667973 -2.2991505 -1.201313 0
4.682869 -2.2870097 -1.2031665 0
4.6701632 -2.2614434 -1.1979471 0
4.7020268 -2.2574425 -1.2041723 0
4.6720734 -2.2238176 -1.1945851 0
4.7116022 -2.2232873 -1.2027794 0
4.6901226 -2.1939552 -1.1954114 0
4.7128386 -2.1853526 -1.1993271 0
4.7295666 -2.1738722 -1.2017225 0
4.7200956 -2.1503794 -1.1974773 0
4.7393465 -2.1399908 -1.2005342 0
4.7597532 -2.1300218 -1.2038877 0
4.730638 -2.0979836 -1.1947377 0
4.7509136 -2.0879419 -1.1980835 0
4.7890253 -2.0855615 -1.2059244 0
4.7862854 -2.065305 -1.2034841 0
4.8003192 -2.0522969 -1.2052758 0
4.7940016 -2.0306118 -1.2019733 0
4.7979498 -2.0133379 -1.201264 0
4.7897072 -1.9910189 -1.1975223 0
4.7945461 -1.9742036 -1.1970704 0
4.8273063 -1.9687897 -1.2035948 0
4.8289943 -1.9506201 -1.2023784 0
4.8230639 -1.9294405 -1.1992843 0
4.8231115 -1.9107256 -1.1976963 0
4.8193049 -1.8905482 -1.1951704 0
4.8488889 -1.8834188 -1.2009343 0
4.8463249 -1.8637469 -1.1987448 0
4.8578787 -1.8495176 -1.200062 0
4.8419018 -1.8248714 -1.194597 0
4.8633657 -1.814362 -1.198385 0
4.86203 -1.7953167 -1.196566 0
4.8860755 -1.7856027 -1.2010036 0
4.8892879 -1.7682172 -1.2003292 0
4.8936276 -1.7512555 -1.1999463 0
4.9049945 -1.7367938 -1.2012988 0
4.8846016 -1.7111642 -1.1948925 0
4.9102049 -1.7016717 -1.1997533 0
4.9108381 -1.6834699 -1.1985221 0
4.9469275 -1.6773275 -1.2059506 0
4.8984003 -1.6425828 -1.1927716 0
4.9244599 -1.6329746 -1.1977773 0
4.9414697 -1.6202458 -1.2005864 0
4.9336853 -1.5993934 -1.1973855 0
4.9152827 -1.5752352 -1.1916307 0
4.9298525 -1.5616976 -1.1938869 0
4.9402013 -1.5467694 -1.1951305 0
5.0015044 -1.5475696 -1.2086989 0
4.9644346 -1.5178797 -1.1985036 0
4.9983296 -1.5099368 -1.2054576 0
4.986619 -1.4881724 -1.201423 0
4.983139 -1.4689565 -1.1993914 0
