# .PCD v0.7 - Point Cloud Data file format
VERSION 0.7
FIELDS x y z intensity
SIZE 4 4 4 4
TYPE F F F F
COUNT 1 1 1 1
WIDTH 1397
HEIGHT 1
VIEWPOINT 0 0 0 1 0 0 0
POINTS 1397
DATA ascii
-1.3617142 7.4388113 -1.1977677 0
-1.388145 7.4422321 -1.1990612 0
-1.413085 7.4375119 -1.1990572 0
-1.437385 7.4294829 -1.1985331 0
-1.4672049 7.4495945 -1.2025644 0
-1.4919909 7.4437213 -1.202417 0
-1.5122093 7.4154797 -1.1986673 0
-1.5378323 7.4140739 -1.1992668 0
-1.5651354 7.4205098 -1.2011498 0
-1.5939344 7.4335403 -1.2041174 0
-1.6145974 7.4086475 -1.2009553 0
-1.6356394 7.3860836 -1.1981798 0
-1.6635064 7.3943911 -1.2004255 0
-1.6871989 7.3840008 -1.1996504 0
-1.7151178 7.3919706 -1.2018727 0
-1.7406015 7.3891902 -1.2023628 0
-1.7629833 7.3733463 -1.2007397 0
-1.7856973 7.3591619 -1.199398 0
-1.8148768 7.3714747 -1.2023897 0
-1.8335787 7.3413129 -1.1984661 0
-1.8593206 7.3396173 -1.1992002 0
-1.8873645 7.3467555 -1.2013936 0
-1.9041086 7.3101435 -1.1964438 0
-1.9314498 7.3144822 -1.1982071 0
-1.9624199 7.3320899 -1.2021625 0
-1.9863634 7.3231516 -1.2017822 0
-2.0113797 7.3181763 -1.2020657 0
-2.0295212 7.2884665 -1.1982965 0
-2.0576749 7.2948384 -1.2004718 0
-2.079423 7.2784529 -1.1989158 0
-2.1025076 7.266922 -1.1981709 0
-2.1282873 7.2647028 -1.1989748 0
-2.1563196 7.2699571 -1.2010285 0
-2.1831553 7.2709227 -1.2023904 0
-2.2022369 7.2461753 -1.1995124 0
-2.2290187 7.2468762 -1.2008587 0
-2.2508855 7.2315927 -1.1995699 0
-2.2776721 7.2321119 -1.2009161 0
-2.2942593 7.2004323 -1.1969262 0
-2.3219616 7.2037864 -1.1987711 0
-2.3486204 7.2036872 -1.2000582 0
-2.3774881 7.2101116 -1.2024497 0
-2.3989286 7.1939421 -1.2010877 0
-2.4240322 7.1888156 -1.201582 0
-2.442688 7.164711 -1.1989151 0
-2.4663157 7.1553769 -1.1987302 0
-2.5005126 7.1763992 -1.2036498 0
-2.5201447 7.1554394 -1.2015448 0
-2.5400879 7.1356192 -1.1996399 0
-2.5721776 7.1497993 -1.203467 0
-2.6011014 7.1547961 -1.2057692 0
-2.6154754 7.1199007 -1.2013596 0
-2.6329448 7.0938816 -1.1984521 0
-2.660053 7.0939174 -1.1999581 0
-2.6764007 7.0653663 -1.1966398 0
-2.7078538 7.076683 -1.2000874 0
-2.7300639 7.0636797 -1.1994278 0
-2.7574949 7.064127 -1.2010669 0
-2.7734916 7.0353794 -1.1977534 0
-2.7988009 7.0304036 -1.1984972 0
-2.8214006 7.0186014 -1.1980911 0
-2.8354256 6.9857183 -1.1940939 0
-2.8713281 7.0066671 -1.1993138 0
-2.8931682 6.9930468 -1.1986359 0
-2.9121346 6.9726195 -1.1968015 0
-2.9382977 6.9694619 -1.1979437 0
-2.9660671 6.9699545 -1.199731 0
-2.9994991 6.9834385 -1.2037762 0
-3.0137091 6.9521489 -1.2001177 0
-3.0389516 6.9464631 -1.2008884 0
-3.0617936 6.9352584 -1.2007194 0
-3.0815139 6.9170637 -1.1993512 0
-3.1112959 6.9213924 -1.2019037 0
-3.1295891 6.9001284 -1.2000266 0
-3.1525712 6.8893013 -1.1999753 0
-3.1767941 6.8811665 -1.2004068 0
-3.2071738 6.8862071 -1.2031552 0
-3.2269037 6.8683057 -1.201911 0
-3.2453051 6.8477235 -1.2002066 0
-3.2713788 6.843358 -1.2013571 0
-3.2830524 6.8090138 -1.1972537 0
-3.3071103 6.8005323 -1.1977053 0
-3.3349233 6.7996631 -1.1995147 0
-3.352726 6.7783823 -1.1977369 0
-3.3803518 6.7769628 -1.199482 0
-3.4047937 6.7690482 -1.2000949 0
-3.4180467 6.7390161 -1.1967955 0
-3.4449396 6.7359595 -1.1982973 0
-3.4807327 6.7500243 -1.2028686 0
-3.5012443 6.7342763 -1.2021474 0
-3.5130854 6.7020521 -1.198491 0
-3.5413404 6.7012186 -1.2004584 0
-3.5677037 6.6966567 -1.2017773 0
-3.587512 6.6797709 -1.2008989 0
-3.6083601 6.6648831 -1.2003906 0
-3.6378343 6.6658459 -1.202754 0
-3.6493213 6.633903 -1.1991913 0
-3.6760364 6.6297336 -1.2006589 0
-3.6903145 6.6031833 -1.1980846 0
-3.7145407 6.5945148 -1.1987648 0
-3.7354827 6.5800028 -1.1983968 0
-3.7758698 6.5995078 -1.2042481 0
-3.764504 6.5287614 -1.1936351 0
-3.7948062 6.5306172 -1.1962937 0
-3.8330476 6.5458069 -1.2014238 0
-3.8433831 6.513278 -1.1978117 0
-3.8786886 6.5230408 -1.2019919 0
-3.9009321 6.5106587 -1.2021136 0
-3.9270272 6.5046453 -1.2034277 0
-3.9446251 6.4845562 -1.2021511 0
-3.9480329 6.4414177 -1.196601 0
-3.9760344 6.4385519 -1.1985384 0
-4.0198903 6.4610124 -1.2052215 0
-4.0199828 6.4131231 -1.1987959 0
-4.0365243 6.3917894 -1.1973312 0
-4.0703812 6.3977876 -1.2010044 0
-4.1135697 6.4180565 -1.2073916 0
-4.130085 6.3965149 -1.2059374 0
-4.1283116 6.3469687 -1.1991993 0
-4.1617661 6.3517079 -1.2027243 0
-4.1842504 6.3395543 -1.2030727 0
-4.1838927 6.2930164 -1.1968966 0
-4.240736 6.3323622 -1.2070774 0
-4.234457 6.2773614 -1.1992925 0
-4.2546997 6.2619796 -1.1990726 0
-4.2890382 6.2672119 -1.2028214 0
-4.3002129 6.2385583 -1.2000824 0
-4.3276086 6.2334728 -1.2018886 0
-4.3370528 6.20258 -1.1987292 0
-4.3660111 6.1996284 -1.200981 0
-4.3745599 6.1677365 -1.1976376 0
-4.4080834 6.1710501 -1.2011441 0
-4.417172 6.1401434 -1.1980042 0
-4.4488263 6.1406097 -1.2009988 0
-4.4638972 6.1181316 -1.1995229 0
-4.4871869 6.1069431 -1.2002722 0
-4.5072598 6.0913544 -1.2001718 0
-4.5155277 6.0599298 -1.1969564 0
-4.5467653 6.0593424 -1.1998448 0
-4.5706644 6.04884 -1.2007929 0
-4.5802636 6.0194769 -1.1980058 0
-4.6096015 6.0160694 -1.2003968 0
-4.6433978 6.0182743 -1.2039363 0
-4.6611576 5.9995928 -1.2033187 0
-4.6674724 5.9663234 -1.199778 0
-4.6808343 5.9422421 -1.1980846 0
-4.6908345 5.9140372 -1.1955622 0
-4.7245631 5.9157138 -1.1990967 0
-4.7531672 5.9107785 -1.2013199 0
-4.7542582 5.8717132 -1.1966132 0
-4.7931042 5.8792744 -1.2014223 0
-4.792151 5.838028 -1.1962703 0
-4.8111787 5.8213 -1.1961414 0
-4.8134551 5.7844496 -1.1918788 0
-4.8777843 5.8219438 -1.2029674 0
-4.8757844 5.7800779 -1.1976881 0
-4.907804 5.7786131 -1.2007874 0
-4.9204721 5.7543149 -1.1991596 0
-4.9517317 5.7517171 -1.2020713 0
-4.9701424 5.7341065 -1.2018669 0
-4.9775085 5.7038527 -1.1990168 0
-5.0030556 5.6944747 -1.2005649 0
-5.0195661 5.6747808 -1.1999544 0
-5.0214963 5.6387529 -1.1958895 0
-5.0533595 5.6363692 -1.1989704 0
-5.0749502 5.6224098 -1.1996138 0
-5.1073542 5.6203084 -1.2028124 0
-5.103394 5.5782585 -1.1974684 0
-5.1415124 5.5822272 -1.2020141 0
-5.154623 5.5589433 -1.2007151 0
-5.1701117 5.5382867 -1.1999909 0
-5.1926789 5.5252066 -1.2009223 0
-5.2178564 5.5148277 -1.2024621 0
-5.2288013 5.4894118 -1.2007362 0
-5.2483363 5.4730582 -1.2010014 0
-5.2672362 5.4560313 -1.2011336 0
-5.2823586 5.4351082 -1.2004197 0
-5.305584 5.4225101 -1.2015593 0
-5.3179231 5.3987913 -1.2002478 0
-5.3429794 5.3879747 -1.2018188 0
-5.3503141 5.3593125 -1.1994202 0
-5.3642225 5.3373337 -1.1985197 0
-5.378912 5.3161798 -1.1978124 0
-5.4192386 5.3202362 -1.2028136 0
-5.4164777 5.2819796 -1.1982635 0
-5.4409609 5.2703805 -1.1997639 0
-5.4783669 5.2711263 -1.2041084 0
-5.4768343 5.2344027 -1.1999073 0
-5.4667244 5.1897812 -1.1938734 0
-5.515451 5.2009921 -1.2006997 0
-5.5228186 5.1730671 -1.1985211 0
-5.5433774 5.1575408 -1.1992233 0
-5.552547 5.1314483 -1.1974782 0
-5.5636601 5.1072392 -1.1961752 0
-5.5878987 5.0950727 -1.1977069 0
-5.6042337 5.0756598 -1.1975539 0
-5.6369596 5.0710006 -1.200907 0
-5.6501503 5.0486956 -1.2001042 0
-5.6563582 5.0202374 -1.1978409 0
-5.6771851 5.0047946 -1.1986911 0
-5.7105708 5.0002995 -1.2021936 0
-5.7161169 4.971396 -1.1998456 0
-5.7411895 4.9594908 -1.2016113 0
-5.7508121 4.9342303 -1.2001559 0
-5.7791519 4.9250016 -1.2026173 0
-5.7818084 4.8938971 -1.1997489 0
-5.8068771 4.8817921 -1.2015476 0
-5.8209534 4.8604093 -1.2010816 0
-5.8228302 4.8289342 -1.1981213 0
-5.8447523 4.8141322 -1.1993042 0
-5.8631959 4.7964196 -1.199782 0
-5.8919621 4.7870674 -1.2023774 0
-5.8871379 4.7504687 -1.1981359 0
-5.9264383 4.7494612 -1.2028866 0
-5.9270887 4.7174344 -1.1998016 0
-5.9441776 4.6985669 -1.2000651 0
-5.9330864 4.6575637 -1.1946665 0
-5.9834738 4.6647792 -1.2016562 0
-5.9758782 4.6267276 -1.1970087 0
-6.0145206 4.624476 -1.2016366 0
-6.0078421 4.5873713 -1.1972226 0
-6.0297546 4.5721812 -1.1985277 0
-6.0466895 4.5531731 -1.1988527 0
-6.0662527 4.5361128 -1.1997093 0
-6.0812736 4.5156341 -1.1996789 0
-6.1129994 4.5074744 -1.2029495 0
-6.1168094 4.4787025 -1.2007375 0
-6.1341333 4.4598718 -1.2011962 0
-6.1592617 4.446651 -1.2031906 0
-6.1390967 4.400857 -1.1963623 0
-6.1581411 4.3833265 -1.1972029 0
-6.1842966 4.3707781 -1.199432 0
-6.1878514 4.3422542 -1.1972911 0
-6.1941133 4.3157263 -1.1956961 0
-6.2347741 4.313077 -1.200747 0
-6.2469058 4.2905726 -1.2003062 0
-6.2756605 4.2794266 -1.2030675 0
-6.2760224 4.2489166 -1.2003992 0
-6.2848244 4.224215 -1.199367 0
-6.3027353 4.2056441 -1.2000874 0
-6.3469858 4.2044845 -1.2058221 0
-6.3212461 4.1570063 -1.1982772 0
-6.3384199 4.1379247 -1.1988961 0
-6.3645611 4.1246233 -1.2012181 0
-6.3671017 4.0960221 -1.1990989 0
-6.3918018 4.0816774 -1.2011666 0
-6.3843122 4.0468245 -1.1972027 0
-6.3938208 4.0228648 -1.1964496 0
-6.4237242 4.0116792 -1.1995217 0
-6.4403424 3.9921048 -1.2001187 0
-6.4374175 3.9604774 -1.1970925 0
-6.435164 3.9294095 -1.1942168 0
-6.4923878 3.9345281 -1.2023814 0
-6.5050416 3.9124367 -1.2022887 0
-6.527751 3.8963516 -1.2040646 0
-6.5193419 3.8617456 -1.2001185 0
-6.5286479 3.8377466 -1.1994562 0
-6.5426221 3.816503 -1.199666 0
-6.5614657 3.7980673 -1.2007794 0
-6.5744734 3.7762249 -1.2008362 0
-6.5796452 3.7499132 -1.1994776 0
-6.5973248 3.7307408 -1.2004136 0
-6.6271524 3.7183383 -1.2035656 0
-6.6219912 3.6863053 -1.2003769 0
-6.6135683 3.6526251 -1.1966233 0
-6.6435041 3.6401434 -1.1998248 0
-6.661675 3.6211119 -1.2009071 0
-6.6558776 3.5891032 -1.1976858 0
-6.6744471 3.5702832 -1.1988665 0
-6.707377 3.5590262 -1.2026312 0
-6.6975117 3.5250647 -1.1987367 0
-6.6999192 3.4976959 -1.1970619 0
-6.7320089 3.4857757 -1.2007003 0
-6.7442646 3.4634964 -1.2008083 0
-6.7733178 3.4497671 -1.2039151 0
-6.7799764 3.424578 -1.203051 0
-6.7821822 3.3971996 -1.2014145 0
-6.8042831 3.3797801 -1.2033154 0
-6.804975 3.3517261 -1.2014437 0
-6.8248234 3.3331151 -1.2029681 0
-6.8246098 3.3047178 -1.2009706 0
-6.8176303 3.2731655 -1.1978045 0
-6.8377805 3.2546747 -1.1994208 0
-6.8600364 3.2371016 -1.2014141 0
-6.8655376 3.2115974 -1.200485 0
-6.8661327 3.1838613 -1.1987157 0
-6.8696518 3.1575511 -1.1974751 0
-6.8662271 3.1281352 -1.1950432 0
-6.9069467 3.1187646 -1.2003037 0
-6.9147644 3.0944257 -1.1998525 0
-6.9383407 3.0770962 -1.2021464 0
-6.9427261 3.0512264 -1.2011271 0
-6.9474397 3.0255463 -1.2001808 0
-6.9510889 2.99945 -1.1990671 0
-6.9849653 2.9863279 -1.2031769 0
-6.9753671 2.9546018 -1.1998104 0
-6.9808116 2.9293423 -1.1990508 0
-6.9713244 2.8979104 -1.1957457 0
-7.0436912 2.9003339 -1.2064835 0
-7.0144 2.8608053 -1.1998167 0
-7.0239348 2.8372643 -1.1998137 0
-7.0347176 2.8142221 -1.200037 0
-7.0655179 2.7990999 -1.2036835 0
-7.0481777 2.7649262 -1.1991434 0
-7.083725 2.7515018 -1.203615 0
-7.0554862 2.7133434 -1.1972642 0
-7.0766845 2.6942949 -1.1993219 0
-7.0747266 2.6664252 -1.1974682 0
-7.0851541 2.6432598 -1.1977262 0
-7.1116853 2.6260288 -1.2007163 0
-7.1177654 2.6011889 -1.2002635 0
-7.1340833 2.5800714 -1.2015496 0
-7.1235089 2.5492723 -1.1983224 0
-7.1599793 2.5352757 -1.2030208 0
-7.1613822 2.5087831 -1.2018365 0
-7.1743436 2.4863489 -1.2026058 0
-7.1627107 2.4554489 -1.1992692 0
-7.185061 2.4362204 -1.201637 0
-7.2001023 2.4144349 -1.2027918 0
-7.1856766 2.3828261 -1.1990407 0
-7.2052054 2.3625174 -1.2009709 0
-7.2073493 2.3364868 -1.2000158 0
-7.2161174 2.3126211 -1.2001778 0
-7.2432332 2.2945602 -1.2034013 0
-7.2088165 2.2570903 -1.1964194 0
-7.2367864 2.2392333 -1.1998086 0
-7.2489762 2.2164011 -1.2005908 0
-7.2544131 2.191494 -1.2002676 0
-7.2648926 2.1681058 -1.200792 0
-7.2504969 2.1373613 -1.1972214 0
-7.2697368 2.1165669 -1.1992197 0
-7.2647262 2.0887117 -1.1972312 0
-7.2911315 2.0698624 -1.2004324 0
-7.2853541 2.0418522 -1.1983473 0
-7.3366613 2.0297263 -1.2056606 0
-7.3477082 2.0062857 -1.2063637 0
-7.3117766 1.9701558 -1.1993731 0
-7.3116379 1.9438477 -1.1982746 0
-7.3669462 1.9321294 -1.2062703 0
-7.3393002 1.8986018 -1.2006946 0
-7.35675 1.876822 -1.202513 0
-7.344007 1.8473676 -1.1994109 0
-7.3325529 1.8183681 -1.1965379 0
-7.3596506 1.7989165 -1.1999687 0
-7.3764524 1.7768351 -1.20173 0
-7.3692675 1.7489841 -1.1995975 0
-7.3715568 1.7234404 -1.1990228 0
-7.3839006 1.7002366 -1.2000966 0
-7.3926873 1.6761793 -1.2006044 0
-7.3650942 1.6439794 -1.1952214 0
-7.4188175 1.6298772 -1.2030461 0
-7.4045691 1.6007416 -1.1998585 0
-7.4128675 1.5765387 -1.2003399 0
-7.4053254 1.5490015 -1.198271 0
-7.4433589 1.5309271 -1.2035879 0
-7.4210639 1.5004252 -1.1991626 0
-7.4064612 1.4716425 -1.195999 0
-7.4136581 1.4472517 -1.1963708 0
-7.4612474 1.4305891 -1.2032697 0
-7.4350653 1.3997407 -1.1982837 0
-7.4313226 1.3732533 -1.1969317 0
-7.4617138 1.3530133 -1.2010894 0
-7.4574594 1.3264319 -1.1996819 0
-7.455833 1.3003688 -1.1987121 0
-7.4747143 1.2778533 -1.2010522 0
-7.5090652 1.2578282 -1.2058873 0
-7.4426403 1.2210618 -1.194556 0
-7.4608793 1.1983799 -1.1968317 0
-7.4949994 1.1780964 -1.2016647 0
-7.4965243 1.1525941 -1.2012829 0
-7.4616251 1.1216326 -1.195081 0
-7.4948978 1.1009501 -1.1998122 0
-7.5340433 1.0809076 -1.2054918 0
-7.5085835 1.0515741 -1.2008471 0
-7.4777899 1.0217099 -1.1953678 0
-7.4999318 0.9991315 -1.1983651 0
-7.4856462 0.97169626 -1.1955552 0
-7.5335259 0.95223838 -1.2026855 0
-7.5049167 0.92306823 -1.1976174 0
-7.5319395 0.90076721 -1.2014409 0
-7.503262 0.87183082 -1.1963935 0
-7.5127773 0.84741724 -1.197451 0
-7.5016766 0.82070285 -1.1952363 0
-7.535357 0.79882979 -1.2001691 0
-7.5311456 0.77285796 -1.1990789 0
-7.5421619 0.74844337 -1.2004266 0
-7.5139318 0.72020942 -1.1955423 0
-7.5492406 0.69805813 -1.2007812 0
-7.5522509 0.67280644 -1.2008945 0
-7.5349278 0.64580697 -1.1977888 0
-7.5667958 0.62298912 -1.202516 0
-7.5314188 0.59466076 -1.1965703 0
-7.5440264 0.57021141 -1.1982628 0
-7.5774527 0.54719335 -1.203274 0
-7.5623899 0.52062416 -1.2005981 0
-7.5651088 0.49533248 -1.2007594 0
-7.541966 0.46842739 -1.19683 0
-7.55443 0.44378039 -1.198565 0
-7.5366087 0.41738233 -1.1955088 0
-7.5667429 0.39360809 -1.2000729 0
-7.5947261 0.36953545 -1.2043077 0
-7.5692787 0.34286284 -1.2000835 0
-7.5535841 0.31677791 -1.19742 0
-7.5842934 0.2925958 -1.2021259 0
-7.5857081 0.26718223 -1.2022014 0
-7.565588 0.24107896 -1.1988778 0
-7.5289774 0.21464606 -1.1929556 0
-7.5700765 0.19041838 -1.1993598 0
-7.5487804 0.16455902 -1.1958916 0
-7.5865207 0.1399352 -1.2017894 0
-7.5950952 0.11462121 -1.2030801 0
-7.5573106 0.088708118 -1.197041 0
-7.5893221 0.063635662 -1.202071 0
-7.5729561 0.038106527 -1.1994518 0
-7.5978098 0.012757208 -1.2033747 0
-7.5613532 2.006473e-05 -1.1975989 0
-9.7724447 -0.016408559 -1.1999053 0
-9.762125 -0.049122255 -1.1986517 0
-9.7943716 -0.082124762 -1.202638 0
-9.7661924 -0.11463609 -1.1992185 0
-9.7727842 -0.14748575 -1.2000818 0
-9.7903061 -0.18058455 -1.202301 0
-9.7511415 -0.21256922 -1.1975724 0
-9.7574472 -0.24543969 -1.1984411 0
-9.7620039 -0.27830812 -1.1991086 0
-9.7823172 -0.31171548 -1.2017254 0
-9.7673254 -0.34402272 -1.2000186 0
-9.7581406 -0.37646106 -1.1990385 0
-9.7580004 -0.40922546 -1.1991831 0
-9.7869473 -0.44331574 -1.2029164 0
-9.7647905 -0.47512397 -1.2003821 0
-9.7586317 -0.50762618 -1.1998276 0
-9.7597017 -0.54049867 -1.2001752 0
-9.7634859 -0.57355005 -1.2008702 0
-9.7482252 -0.60545701 -1.1992362 0
-9.7531681 -0.63859773 -1.200101 0
-9.7391119 -0.67047811 -1.1986412 0
-9.7356443 -0.70304364 -1.1984978 0
-9.7372141 -0.73598242 -1.1989881 0
-9.7375937 -0.76885444 -1.1993455 0
-9.7313089 -0.80119777 -1.1988956 0
-9.7489882 -0.83557069 -1.2014121 0
-9.7124739 -0.86525398 -1.197263 0
-9.7329416 -0.89997911 -1.2001512 0
-9.7316942 -0.93278164 -1.2003763 0
-9.7322235 -0.96577328 -1.2008344 0
-9.7239161 -0.99788356 -1.2002153 0
-9.7300205 -1.0314879 -1.201389 0
-9.7096653 -1.0622627 -1.1993086 0
-9.6804867 -1.0919279 -1.1961501 0
-9.7425165 -1.1320177 -1.2042768 0
-9.7105942 -1.161319 -1.2008055 0
-9.7204351 -1.1955662 -1.2025113 0
-9.7080917 -1.2271037 -1.2014866 0
-9.6741009 -1.255775 -1.1977941 0
-9.6997461 -1.292188 -1.2014991 0
-9.6674385 -1.3208873 -1.1980391 0
-9.6905107 -1.357152 -1.2014554 0
-9.6833639 -1.3892702 -1.20114 0
-9.6702662 -1.4204971 -1.2000995 0
-9.6524181 -1.4509529 -1.1984814 0
-9.6488066 -1.4835085 -1.1986439 0
-9.6637354 -1.5189877 -1.2011243 0
-9.6669121 -1.5527169 -1.2021595 0
-9.6374073 -1.5811418 -1.1991428 0
-9.655077 -1.6173023 -1.2020093 0
-9.6285448 -1.6460652 -1.1993866 0
-9.6535501 -1.6836718 -1.2031978 0
-9.6280193 -1.7125015 -1.2007246 0
-9.6192188 -1.7442279 -1.2003496 0
-9.5958796 -1.7732474 -1.1981723 0
-9.5673494 -1.8011689 -1.1953574 0
-9.6005287 -1.8407661 -1.2002672 0
-9.582387 -1.8706183 -1.1987765 0
-9.5556936 -1.8986888 -1.1962267 0
-9.5760841 -1.9361372 -1.1995852 0
-9.6014872 -1.974804 -1.20359 0
-9.545701 -1.9967123 -1.1974295 0
-9.5730562 -2.035959 -1.2017106 0
-9.5675058 -2.0683315 -1.2018776 0
-9.5643721 -2.1012449 -1.2023622 0
-9.5418339 -2.1298544 -1.2004199 0
-9.5402851 -2.1631145 -1.2011306 0
-9.5206861 -2.1922586 -1.1995817 0
-9.5214672 -2.2260809 -1.2006139 0
-9.4958248 -2.2536902 -1.1983266 0
-9.4944067 -2.2870066 -1.1991084 0
-9.4843264 -2.3182502 -1.1988103 0
-9.4715681 -2.3488131 -1.1981863 0
-9.4500399 -2.3771353 -1.1964645 0
-9.4672813 -2.4152515 -1.1996659 0
-9.4771528 -2.4516423 -1.2019517 0
-9.4433889 -2.4767179 -1.1987159 0
-9.4397612 -2.5096233 -1.1993167 0
-9.4382839 -2.5431426 -1.2002057 0
-9.4375029 -2.5769024 -1.2011983 0
-9.4124918 -2.6040156 -1.1991194 0
-9.416461 -2.6391337 -1.2007457 0
-9.4074221 -2.6706512 -1.2007281 0
-9.3910561 -2.7000618 -1.199788 0
-9.3774137 -2.7302122 -1.1992078 0
-9.3654127 -2.7608137 -1.19885 0
-9.3676777 -2.7956529 -1.200333 0
-9.3448296 -2.8229904 -1.1986115 0
-9.3562908 -2.8607204 -1.201305 0
-9.3312664 -2.887315 -1.1993282 0
-9.3115091 -2.9154463 -1.1980386 0
-9.3235025 -2.9535623 -1.2008491 0
-9.341567 -2.9937854 -1.2044618 0
-9.279933 -3.0083792 -1.1978086 0
-9.2914267 -3.0465693 -1.200604 0
-9.2598467 -3.0706367 -1.1978469 0
-9.2632751 -3.1062858 -1.199631 0
-9.2536306 -3.137605 -1.1997374 0
-9.2679577 -3.1771486 -1.2029693 0
-9.2511377 -3.206085 -1.2021747 0
-9.2095518 -3.2262998 -1.1981695 0
-9.1901512 -3.2541387 -1.1970583 0
-9.2199364 -3.2995155 -1.2023722 0
-9.1839228 -3.3214045 -1.199121 0
-9.1869869 -3.3573861 -1.2009841 0
-9.1687851 -3.3856242 -1.2000819 0
-9.1426363 -3.410845 -1.1981494 0
-9.1403513 -3.444948 -1.1993569 0
-9.1185055 -3.471674 -1.1980109 0
-9.1224537 -3.5082417 -1.2000684 0
-9.0996122 -3.5345242 -1.1986158 0
-9.0798779 -3.5619411 -1.1975827 0
-9.0963526 -3.6036422 -1.2013425 0
-9.092905 -3.6375954 -1.2024913 0
-9.0619707 -3.6605129 -1.2000165 0
-9.042944 -3.6881418 -1.1991278 0
-9.0522346 -3.7273786 -1.2020102 0
-9.0242796 -3.7513034 -1.1999614 0
-9.0400944 -3.7934744 -1.2037488 0
-9.0152884 -3.8186646 -1.2021438 0
-8.9564152 -3.829195 -1.1959987 0
-8.9432144 -3.8590679 -1.1959569 0
-8.9679651 -3.9054663 -1.2010111 0
-8.9274292 -3.9234746 -1.1973375 0
-8.9514217 -3.9698811 -1.2023337 0
-8.9448166 -4.0028944 -1.2032425 0
-8.8889809 -4.0137329 -1.197535 0
-8.9024639 -4.0558095 -1.2011768 0
-8.8961039 -4.088985 -1.2021617 0
-8.8588066 -4.1078744 -1.1989759 0
-8.8627653 -4.1458712 -1.2013863 0
-8.8495274 -4.175899 -1.201483 0
-8.8119974 -4.1943707 -1.1982902 0
-8.8161125 -4.2326431 -1.2007729 0
-8.8010616 -4.261786 -1.2006624 0
-8.782959 -4.2894316 -1.200148 0
-8.7725725 -4.3208475 -1.2007016 0
-8.7319384 -4.3372731 -1.1971236 0
-8.7303181 -4.3730221 -1.1989049 0
-8.7184887 -4.4037242 -1.1993012 0
-8.7281685 -4.445406 -1.2026763 0
-8.6910057 -4.4632392 -1.1996108 0
-8.6672201 -4.4878116 -1.1983979 0
-8.6688328 -4.525568 -1.2007121 0
-8.6636257 -4.5598788 -1.2021017 0
-8.6586399 -4.5943933 -1.2035406 0
-8.6236715 -4.6129589 -1.2008231 0
-8.6040173 -4.6396146 -1.2002456 0
-8.5816889 -4.6647806 -1.1993059 0
-8.5743752 -4.6981158 -1.2004783 0
-8.5603924 -4.7278419 -1.2007333 0
-8.5378666 -4.7528281 -1.1998022 0
-8.5189934 -4.7798052 -1.1993953 0
-8.4675026 -4.7883129 -1.1943995 0
-8.4980173 -4.8432446 -1.2009876 0
-8.4951105 -4.8793941 -1.2028821 0
-8.4641323 -4.899415 -1.200815 0
-8.4438534 -4.9255466 -1.200274 0
-8.4050207 -4.9407382 -1.1971022 0
-8.3810892 -4.9645553 -1.1960577 0
-8.3933001 -5.0098796 -1.2001905 0
-8.3858242 -5.0436277 -1.201533 0
-8.3314285 -5.049027 -1.1961579 0
-8.3393221 -5.0921178 -1.1997358 0
-8.3471193 -5.1353788 -1.2033278 0
-8.3122911 -5.1524491 -1.2007905 0
-8.3125143 -5.1912475 -1.2033304 0
-8.2632303 -5.19906 -1.1987127 0
-8.2336779 -5.2190824 -1.1969573 0
-8.2378044 -5.2604976 -1.2001145 0
-8.2360296 -5.2983227 -1.2024372 0
-8.2051783 -5.3174553 -1.2005292 0
-8.1830854 -5.3421822 -1.1999106 0
-8.1797743 -5.37922 -1.202063 0
-8.1372938 -5.3904524 -1.1984694 0
-8.1416197 -5.4326816 -1.2017826 0
-8.117795 -5.4562082 -1.2009592 0
-8.108407 -5.4894552 -1.2022866 0
-8.0842152 -5.5126958 -1.2014334 0
-8.0589533 -5.5351443 -1.2004303 0
-8.0122204 -5.5426741 -1.1962305 0
-8.0234375 -5.5903015 -1.2006969 0
-7.9854374 -5.6036897 -1.1978152 0
-7.9669375 -5.6306672 -1.1978652 0
-7.9601812 -5.6660075 -1.199699 0
-7.9289951 -5.683959 -1.1978644 0
-7.9398355 -5.7321281 -1.2023988 0
-7.9081621 -5.7496939 -1.2005149 0
-7.9071517 -5.7895837 -1.2033014 0
-7.8811488 -5.811235 -1.2023027 0
-7.8580151 -5.834949 -1.2017514 0
-7.8264284 -5.8523049 -1.1999147 0
-7.8356495 -5.9002647 -1.2043546 0
-7.7725253 -5.8936715 -1.1976829 0
-7.7548661 -5.9213362 -1.1980143 0
-7.7486243 -5.9578023 -1.2001292 0
-7.7263784 -5.9820247 -1.1997833 0
-7.6945639 -5.9987631 -1.1979595 0
-7.6957297 -6.041266 -1.2012879 0
-7.6633649 -6.0574965 -1.1993992 0
-7.656147 -6.0936103 -1.2014605 0
-7.5911398 -6.0835562 -1.1944532 0
-7.5839705 -6.1196823 -1.1965469 0
-7.5830169 -6.1610055 -1.1996489 0
-7.5741887 -6.1961064 -1.201532 0
-7.5609846 -6.2277369 -1.2027431 0
-7.5489879 -6.2604551 -1.2041668 0
-7.5176215 -6.2771015 -1.2025138 0
-7.4599276 -6.2714977 -1.196642 0
-7.4536304 -6.3089771 -1.1990182 0
-7.4557319 -6.3537855 -1.2027764 0
-7.4194145 -6.365901 -1.2003541 0
-7.4116373 -6.4024968 -1.2025621 0
-7.3852816 -6.4230943 -1.2017732 0
-7.3469405 -6.4331408 -1.1990373 0
-7.3388605 -6.4696651 -1.201252 0
-7.3036675 -6.4822884 -1.1990422 0
-7.2900233 -6.5140052 -1.200381 0
-7.2471123 -6.5194917 -1.1969078 0
-7.2516351 -6.5676837 -1.2012849 0
-7.2195153 -6.5827885 -1.1996135 0
-7.1965661 -6.6061883 -1.1994739 0
-7.1767921 -6.6325121 -1.1998777 0
-7.1471882 -6.6497211 -1.198649 0
-7.1271439 -6.6757932 -1.1990346 0
-7.1133022 -6.7077432 -1.2004827 0
-7.0753016 -6.7168684 -1.1978635 0
-7.0787506 -6.7654099 -1.2022809 0
-7.040977 -6.7746248 -1.1997164 0
-7.0156236 -6.7956753 -1.199272 0
-6.9793673 -6.8060603 -1.1969684 0
-6.985528 -6.8579121 -1.2019616 0
-6.9533906 -6.8722959 -1.2003897 0
-6.9216266 -6.8869305 -1.1988857 0
-6.9081073 -6.9197254 -1.2005559 0
-6.8660526 -6.9238744 -1.197275 0
-6.877398 -6.9819808 -1.2033286 0
-6.8093324 -6.9593987 -1.1954951 0
-6.8100948 -7.0070224 -1.199747 0
-6.8067427 -7.0507183 -1.2033143 0
-6.7855544 -7.076097 -1.203756 0
-6.7390814 -7.074966 -1.1997131 0
-6.7258663 -7.108665 -1.2015967 0
-6.7036972 -7.1329875 -1.201902 0
-6.666657 -7.1414042 -1.1995473 0
-6.6561913 -7.1782923 -1.201988 0
-6.6271925 -7.1952553 -1.2011009 0
-6.6292562 -7.2460999 -1.2058713 0
-6.5710974 -7.2310619 -1.1996956 0
-6.5621867 -7.2700815 -1.2025123 0
-6.514617 -7.2662134 -1.1982528 0
-6.4922748 -7.2903242 -1.1986325 0
-6.4667888 -7.3109131 -1.198446 0
-6.4692206 -7.3632627 -1.2034651 0
-6.4248586 -7.3624072 -1.1997979 0
-6.3963513 -7.379539 -1.1990881 0
-6.3893957 -7.4216452 -1.202442 0
-6.355082 -7.4320397 -1.2006673 0
-6.3192792 -7.4405313 -1.1986095 0
-6.3037534 -7.4728866 -1.2004101 0
-6.2675929 -7.4807677 -1.1982938 0
-6.2298136 -7.4865232 -1.1958631 0
-6.2366934 -7.5461059 -1.2020338 0
-6.1965251 -7.5489039 -1.1991633 0
-6.1792173 -7.5794954 -1.200725 0
-6.1447954 -7.589087 -1.1989739 0
-6.1350031 -7.6291542 -1.2020476 0
-6.1202374 -7.6632633 -1.2041818 0
-6.0775886 -7.6624074 -1.2008386 0
-6.0427947 -7.6712284 -1.1990391 0
-6.0245919 -7.701098 -1.2005438 0
-5.9959807 -7.7177057 -1.1999921 0
-5.9800596 -7.7507119 -1.2019998 0
-5.9353209 -7.7462878 -1.1982208 0
-5.9043412 -7.7596068 -1.1972122 0
-5.8968239 -7.8038855 -1.2009866 0
-5.8451552 -7.7896686 -1.195776 0
-5.8256111 -7.8180885 -1.1971335 0
-5.8134937 -7.8566694 -1.2000499 0
-5.7727728 -7.8565917 -1.1970749 0
-5.7671967 -7.904408 -1.2014076 0
-5.7397313 -7.9224148 -1.2012126 0
-5.7080884 -7.9345975 -1.2001512 0
-5.6636276 -7.9287367 -1.1963859 0
-5.6540327 -7.9716783 -1.1999981 0
-5.6134505 -7.970962 -1.1970505 0
-5.6030941 -8.0131931 -1.2005645 0
-5.5747895 -8.0299082 -1.2002617 0
-5.5514908 -8.0538568 -1.2010525 0
-5.5173483 -8.0620384 -1.1995072 0
-5.4900861 -8.0801964 -1.1994634 0
-5.4488058 -8.07757 -1.1963547 0
-5.4278879 -8.1050434 -1.1977218 0
-5.4127979 -8.1414194 -1.2004086 0
-5.392343 -8.1699343 -1.2019404 0
-5.3563004 -8.1748114 -1.2000092 0
-5.3450212 -8.2175684 -1.2036482 0
-5.3067656 -8.2189121 -1.2012322 0
-5.2770247 -8.2332964 -1.2007419 0
-5.253408 -8.2572575 -1.2016608 0
-5.217494 -8.2618418 -1.1997753 0
-5.1837978 -8.2697706 -1.1983961 0
-5.160408 -8.2941217 -1.1994108 0
-5.145288 -8.3319712 -1.2023828 0
-5.1001272 -8.3211193 -1.1983423 0
-5.0743666 -8.3417349 -1.1988543 0
-5.0420856 -8.3516045 -1.1978365 0
-5.0122066 -8.3653765 -1.1973947 0
-4.9995561 -8.4080763 -1.2011005 0
-4.9749017 -8.4308319 -1.2019616 0
-4.9437475 -8.4425812 -1.2012669 0
-4.9087844 -8.4477015 -1.1996469 0
-4.878758 -8.4612064 -1.1992351 0
-4.8583636 -8.4915028 -1.2012135 0
-4.8300357 -8.5080433 -1.2012557 0
-4.7916622 -8.5067549 -1.1987988 0
-4.775106 -8.5442305 -1.201817 0
-4.7273669 -8.5258093 -1.1969897 0
-4.7064533 -8.5556049 -1.1989509 0
-4.6867437 -8.5878325 -1.2012582 0
-4.6603274 -8.6079369 -1.201878 0
-4.6207976 -8.6036978 -1.1991162 0
-4.5895534 -8.6146908 -1.1984969 0
-4.5760598 -8.6592007 -1.2025479 0
-4.5394702 -8.6601276 -1.2005563 0
-4.529808 -8.7126102 -1.2057197 0
-4.4769692 -8.6819792 -1.1993967 0
-4.4394307 -8.6805086 -1.1971306 0
-4.409533 -8.6938286 -1.1969218 0
-4.3835821 -8.7149715 -1.1978024 0
-4.3699307 -8.7608805 -1.2020918 0
-4.3449821 -8.7844782 -1.203324 0
-4.2915673 -8.7501898 -1.1966493 0
-4.2717919 -8.7842417 -1.1993407 0
-4.2573524 -8.8297005 -1.2035917 0
-4.2092938 -8.8053713 -1.1983448 0
-4.1873865 -8.8355541 -1.2005349 0
-4.1593833 -8.8530426 -1.2010096 0
-4.122633 -8.8518133 -1.198961 0
-4.0865264 -8.8517132 -1.1970849 0
-4.0642214 -8.8815269 -1.1992673 0
-4.0407715 -8.9091072 -1.2011552 0
-4.0069861 -8.9139452 -1.1999896 0
-3.9818425 -8.9380283 -1.2014275 0
-3.9472153 -8.9408245 -1.2000177 0
-3.9164395 -8.9522333 -1.1997797 0
-3.8903148 -8.9743385 -1.2009876 0
-3.8618526 -8.9911709 -1.2015007 0
-3.8285382 -8.9966736 -1.2005138 0
-3.7917328 -8.9937572 -1.1984215 0
-3.7672615 -9.0200787 -1.2002389 0
-3.7367899 -9.032156 -1.2001722 0
-3.7140148 -9.0630064 -1.2026101 0
-3.6812973 -9.0697165 -1.2018559 0
-3.6432505 -9.0630598 -1.1993483 0
-3.6097753 -9.0675173 -1.1983299 0
-3.584718 -9.0931778 -1.2001259 0
-3.5610948 -9.1227818 -1.2024506 0
-3.5239379 -9.1177235 -1.2002198 0
-3.4984043 -9.1427021 -1.201957 0
-3.466248 -9.150465 -1.2014431 0
-3.4296372 -9.1462708 -1.1993757 0
-3.3979042 -9.1548939 -1.1990058 0
-3.373389 -9.1831093 -1.2012131 0
-3.3424342 -9.193965 -1.2011604 0
-3.3122602 -9.2069826 -1.2014035 0
-3.2694197 -9.1844587 -1.1970273 0
-3.240684 -9.2012644 -1.1977948 0
-3.2157319 -9.2290583 -1.2000026 0
-3.1867526 -9.2455387 -1.2007494 0
-3.1510606 -9.2424564 -1.1989703 0
-3.1164789 -9.2423649 -1.1975963 0
-3.0933268 -9.2763128 -1.2006445 0
-3.0599182 -9.2796888 -1.1997468 0
-3.0249813 -9.2782202 -1.1982388 0
-3.0028298 -9.3161507 -1.2018304 0
-2.9647908 -9.3048658 -1.1990856 0
-2.9359734 -9.3223639 -1.2000653 0
-2.9054945 -9.3347054 -1.2003932 0
-2.8722155 -9.338006 -1.1995724 0
-2.8441296 -9.3582401 -1.20094 0
-2.8124871 -9.3668909 -1.2008333 0
-2.7819719 -9.3793221 -1.2012244 0
-2.7508795 -9.3898611 -1.2013862 0
-2.7144182 -9.381876 -1.1991934 0
-2.6835661 -9.3930902 -1.1994699 0
-2.6526608 -9.4041739 -1.1997428 0
-2.6227667 -9.4189444 -1.2004986 0
-2.5906122 -9.4256477 -1.2002392 0
-2.5555851 -9.4217081 -1.1986398 0
-2.5286517 -9.4476738 -1.2008576 0
-2.49526 -9.4496555 -1.2000395 0
-2.4637823 -9.4588099 -1.2001462 0
-2.4353514 -9.4798498 -1.2017729 0
-2.4070473 -9.5017529 -1.2035198 0
-2.3702989 -9.490242 -1.2010484 0
-2.335875 -9.4876099 -1.1997175 0
-2.2964694 -9.4641409 -1.1957694 0
-2.2731588 -9.5070591 -1.2002223 0
-2.2392135 -9.5058947 -1.1991208 0
-2.2030354 -9.4948416 -1.1967881 0
-2.1860425 -9.5671835 -1.2049757 0
-2.1461885 -9.5399437 -1.2006319 0
-2.116457 -9.5573196 -1.2019188 0
-2.0751526 -9.521925 -1.1965859 0
-2.051687 -9.5683346 -1.2015469 0
-2.016963 -9.5626831 -1.1999813 0
-1.9818221 -9.5546026 -1.1981267 0
-1.9501252 -9.5629044 -1.1983411 0
-1.9187682 -9.5729647 -1.1987889 0
-1.8857589 -9.5747633 -1.1982156 0
-1.8530892 -9.5781546 -1.1978557 0
-1.8197315 -9.5778208 -1.1970443 0
-1.7989628 -9.6447411 -1.2046474 0
-1.7572618 -9.5996199 -1.198269 0
-1.7253343 -9.6069508 -1.1984553 0
-1.693699 -9.6160002 -1.1988691 0
-1.665311 -9.6439915 -1.201656 0
-1.6293025 -9.6278658 -1.1989592 0
-1.5968462 -9.6322689 -1.1988342 0
-1.5666595 -9.6506119 -1.2004566 0
-1.5335735 -9.6512756 -1.1998929 0
-1.4990427 -9.6424484 -1.1981637 0
-1.4718949 -9.6815577 -1.2024034 0
-1.4383072 -9.6789074 -1.2014687 0
-1.403814 -9.6696682 -1.1997308 0
-1.3731812 -9.6869888 -1.2013018 0
-1.3427775 -9.7065935 -1.2031679 0
-1.3066441 -9.684495 -1.1998789 0
-1.2744184 -9.6907377 -1.2001162 0
-1.2414148 -9.6910124 -1.1996281 0
-1.2115048 -9.7158833 -1.2021972 0
-1.1792645 -9.7227116 -1.2025461 0
-1.1448237 -9.7110376 -1.2006208 0
-1.1108105 -9.702179 -1.1990583 0
-1.0808111 -9.7286806 -1.2018789 0
-1.0473458 -9.7244415 -1.2009147 0
-1.0130882 -9.7121058 -1.1989651 0
-0.98277199 -9.7377644 -1.2017192 0
-0.9492085 -9.7316847 -1.2005694 0
-0.91772354 -9.747014 -1.2020742 0
-0.88506484 -9.7503271 -1.2021099 0
-0.850815 -9.7354603 -1.1999185 0
-0.81818253 -9.7384176 -1.1999383 0
-0.78569925 -9.7432442 -1.2002016 0
-0.75405741 -9.7591524 -1.201843 0
-0.72106653 -9.7580261 -1.2013998 0
-0.68794703 -9.7547359 -1.2007041 0
-0.6550948 -9.7548647 -1.2004428 0
-0.62190014 -9.7494068 -1.1995077 0
-0.58841372 -9.7382784 -1.1978892 0
-0.55600452 -9.7444859 -1.1984167 0
-0.52463472 -9.7705946 -1.2014046 0
-0.49187922 -9.7724266 -1.2014203 0
-0.45968843 -9.7863054 -1.2029303 0
-0.42541665 -9.7543726 -1.198823 0
-0.39300227 -9.763011 -1.1997161 0
-0.36072198 -9.776619 -1.2012328 0
-0.32640156 -9.7318792 -1.1955947 0
-0.29547504 -9.7893906 -1.2025316 0
-0.26222616 -9.7744751 -1.2005847 0
-0.22941409 -9.773653 -1.2003825 0
-0.19674043 -9.7791815 -1.2009737 0
-0.1634791 -9.7516031 -1.1975127 0
-0.1311454 -9.7791271 -1.200832 0
-0.098377712 -9.7815619 -1.2010838 0
-0.065468684 -9.7650204 -1.1990188 0
-0.032802239 -9.7873211 -1.2017369 0
1.2962186e-05 -9.7695475 -1.1995478 0
0.032888539 -9.8053064 -1.2039453 0
0.065660633 -9.7897758 -1.2020586 0
0.098251961 -9.7664814 -1.199232 0
0.13142353 -9.7979279 -1.2031406 0
0.16378784 -9.7684727 -1.1995845 0
0.19622754 -9.7524004 -1.1976848 0
0.22983778 -9.790596 -1.2024634 0
0.26210791 -9.7691002 -1.1999246 0
0.29590908 -9.8029079 -1.2041922 0
0.32748482 -9.7634048 -1.1994678 0
0.36059788 -9.7725515 -1.2007332 0
0.39331576 -9.770154 -1.2005939 0
0.42762104 -9.8043184 -1.2049617 0
0.45785066 -9.7466297 -1.1980536 0
0.49131814 -9.7607632 -1.1999866 0
0.52411938 -9.7605133 -1.2001652 0
0.55653292 -9.7532921 -1.1994998 0
0.58965874 -9.7584543 -1.2003711 0
0.62168956 -9.745698 -1.1990517 0
0.65480858 -9.7502146 -1.1998708 0
0.68799394 -9.7550325 -1.2007407 0
0.7218585 -9.7683907 -1.2026762 0
0.75056189 -9.7135773 -1.1962306 0
0.78655946 -9.7535887 -1.2014762 0
0.81794339 -9.7352619 -1.1995497 0
0.85182106 -9.7466736 -1.201301 0
0.88566947 -9.7567005 -1.2028961 0
0.91651291 -9.73388 -1.2004546 0
0.94838327 -9.7229567 -1.1994929 0
0.98253226 -9.7351313 -1.2013944 0
1.0128798 -9.7098589 -1.198688 0
1.0487691 -9.7374144 -1.2025172 0
1.0785065 -9.7077007 -1.1992874 0
1.1102475 -9.6970348 -1.1984229 0
1.1430596 -9.6958532 -1.1987438 0
1.1751945 -9.68894 -1.1983695 0
1.2075572 -9.6840162 -1.1982545 0
1.2410308 -9.6878099 -1.1992321 0
1.2740076 -9.6874151 -1.1997051 0
1.3058436 -9.6783676 -1.1991203 0
1.3383533 -9.6744223 -1.1991806 0
1.3723905 -9.6812258 -1.2005875 0
1.4014719 -9.6533556 -1.1977073 0
1.4370223 -9.6700859 -1.200374 0
1.4646584 -9.6337872 -1.1964711 0
1.4991591 -9.6430283 -1.1982363 0
1.5298401 -9.6276159 -1.1969517 0
1.5677304 -9.6570463 -1.2012576 0
1.5983973 -9.6414661 -1.1999793 0
1.6291516 -9.6268187 -1.1988294 0
1.664003 -9.6362648 -1.2006937 0
1.6952305 -9.6245461 -1.1999351 0
1.7282999 -9.6233168 -1.2004975 0
1.7598205 -9.6134539 -1.1999964 0
1.7938248 -9.617053 -1.2011898 0
1.8230659 -9.595232 -1.1992209 0
1.8517029 -9.5708532 -1.1969432 0
1.8835276 -9.5633001 -1.1967818 0
1.9264768 -9.6112909 -1.203589 0
1.9554602 -9.5889359 -1.2016039 0
1.9860345 -9.5747833 -1.200658 0
2.019372 -9.5739784 -1.2013993 0
2.0473332 -9.5479069 -1.1989824 0
2.0815952 -9.5513639 -1.2002861 0
2.1124587 -9.5391445 -1.1996338 0
2.1452191 -9.5355158 -1.2000754 0
2.1791894 -9.5370741 -1.2011843 0
2.2103696 -9.5263367 -1.2007586 0
2.2330613 -9.4796638 -1.1958127 0
2.2710633 -9.4981842 -1.1991026 0
2.3071072 -9.5078707 -1.2012953 0
2.3292058 -9.460413 -1.1962792 0
2.3690221 -9.4850235 -1.2003888 0
2.3936369 -9.4487104 -1.1968021 0
2.4275301 -9.4492998 -1.197901 0
2.4681838 -9.475605 -1.202278 0
2.4973872 -9.4576092 -1.2010504 0
2.5282371 -9.4460239 -1.2006489 0
2.5618939 -9.444869 -1.2015871 0
2.6018481 -9.4664297 -1.2054331 0
2.6234529 -9.4213123 -1.2008013 0
2.6485887 -9.3896418 -1.1978897 0
2.6857934 -9.4007921 -1.2004544 0
2.7188387 -9.3970613 -1.2011353 0
2.7477555 -9.3791056 -1.200011 0
2.7766399 -9.3612547 -1.1989114 0
2.8024983 -9.3335333 -1.1965579 0
2.83708 -9.3349552 -1.1979529 0
2.873136 -9.3409109 -1.1999465 0
2.9069433 -9.3392725 -1.2009815 0
2.9371433 -9.3259926 -1.2005334 0
2.9640634 -9.3024979 -1.1987814 0
3.0009003 -9.3100796 -1.2010484 0
3.0339081 -9.3055172 -1.2017652 0
3.0667641 -9.3003674 -1.2024213 0
3.0931473 -9.2756929 -1.2005652 0
3.1233914 -9.262784 -1.2002431 0
3.1521516 -9.2455769 -1.1993762 0
3.1845362 -9.2390289 -1.199905 0
3.215414 -9.2280674 -1.1998749 0
3.2478993 -9.221673 -1.2004527 0
3.2794721 -9.2126207 -1.2006989 0
3.310961 -9.2032948 -1.2009236 0
3.3330162 -9.1679821 -1.1977671 0
3.3744199 -9.1858397 -1.2015715 0
3.3993201 -9.1586342 -1.1994969 0
3.4313149 -9.150671 -1.1999539 0
3.4583578 -9.1295624 -1.1986997 0
3.4918659 -9.1255417 -1.1997023 0
3.5236502 -9.1169071 -1.2001135 0
3.5521905 -9.0999002 -1.1994358 0
3.5834076 -9.0897827 -1.1996791 0
3.6206939 -9.0948744 -1.2019465 0
3.638474 -9.0511084 -1.1977681 0
3.6805093 -9.0677061 -1.2015908 0
3.7023282 -9.03442 -1.1988182 0
3.7352152 -9.0282822 -1.1996588 0
3.7620263 -9.0074759 -1.1985635 0
3.8002491 -9.0138903 -1.2011056 0
3.8308411 -9.0020189 -1.2012284 0
3.8484995 -8.9600172 -1.1973387 0
3.8802068 -8.9509563 -1.1978598 0
3.9241602 -8.9698162 -1.2021376 0
3.9452407 -8.9362869 -1.1994101 0
3.973393 -8.9189978 -1.1988709 0
4.0002813 -8.8989677 -1.1979747 0
4.0393038 -8.9058075 -1.2007117 0
4.0594449 -8.871027 -1.1978509 0
4.0953679 -8.8708019 -1.1996679 0
4.1223874 -8.8512249 -1.1988828 0
4.1500125 -8.8330364 -1.1982971 0
4.1741948 -8.8076572 -1.1967461 0
4.2145295 -8.8162642 -1.1998287 0
4.2557855 -8.8263912 -1.2031422 0
4.2751942 -8.7911797 -1.2002895 0
4.3159289 -8.7998018 -1.2034357 0
4.3306313 -8.7554064 -1.1993432 0
4.3668451 -8.7546358 -1.2012365 0
4.3894992 -8.7266769 -1.1994128 0
4.4123383 -8.6993017 -1.197677 0
4.4604306 -8.7215128 -1.202787 0
4.4876528 -8.7026415 -1.2022527 0
4.5059276 -8.6666231 -1.1993572 0
4.5340333 -8.6496992 -1.1991123 0
4.5556808 -8.6205826 -1.1971865 0
4.5907369 -8.6168566 -1.1988 0
4.6246376 -8.6107922 -1.2001067 0
4.6636505 -8.6140203 -1.2027291 0
4.6801944 -8.575778 -1.1995738 0
4.7108836 -8.5636053 -1.2000736 0
4.7430472 -8.5540352 -1.2009543 0
4.7634745 -8.523366 -1.198884 0
4.7930822 -8.509223 -1.1991484 0
4.8186941 -8.4880123 -1.1984295 0
4.8699098 -8.5116301 -1.2040627 0
4.8760257 -8.4564161 -1.198558 0
4.9192624 -8.465682 -1.2022021 0
4.9441094 -8.4431477 -1.2013494 0
4.9751348 -8.4311762 -1.2020127 0
4.9881263 -8.3888035 -1.1983492 0
5.0185223 -8.3758669 -1.1988982 0
5.0508585 -8.366086 -1.1999154 0
5.0764923 -8.3451796 -1.1993513 0
5.1162181 -8.3473225 -1.2021179 0
5.1309595 -8.3087187 -1.1990292 0
5.1642885 -8.3003101 -1.2003077 0
5.1805406 -8.2645254 -1.1976379 0
5.2195678 -8.2650766 -1.2002472 0
5.2497454 -8.2514524 -1.2008181 0
5.278688 -8.2358437 -1.2011153 0
5.3022213 -8.2118263 -1.2001985 0
5.3424411 -8.2135534 -1.2030622 0
5.3522587 -8.1685953 -1.1990988 0
5.3807559 -8.1523314 -1.1993529 0
5.4061165 -8.1313238 -1.1989222 0
5.4502954 -8.1384573 -1.2026615 0
5.4463434 -8.0738726 -1.1958094 0
5.5046844 -8.1016359 -1.202648 0
5.5086985 -8.0493536 -1.1976221 0
5.5474296 -8.0479193 -1.2001692 0
5.5702968 -8.0233917 -1.1992899 0
5.5828357 -7.9841752 -1.1962192 0
5.6225476 -7.9838352 -1.1989859 0
5.6618085 -7.9825964 -1.2016439 0
5.6686592 -7.9357357 -1.1974442 0
5.7088118 -7.9355583 -1.2002989 0
5.7447596 -7.9293113 -1.2022606 0
5.7475238 -7.8774009 -1.1973048 0
5.7922931 -7.8831148 -1.2011184 0
5.7918429 -7.8273664 -1.1955763 0
5.8364553 -7.8325977 -1.1993576 0
5.8570509 -7.8054786 -1.1982054 0
5.8971157 -7.8042288 -1.2010418 0
5.9293146 -7.7923851 -1.2022718 0
5.9408312 -7.753437 -1.1993291 0
5.9538665 -7.7167201 -1.1967307 0
5.9975686 -7.719707 -1.2003057 0
6.0253954 -7.7020826 -1.2006998 0
6.0369258 -7.6637359 -1.1978704 0
6.0714693 -7.6546507 -1.1996255 0
6.0961871 -7.6331081 -1.1994458 0
6.1267524 -7.6188526 -1.2004269 0
6.155664 -7.602469 -1.2010907 0
6.1665549 -7.5639229 -1.1982605 0
6.1869302 -7.5371747 -1.1973026 0
6.208209 -7.5116005 -1.1965399 0
6.2506371 -7.5115061 -1.1998565 0
6.2756371 -7.4903288 -1.1998279 0
6.2931027 -7.4602213 -1.1983783 0
6.3260913 -7.4485121 -1.1998978 0
6.3569193 -7.4341478 -1.2010106 0
6.3726883 -7.4021988 -1.1992942 0
6.3888588 -7.3708553 -1.1976798 0
6.4177499 -7.3542223 -1.1984667 0
6.4395604 -7.329464 -1.1979438 0
6.4898715 -7.3369694 -1.2027202 0
6.4998722 -7.2988167 -1.2000316 0
6.5248427 -7.2775798 -1.2001301 0
6.5435486 -7.2493939 -1.1990932 0
6.558198 -7.2168283 -1.197337 0
6.5828223 -7.1953073 -1.1974216 0
6.6262836 -7.1942306 -1.2009329 0
6.6610479 -7.1834912 -1.2028615 0
6.6705899 -7.1455798 -1.2002516 0
6.6888871 -7.1171908 -1.1992433 0
6.6967421 -7.0778456 -1.1963903 0
6.7475982 -7.0838695 -1.2012259 0
6.7610922 -7.0505495 -1.1994131 0
6.7796917 -7.0226607 -1.1985289 0
6.8002014 -6.9968057 -1.1980008 0
6.8335075 -6.9840693 -1.1997362 0
6.8689728 -6.9733901 -1.2018511 0
1.708966 -1.7233487 -0.29800192 0
1.7142439 -1.7171178 -0.29791662 0
1.72548 -1.7168217 -0.29886732 0
1.7111856 -1.6912197 -0.29540759 0
1.7097939 -1.6785495 -0.29419413 0
1.7124496 -1.6699183 -0.29368603 0
1.7215123 -1.667532 -0.29427978 0
1.7057041 -1.6411704 -0.29063523 0
1.7073004 -1.6317183 -0.28997344 0
1.7209816 -1.6337882 -0.29136506 0
1.731742 -1.6329995 -0.29225823 0
1.7245524 -1.6153306 -0.29012921 0
1.7209483 -1.6011564 -0.28861812 0
1.71021 -1.5805011 -0.28592688 0
1.7257695 -1.5841857 -0.2876386 0
1.7259048 -1.5736798 -0.28678012 0
1.7261463 -1.5633333 -0.28594771 0
1.7250351 -1.5518308 -0.2849001 0
1.7133243 -1.5309337 -0.28211668 0
1.726925 -1.5327047 -0.28350839 0
1.7427768 -1.5363586 -0.28526351 0
1.7399008 -1.5234867 -0.28395507 0
1.7341154 -1.5081791 -0.28218403 0
1.7198218 -1.4856493 -0.279046 0
1.7216049 -1.4771391 -0.27853018 0
1.7399142 -1.4827495 -0.28068647 0
1.7150126 -1.4516305 -0.27588257 0
1.7378434 -1.4609822 -0.27876565 0
1.7284913 -1.4432567 -0.27648774 0
1.7262223 -1.4315666 -0.27535546 0
1.7441629 -1.4366026 -0.27744737 0
1.7266557 -1.4124925 -0.27390757 0
1.7153738 -1.3936893 -0.27137506 0
1.7342573 -1.399405 -0.27361867 0
1.7173314 -1.3762658 -0.27021867 0
1.7233589 -1.3716326 -0.27044195 0
1.7290055 -1.3666825 -0.27060744 0
1.7317929 -1.3594766 -0.27032879 0
1.7606381 -1.3726046 -0.27411154 0
1.7428055 -1.3493317 -0.27062935 0
1.7328968 -1.3323914 -0.26839545 0
1.7383639 -1.3273447 -0.26855144 0
1.7401786 -1.3195177 -0.26814681 0
1.7360466 -1.3072405 -0.26683325 0
1.7528172 -1.3106827 -0.26873395 0
1.7413405 -1.2930208 -0.26630825 0
1.7460351 -1.2874472 -0.26636454 0
1.7516543 -1.2825469 -0.26656428 0
1.740114 -1.2651571 -0.26416108 0
1.768662 -1.2768704 -0.26784346 0
1.7543759 -1.2576303 -0.26503995 0
1.7381402 -1.2371905 -0.26195902 0
1.7654333 -1.2477206 -0.26544043 0
1.7596018 -1.2347735 -0.26393971 0
1.7527621 -1.2212238 -0.26229808 0
1.7503264 -1.2108297 -0.26132458 0
1.7570689 -1.2068037 -0.26172566 0
1.7587976 -1.1993324 -0.26138273 0
1.7468886 -1.1826506 -0.25902215 0
1.7444413 -1.1724834 -0.25807491 0
1.7605045 -1.1747299 -0.25986716 0
1.7683077 -1.1713873 -0.26043782 0
1.7464862 -1.1485255 -0.25665534 0
1.755304 -1.1459124 -0.2573851 0
1.7712519 -1.1478724 -0.25915778 0
1.7597075 -1.1320312 -0.2569119 0
1.7741544 -1.132933 -0.25846508 0
1.7570909 -1.1137609 -0.25543377 0
1.7888769 -1.1255192 -0.25950453 0
1.7759676 -1.1091027 -0.25709096 0
1.767506 -1.0955982 -0.25533286 0
1.7620249 -1.0840399 -0.25401455 0
1.7549199 -1.0715744 -0.25247094 0
1.776674 -1.0766966 -0.25507981 0
1.7750388 -1.0675851 -0.25432971 0
1.7699592 -1.0564653 -0.25309294 0
1.7653821 -1.0457214 -0.25193569 0
1.7680885 -1.0393323 -0.25182319 0
1.7757764 -1.035856 -0.25242209 0
8.4518032 -4.8922486 -1.199064 0
8.4502144 -4.8535771 -1.1965232 0
8.4926109 -4.8401332 -1.2002217 0
8.4974527 -4.8052201 -1.1986223 0
8.5268459 -4.7841821 -1.2004992 0
8.524435 -4.7453213 -1.1979129 0
8.5557222 -4.7252326 -1.2000765 0
8.562541 -4.6916027 -1.1988199 0
8.5862722 -4.6672425 -1.1999447 0
8.594964 -4.6347032 -1.198981 0
8.6177053 -4.6097379 -1.1999905 0
8.648118 -4.5887809 -1.2020763 0
8.6262646 -4.5401855 -1.196916 0
8.6546669 -4.5181437 -1.1987484 0
8.6817942 -4.4953284 -1.2004113 0
8.6790171 -4.4570537 -1.1979544 0
8.7035704 -4.4328489 -1.1992853 0
8.7593775 -4.4243479 -1.2049242 0
8.7384052 -4.3770437 -1.2000139 0
8.7601366 -4.3512506 -1.2009881 0
8.7800341 -4.3244939 -1.2017213 0
8.7687922 -4.2824841 -1.1982106 0
8.811739 -4.2669277 -1.2021174 0
8.8359013 -4.242115 -1.2034667 0
8.8397131 -4.2075338 -1.2020576 0
8.8437595 -4.1731486 -1.2006984 0
8.8634348 -4.1461558 -1.2014756 0
8.8619184 -4.1092887 -1.1993957 0
8.8825693 -4.0827355 -1.2003312 0
8.8953686 -4.0525484 -1.200218 0
8.8899794 -4.0141554 -1.1976682 0
5.1394129 -2.2999218 -0.6913448 0
5.1115155 -2.2668984 -0.68656582 0
5.1572757 -2.2665308 -0.69168764 0
5.144382 -2.240315 -0.68894702 0
5.1426096 -2.2190607 -0.68770945 0
5.1371551 -2.1963053 -0.68599135 0
5.1519418 -2.1822255 -0.68698502 0
5.120975 -2.1488874 -0.6818912 0
5.1417732 -2.1373682 -0.68370253 0
5.1324029 -2.1133196 -0.68151057 0
5.1452775 -2.0984724 -0.68228203 0
5.1461816 -2.0787444 -0.68147391 0
5.2071662 -2.0830984 -0.68862092 0
5.2592955 -2.0835245 -0.69458705 0
5.3270612 -2.0897341 -0.70260745 0
5.3571372 -2.0808339 -0.70565015 0
5.3919654 -2.0735834 -0.70931798 0
5.4486322 -2.0744324 -0.71585357 0
9.1297674 -3.4409313 -1.1979671 0
9.1401873 -3.4099038 -1.1978272 0
9.1705217 -3.3862379 -1.2003081 0
9.1913338 -3.3589473 -1.2015513 0
9.2120543 -3.3315508 -1.202793 0
9.1885347 -3.2882502 -1.1982758 0
9.2210245 -3.2650433 -1.2010785 0
9.1981964 -3.2222946 -1.196691 0
9.255579 -3.2075968 -1.2027507 0
9.2534904 -3.1721618 -1.2010905 0
9.2258635 -3.1281629 -1.1961364 0
9.2610664 -3.1055179 -1.1993438 0
9.2883072 -3.0800471 -1.2015274 0
9.3111467 -3.0530078 -1.203151 0
9.2908287 -3.011884 -1.199214 0
9.3193417 -2.986635 -1.2015951 0
9.3236628 -2.9535856 -1.2008686 0
9.3269758 -2.9202616 -1.2000275 0
9.34305 -2.890934 -1.2008418 0
9.3262453 -2.8515067 -1.1974463 0
9.353816 -2.8256781 -1.1997632 0
9.3727007 -2.7971249 -1.2009758 0
9.3833876 -2.7660854 -1.2011499 0
9.3993835 -2.7365816 -1.2020164 0
9.3871565 -2.6989136 -1.1992887 0
9.4058104 -2.6701667 -1.2005213 0
9.4103136 -2.6373837 -1.1999608 0
9.3997726 -2.6004701 -1.1974982 0
9.4238529 -2.5731485 -1.19946 0
9.4160929 -2.5371363 -1.1973829 0
9.4477224 -2.511713 -1.2003274 0
9.4379215 -2.4752574 -1.1980211 0
9.4722681 -2.4503517 -1.2013313 0
9.4731903 -2.4167323 -1.2004138 0
9.4979973 -2.3891721 -1.2025355 0
9.4626808 -2.3465827 -1.1970613 0
9.5067062 -2.3236938 -1.2016383 0
9.4896259 -2.2858286 -1.198504 0
9.5110168 -2.2572691 -1.2002429 0
9.5145092 -2.2244275 -1.1997358 0
9.5148439 -2.1908867 -1.198845 0
9.5207624 -2.1586614 -1.1986719 0
9.5667105 -2.1353805 -1.2035488 0
9.5545549 -2.0990615 -1.2011274 0
9.5718985 -2.0692546 -1.2024287 0
9.5770416 -2.0367799 -1.2022102 0
9.5728779 -2.0023704 -1.200838 0
9.5543194 -1.9650764 -1.1976768 0
9.6049042 -1.9419377 -1.2031949 0
9.5745916 -1.9024173 -1.1985918 0
9.5592222 -1.86607 -1.1958779 0
9.5978546 -1.840227 -1.1999322 0
9.591073 -1.8056087 -1.1983207 0
9.5852222 -1.7712518 -1.1968411 0
9.6076908 -1.7421112 -1.1989105 0
9.6051674 -1.7084107 -1.1978742 0
9.6307621 -1.679671 -1.200357 0
9.6444502 -1.6487581 -1.2013673 0
9.6287327 -1.6128631 -1.198729 0
9.6483688 -1.582914 -1.2005062 0
9.6424084 -1.5487547 -1.1991117 0
9.6495008 -1.516724 -1.1993545 0
9.6471481 -1.4832274 -1.1984373 0
9.6549692 -1.4513102 -1.1987977 0
9.6526098 -1.4178773 -1.1979078 0
9.6606998 -1.3859925 -1.1983284 0
9.6761541 -1.3551152 -1.199675 0
9.6597242 -1.3198071 -1.1970825 0
9.6603031 -1.2869074 -1.196613 0
9.6964378 -1.2586484 -1.2005594 0
9.7241173 -1.2291031 -1.2034695 0
9.7218304 -1.1957117 -1.2026836 0
9.7082205 -1.161009 -1.2005116 0
9.7071114 -1.1278778 -1.1999 0
9.7248669 -1.0969076 -1.2016333 0
9.713028 -1.0626044 -1.1997237 0
9.7070036 -1.029022 -1.1985466 0
9.7131805 -0.99675578 -1.19889 0
9.7655382 -0.96905309 -1.2049446 0
9.7200537 -0.93163991 -1.1989402 0
9.7105408 -0.89788181 -1.1973888 0
9.7134562 -0.8653155 -1.1973838 0
9.7253761 -0.83352089 -1.1985019 0
9.7432394 -0.802154 -1.2003652 0
9.7462788 -0.76951414 -1.2004149 0
9.7521162 -0.73708272 -1.2008227 0
9.7420607 -0.70348102 -1.1992874 0
9.7583532 -0.67177677 -1.2010092 0
9.7486715 -0.63827729 -1.1995474 0
9.7638063 -0.6063987 -1.2011528 0
9.7504911 -0.5727607 -1.1992717 0
9.7755575 -0.54135072 -1.2021247 0
9.7601118 -0.5076772 -1.2000093 0
9.779973 -0.47583666 -1.2022483 0
9.752286 -0.44171974 -1.198656 0
9.7465782 -0.40872055 -1.1977793 0
9.7558556 -0.37634695 -1.1987576 0
9.7713499 -0.3441385 -1.200513 0
9.7651272 -0.31114179 -1.1996136 0
9.7315683 -0.27741459 -1.19537 0
9.7783461 -0.24593942 -1.2010078 0
9.7519293 -0.2125605 -1.1976689 0
9.7837486 -0.18043764 -1.2014958 0
9.7853546 -0.1476495 -1.2016255 0
9.7799654 -0.11477181 -1.2009097 0
9.7507467 -0.0817331 -1.1972815 0
9.7688227 -0.049130034 -1.199474 0
9.7803745 -0.016395921 -1.2008789 0
9.7753468 0.016387492 -1.2002615 0
9.7922916 0.04924807 -1.2023557 0
9.7583256 0.081796631 -1.198212 0
9.7860584 0.11484331 -1.2016578 0
9.7439442 0.14702466 -1.1965404 0
9.781723 0.18040028 -1.2012471 0
9.7808447 0.21319078 -1.2012202 0
9.7632542 0.24555984 -1.1991543 0
9.7712164 0.27854481 -1.20024 0
9.7442045 0.31047511 -1.1970432 0
9.7636795 0.34386835 -1.1995705 0
9.7667046 0.37676549 -1.2000906 0
9.7863111 0.41038674 -1.2026622 0
9.7371464 0.44103405 -1.1967952 0
9.7530737 0.4745279 -1.1989416 0
9.7606878 0.50770712 -1.2000802 0
9.7715759 0.54113024 -1.2016351 0
9.7503042 0.57274973 -1.1992487 0
9.7380104 0.60479659 -1.1979793 0
9.7475157 0.63820159 -1.1994052 0
9.727314 0.66963995 -1.197189 0
9.7525024 0.70423502 -1.2005728 0
9.7555542 0.7373426 -1.2012461 0
9.7483616 0.76967865 -1.2006716 0
9.774684 0.80474275 -1.204239 0
9.7490177 0.83554709 -1.2014154 0
9.7139902 0.86536306 -1.1974496 0
9.7262592 0.89933521 -1.199327 0
9.7444086 0.93397421 -1.2019442 0
9.7075043 0.96329427 -1.1977839 0
9.7299061 0.99847215 -1.2009543 0
9.7491646 1.0334913 -1.2037523 0
9.7275906 1.0641975 -1.2015224 0
9.7121744 1.095476 -1.2000651 0
9.7161789 1.1289314 -1.2010208 0
9.6992397 1.159935 -1.199401 0
9.6871052 1.1914408 -1.1983877 0
9.6885786 1.2246112 -1.1990713 0
9.6840162 1.2570361 -1.1990215 0
9.6952229 1.2915592 -1.2009383 0
9.667757 1.3209046 -1.198078 0
9.6853571 1.3564041 -1.2008159 0
9.6537991 1.3850024 -1.1974723 0
9.6564169 1.4184366 -1.1983802 0
