# .PCD v0.7 - Point Cloud Data file format
VERSION 0.7
FIELDS x y z intensity
SIZE 4 4 4 4
TYPE F F F F
COUNT 1 1 1 1
WIDTH 1397
HEIGHT 1
VIEWPOINT 0 0 0 1 0 0 0
POINTS 1397
DATA ascii
0.75903744 7.5206985 -1.1972111 0
0.73604637 7.5460501 -1.2008471 0
0.70884085 7.5282865 -1.1976354 0
0.68449372 7.5405107 -1.1992083 0
0.66105032 7.5638442 -1.2025599 0
0.63337481 7.5385046 -1.1981869 0
0.61157382 7.5837102 -1.2050393 0
0.58222204 7.534966 -1.196977 0
0.557118 7.5390754 -1.1973263 0
0.53065979 7.524199 -1.1946744 0
0.50771034 7.559896 -1.2000653 0
0.48271805 7.5671601 -1.2009547 0
0.45824495 7.5836444 -1.2033203 0
0.43228406 7.575819 -1.2018418 0
0.40766197 7.591763 -1.2041477 0
0.38080248 7.5652061 -1.1997261 0
0.35587278 7.5757461 -1.2012017 0
0.3305169 7.5779552 -1.2013695 0
0.30452901 7.5646486 -1.1990913 0
0.27956814 7.5765667 -1.2008251 0
0.25428638 7.5811172 -1.2014045 0
0.2288651 7.5818677 -1.201395 0
0.20421557 7.6113777 -1.2059559 0
0.17749216 7.5607848 -1.1978388 0
0.15207183 7.5578866 -1.1972921 0
0.12691161 7.5691376 -1.1990004 0
0.10165284 7.5784535 -1.2004153 0
0.076211467 7.5756035 -1.1999166 0
0.050796643 7.5736055 -1.1995664 0
0.025440823 7.5848637 -1.2013294 0
1.0036187e-05 7.5642338 -1.1980551 0
-0.025409201 7.5814338 -1.2007861 0
-0.050702732 7.5625958 -1.1978226 0
-0.07609506 7.5660281 -1.1983999 0
-0.10205581 7.6100016 -1.2054124 0
-0.12716971 7.585732 -1.2016289 0
-0.15254503 7.5824046 -1.2011762 0
-0.17802039 7.5841441 -1.2015395 0
-0.20336896 7.580574 -1.2010752 0
-0.22807437 7.5563369 -1.1973494 0
-0.25431544 7.5825834 -1.2016368 0
-0.27941388 7.5729318 -1.2002488 0
-0.30465728 7.5683341 -1.1996754 0
-0.32997167 7.5659151 -1.1994606 0
-0.35368219 7.5295396 -1.193875 0
-0.38078108 7.5651803 -1.1997219 0
-0.40816784 7.6015611 -1.2057015 0
-0.43142712 7.5611539 -1.1995152 0
-0.45733312 7.5688882 -1.2009786 0
-0.48078337 7.5371466 -1.1961912 0
-0.50582105 7.532064 -1.195647 0
-0.53476465 7.5826883 -1.203961 0
-0.55929321 7.5687852 -1.2020445 0
-0.58334523 7.5497632 -1.1993273 0
-0.60912544 7.5535998 -1.2002546 0
-0.63341182 7.5391841 -1.1982946 0
-0.65784895 7.5274439 -1.1967723 0
-0.68484926 7.5446496 -1.1998663 0
-0.70991451 7.5399041 -1.1994833 0
-0.73622674 7.5481062 -1.2011741 0
-0.76131749 7.5434904 -1.200839 0
-0.78603613 7.5354404 -1.1999704 0
-0.80854058 7.5071731 -1.195894 0
-0.834997 7.5160394 -1.1977456 0
-0.86097562 7.5200405 -1.1988364 0
-0.88812906 7.5336103 -1.2014676 0
-0.91571647 7.5498304 -1.2045374 0
-0.93743992 7.5179701 -1.1999489 0
-0.96350223 7.5215082 -1.2010225 0
-0.990547 7.5321665 -1.2032479 0
-1.0151192 7.5237913 -1.2024469 0
-1.0353295 7.4841299 -1.1966565 0
-1.066066 7.5204706 -1.2030318 0
-1.0883646 7.496809 -1.1998236 0
-1.1119951 7.4830317 -1.1982087 0
-1.1428499 7.5172267 -1.2042909 0
-1.1643302 7.4894423 -1.2004584 0
-1.1925232 7.5049362 -1.203576 0
-1.2151895 7.485559 -1.201115 0
-1.241375 7.4880452 -1.202175 0
-1.2658026 7.4798741 -1.2015378 0
-1.2843922 7.4380512 -1.1955045 0
-1.3184261 7.485384 -1.2038159 0
-1.343199 7.479157 -1.2035321 0
-1.36081 7.4338717 -1.1969724 0
-1.3899109 7.4517002 -1.2005866 0
-1.413929 7.4419541 -1.1997734 0
-1.4365121 7.4249721 -1.1978053 0
-1.4620346 7.4233432 -1.1983266 0
-1.4907489 7.4375248 -1.201416 0
-1.5154607 7.4314237 -1.2012445 0
-1.5385401 7.4174867 -1.1998187 0
-1.5643276 7.4166799 -1.2005299 0
-1.5907434 7.4186587 -1.2017068 0
-1.6221174 7.4431529 -1.2065487 0
-1.6334035 7.3759871 -1.196542 0
-1.6581752 7.3706937 -1.1965785 0
-1.6883179 7.3888988 -1.2004461 0
-1.7117461 7.3774385 -1.19951 0
-1.732118 7.3531761 -1.1965026 0
-1.762435 7.3710532 -1.2003663 0
-1.7868968 7.3641052 -1.2002038 0
-1.8122834 7.3609409 -1.2006716 0
-1.8373387 7.3563676 -1.2009237 0
-1.8630483 7.3543324 -1.2016044 0
-1.8833253 7.3310328 -1.1988225 0
-1.9133182 7.3455 -1.2022306 0
-1.9425172 7.3563948 -1.2050729 0
-1.9495318 7.2839365 -1.1942674 0
-1.9930955 7.3479714 -1.2058553 0
-2.0060413 7.2987533 -1.1988753 0
-2.0276096 7.2816014 -1.197168 0
-2.053299 7.279325 -1.1979188 0
-2.0835097 7.2927566 -1.201272 0
-2.108376 7.2872057 -1.2015153 0
-2.1272871 7.2612891 -1.1984115 0
-2.157295 7.2732458 -1.2015718 0
-2.1810317 7.2638502 -1.2012209 0
-2.1975536 7.2307653 -1.1969614 0
-2.2315044 7.2549572 -1.2021978 0
-2.2477806 7.2216177 -1.1979153 0
-2.274652 7.2225227 -1.1993238 0
-2.2951066 7.2030921 -1.1973683 0
-2.3237679 7.2093902 -1.1997036 0
-2.3476303 7.2006493 -1.1995522 0
-2.3666496 7.1772418 -1.1969678 0
-2.396841 7.1876817 -1.2000425 0
-2.4198728 7.1764803 -1.1995201 0
-2.4433987 7.1667957 -1.199264 0
-2.472507 7.1733398 -1.2017394 0
-2.4913404 7.150075 -1.1992346 0
-2.5222826 7.16151 -1.2025641 0
-2.5350974 7.1215997 -1.197283 0
-2.5666173 7.1343431 -1.2008654 0
-2.586818 7.1155062 -1.1991478 0
-2.6094286 7.1034403 -1.1985822 0
-2.6375554 7.1063037 -1.2005507 0
-2.6654723 7.1083698 -1.2024028 0
-2.6878908 7.0956984 -1.201777 0
-2.7008002 7.058249 -1.1969613 0
-2.7300861 7.0637369 -1.1994375 0
-2.7522397 7.0506639 -1.1987779 0
-2.7813766 7.0553808 -1.2011586 0
-2.8006158 7.0349622 -1.1992743 0
-2.8311512 7.0428572 -1.2022316 0
-2.847091 7.0144587 -1.1990067 0
-2.880826 7.0298438 -1.2032808 0
-2.8966517 7.0014672 -1.2000792 0
-2.9164045 6.9828429 -1.1985563 0
-2.9380741 6.9689317 -1.1978526 0
-2.9632704 6.9633827 -1.1985998 0
-2.9888377 6.9586167 -1.1994976 0
-3.0120449 6.9483099 -1.199455 0
-3.0380127 6.9443169 -1.2005174 0
-3.0565515 6.9233847 -1.1986636 0
-3.0809977 6.9159045 -1.1991502 0
-3.0886874 6.8710971 -1.19317 0
-3.1184189 6.8755002 -1.1957434 0
-3.1474967 6.878212 -1.1980436 0
-3.1831729 6.8949838 -1.2028171 0
-3.2084742 6.888999 -1.203643 0
-3.2106402 6.8336897 -1.1958535 0
-3.236037 6.8281679 -1.196779 0
-3.2600803 6.8197227 -1.1972079 0
-3.3070655 6.8588161 -1.2060106 0
-3.3206925 6.8284616 -1.2026242 0
-3.3398185 6.8096442 -1.2012755 0
-3.3656778 6.8045678 -1.2023638 0
-3.3739538 6.7641354 -1.1972116 0
-3.396697 6.7529516 -1.1972411 0
-3.4304063 6.7633839 -1.2011231 0
-3.4514332 6.7486572 -1.200556 0
-3.4630022 6.7156401 -1.1967413 0
-3.4924417 6.7173448 -1.1991251 0
-3.5137 6.7032247 -1.1987007 0
-3.5453973 6.7088957 -1.2018337 0
-3.5648654 6.691329 -1.2008213 0
-3.5780504 6.6621537 -1.1977316 0
-3.6133573 6.6741138 -1.2020531 0
-3.6144145 6.6229324 -1.1950109 0
-3.6523466 6.6394024 -1.2001855 0
-3.6789539 6.6349955 -1.2016119 0
-3.7035832 6.626925 -1.2023923 0
-3.7282555 6.6188631 -1.2031909 0
-3.7308052 6.5717635 -1.1968961 0
-3.7688315 6.5872064 -1.2020034 0
-3.7909608 6.5746455 -1.2020239 0
-3.8049564 6.5480847 -1.1994935 0
-3.8344147 6.5481415 -1.2018522 0
-3.8528755 6.5293641 -1.20077 0
-3.8792796 6.524035 -1.2021751 0
-3.9042828 6.5162506 -1.2031461 0
-3.9210601 6.4947619 -1.2015991 0
-3.9391954 6.4756303 -1.2004963 0
-3.9559748 6.4543757 -1.1990081 0
-3.9753034 6.4373684 -1.198318 0
-4.0066428 6.4397202 -1.2012497 0
-4.0228167 6.4176445 -1.199641 0
-4.0495009 6.4123383 -1.2011805 0
-4.068449 6.3947506 -1.2004343 0
-4.0851569 6.3737264 -1.1990521 0
-4.1076789 6.3618131 -1.1993951 0
-4.1316967 6.3521729 -1.2001826 0
-4.1611891 6.3508272 -1.2025576 0
-4.1761403 6.3272667 -1.2007408 0
-4.2114625 6.3344841 -1.2047834 0
-4.2102585 6.2868524 -1.1984023 0
-4.2198815 6.2557535 -1.1951644 0
-4.2515197 6.2572994 -1.1981764 0
-4.281249 6.2558303 -1.2006369 0
-4.288023 6.2208743 -1.1966807 0
-4.3239632 6.2282219 -1.2008761 0
-4.3313074 6.1943631 -1.1971411 0
-4.3590927 6.1898046 -1.199078 0
-4.3763351 6.1702394 -1.1981235 0
-4.4134297 6.178535 -1.2026008 0
-4.4342289 6.1638536 -1.2026303 0
-4.449903 6.1420956 -1.2012894 0
-4.4804096 6.1407628 -1.2039601 0
-4.479722 6.0967841 -1.1982756 0
-4.5096269 6.0945539 -1.2008021 0
-4.5210919 6.0673971 -1.1984314 0
-4.5407362 6.0513072 -1.1982538 0
-4.5609117 6.035933 -1.1982307 0
-4.5995412 6.0448117 -1.203048 0
-4.6046462 6.0096016 -1.1991062 0
-4.6215682 5.9899807 -1.1982763 0
-4.6488953 5.983809 -1.2001531 0
-4.6714253 5.9713759 -1.200794 0
-4.6924462 5.9569831 -1.2010568 0
-4.7037749 5.9303517 -1.1988603 0
-4.7319503 5.9249635 -1.2009716 0
-4.7371397 5.8908477 -1.1972691 0
-4.7467074 5.8623881 -1.1947129 0
-4.7892885 5.8745942 -1.2004659 0
-4.7893095 5.8345666 -1.1955611 0
-4.8228807 5.8354592 -1.1990507 0
-4.8667426 5.8484864 -1.2050736 0
-4.8656697 5.8074837 -1.1999797 0
-4.8810248 5.7862902 -1.1989753 0
-4.8865738 5.7536159 -1.195593 0
-4.9088316 5.7407017 -1.1963228 0
-4.9595046 5.760746 -1.2039583 0
-4.9492326 5.7099824 -1.1968105 0
-4.9731188 5.698822 -1.1979594 0
-5.0135159 5.7063804 -1.2030749 0
-5.0230203 5.6786857 -1.20078 0
-5.0248413 5.6425095 -1.1966861 0
-5.0538831 5.6369529 -1.1990947 0
-5.1026387 5.6530852 -1.2061588 0
-5.1091576 5.622293 -1.2032371 0
-5.1120801 5.5877528 -1.1995064 0
-5.1267366 5.566185 -1.1985598 0
-5.1556902 5.5600939 -1.2009636 0
-5.1666141 5.5345402 -1.1991791 0
-5.1933079 5.525876 -1.2010678 0
-5.2111287 5.5077171 -1.2009116 0
-5.2391572 5.5002832 -1.2031142 0
-5.2367153 5.4609399 -1.1983421 0
-5.2490134 5.4371552 -1.1969781 0
-5.2610941 5.413229 -1.1955874 0
-5.3088307 5.4258285 -1.2022947 0
-5.3250608 5.4060373 -1.2018586 0
-5.3491106 5.3941574 -1.203198 0
-5.3362422 5.3452168 -1.1962656 0
-5.3706651 5.3437433 -1.199959 0
-5.3829088 5.3201299 -1.1987026 0
-5.405097 5.3063531 -1.199675 0
-5.4208279 5.2862215 -1.1992259 0
-5.4308591 5.2605948 -1.1975363 0
-5.4582429 5.2517633 -1.1996851 0
-5.4836402 5.2409072 -1.2013984 0
-5.5010724 5.2223887 -1.2013747 0
-5.5119457 5.1976867 -1.1999366 0
-5.5271854 5.1771574 -1.1994687 0
-5.529315 5.1444569 -1.1961809 0
-5.5667272 5.1445527 -1.2005364 0
-5.5690331 5.1121716 -1.1973304 0
-5.606061 5.1116333 -1.2015998 0
-5.6269193 5.0962062 -1.2024015 0
-5.6189189 5.0547714 -1.1970636 0
-5.6657004 5.0625901 -1.203407 0
-5.6717057 5.0338588 -1.2010911 0
-5.6665606 4.9954286 -1.1964478 0
-5.7037349 4.9943137 -1.2007545 0
-5.7241707 4.9784002 -1.2015359 0
-5.7146749 4.9365864 -1.1960617 0
-5.7519526 4.9352093 -1.200394 0
-5.7507319 4.9007821 -1.1967033 0
-5.7927508 4.9031591 -1.2020196 0
-5.7993507 4.8754649 -1.1999904 0
-5.8080659 4.849648 -1.1984223 0
-5.8433275 4.845933 -1.2023389 0
-5.8399906 4.8102102 -1.1983271 0
-5.8596363 4.7935076 -1.1990536 0
-5.8872156 4.7832108 -1.2014087 0
-5.8731375 4.7391715 -1.1952865 0
-5.9145355 4.739922 -1.2004707 0
-5.9198828 4.7116985 -1.1983428 0
-5.934772 4.6911325 -1.1981661 0
-5.9415498 4.6642075 -1.1963706 0
-5.9542603 4.642004 -1.1957893 0
-5.9910645 4.6384854 -1.2000507 0
-6.0003476 4.6135783 -1.198805 0
-6.0186076 4.5955915 -1.199368 0
-6.0588813 4.5942669 -1.2043172 0
-6.0418758 4.5495486 -1.1978984 0
-6.0779796 4.5448818 -1.2020285 0
-6.0864153 4.5194521 -1.2006932 0
-6.0821919 4.4847579 -1.196887 0
-6.0992389 4.4658375 -1.1972884 0
-6.1177921 4.4479904 -1.1979961 0
-6.1423354 4.4344311 -1.1998841 0
-6.1360064 4.3986416 -1.19576 0
-6.1453738 4.374239 -1.1947207 0
-6.1863704 4.3722439 -1.1998342 0
-6.2065196 4.3553543 -1.2009032 0
-6.2229238 4.3357997 -1.2012576 0
-6.2389088 4.315937 -1.2015432 0
-6.2677617 4.3048973 -1.2043135 0
-6.2535443 4.2643452 -1.1988277 0
-6.2775626 4.2499595 -1.2006937 0
-6.2849364 4.2242904 -1.1993884 0
-6.2790928 4.189868 -1.1955856 0
-6.2994366 4.1729856 -1.1967885 0
-6.3309922 4.1634154 -1.2001247 0
-6.3248148 4.1290426 -1.1963227 0
-6.3774781 4.1329942 -1.2036561 0
-6.3562765 4.0890579 -1.1970603 0
-6.3740444 4.0703378 -1.1978296 0
-6.3954921 4.0539112 -1.1992991 0
-6.4190993 4.0387697 -1.2011799 0
-6.4130416 4.0050073 -1.1975268 0
-6.4494343 3.9977405 -1.2018129 0
-6.4659357 3.9780223 -1.2023957 0
-6.4971867 3.9672813 -1.2057267 0
-6.501183 3.9398584 -1.2040102 0
-6.520309 3.9216192 -1.2051104 0
-6.5133996 3.8877854 -1.2014176 0
-6.5282278 3.8670092 -1.2017543 0
-6.5256371 3.8359771 -1.1989032 0
-6.5477424 3.8194897 -1.2006048 0
-6.5753126 3.8060825 -1.2033135 0
-6.5647907 3.7706633 -1.1990676 0
-6.5649419 3.7415335 -1.1967971 0
-6.5937414 3.7287142 -1.1997615 0
-6.605473 3.7061746 -1.1996284 0
-6.6339912 3.6929855 -1.2025522 0
-6.6426864 3.6687067 -1.2018918 0
-6.6296024 3.6325262 -1.1973141 0
-6.6575141 3.6188498 -1.2001569 0
-6.682816 3.6036294 -1.2025332 0
-6.6779165 3.5721393 -1.1994897 0
-6.6854944 3.5474153 -1.1987078 0
-6.6993117 3.5260122 -1.1990588 0
-6.7257442 3.5111778 -1.2016759 0
-6.7184815 3.4787714 -1.1982876 0
-6.7360325 3.4592688 -1.1993426 0
-6.7566504 3.4412777 -1.2009525 0
-6.743896 3.406354 -1.1966488 0
-6.7711425 3.3916698 -1.1994588 0
-6.7929487 3.3741503 -1.2013109 0
-6.7992764 3.3489192 -1.2004375 0
-6.8293428 3.3353224 -1.2037647 0
-6.8099136 3.2976015 -1.1983845 0
-6.8146687 3.2717435 -1.1972841 0
-6.8375659 3.2545726 -1.1993831 0
-6.8654704 3.239666 -1.2023659 0
-6.8615699 3.2097414 -1.1997912 0
-6.862175 3.1820259 -1.1980247 0
-6.8935914 3.1685548 -1.2016481 0
-6.88413 3.1362913 -1.1981592 0
-6.8917689 3.1119111 -1.1976659 0
-6.9308639 3.1016304 -1.202646 0
-6.9262252 3.0717232 -1.2000473 0
-6.9187217 3.0406768 -1.1969742 0
-6.9478068 3.0257061 -1.2002442 0
-6.9402809 2.9947863 -1.1972027 0
-6.9590597 2.9752524 -1.1987145 0
-6.9899487 2.9607782 -1.2023185 0
-7.013473 2.943048 -1.2046609 0
-7.003727 2.9113798 -1.2013035 0
-6.9996605 2.8822038 -1.1989417 0
-7.0100079 2.859014 -1.1990654 0
-7.0249057 2.8376563 -1.1999795 0
-7.0655217 2.8265452 -1.2052919 0
-7.0296011 2.7848709 -1.1975647 0
-7.0731368 2.7747176 -1.2033898 0
-7.0396523 2.7343826 -1.1961265 0
-7.0720654 2.7197194 -1.2000777 0
-7.0839968 2.6970789 -1.200561 0
-7.0984898 2.6753814 -1.2014903 0
-7.1062536 2.6511314 -1.2012931 0
-7.0981646 2.6210363 -1.1984334 0
-7.1188707 2.6015928 -1.2004499 0
-7.1395297 2.5820413 -1.202467 0
-7.156939 2.5612359 -1.2039461 0
-7.1486764 2.5312734 -1.2011217 0
-7.1362553 2.4999807 -1.1976197 0
-7.1452389 2.4762623 -1.1977272 0
-7.1608577 2.4548137 -1.1989589 0
-7.1769366 2.4334657 -1.2002783 0
-7.2020602 2.4150913 -1.2031189 0
-7.1902032 2.3843272 -1.199796 0
-7.220778 2.3676236 -1.2035666 0
-7.2165155 2.3394582 -1.2015419 0
-7.2237067 2.3150535 -1.2014401 0
-7.2222567 2.2879152 -1.1999162 0
-7.2129688 2.2583904 -1.1971085 0
-7.2384658 2.239753 -1.2000871 0
-7.2546763 2.2181439 -1.2015349 0
-7.2752185 2.1977792 -1.2037098 0
-7.2662477 2.1685102 -1.2010159 0
-7.2596169 2.1400499 -1.1987273 0
-7.261694 2.1142251 -1.1978929 0
-7.255425 2.0860376 -1.1956984 0
-7.2596292 2.0609193 -1.1952457 0
-7.289999 2.043154 -1.1991113 0
-7.3129272 2.02316 -1.2017602 0
-7.3055005 1.9947609 -1.1994339 0
-7.3207483 1.9725733 -1.2008448 0
-7.326426 1.9477792 -1.2006981 0
-7.3052297 1.915943 -1.1961648 0
-7.3312697 1.8965242 -1.1993806 0
-7.3329277 1.8707446 -1.1986191 0
-7.352982 1.8496253 -1.2008767 0
-7.3703694 1.8277459 -1.2027087 0
-7.3670497 1.800725 -1.2011751 0
-7.35707 1.7721664 -1.1985724 0
-7.380096 1.751554 -1.2013602 0
-7.3523092 1.7189404 -1.1958921 0
-7.3919463 1.7020892 -1.2014042 0
-7.4002304 1.6778897 -1.2018296 0
-7.3831954 1.6480197 -1.1981589 0
-7.4114866 1.6282667 -1.2018573 0
-7.3880286 1.5971658 -1.1971782 0
-7.4341402 1.5810629 -1.2037845 0
-7.4080844 1.5495785 -1.1987174 0
-7.4194875 1.5260172 -1.1997279 0
-7.3875365 1.4936465 -1.193745 0
-7.4614019 1.4825591 -1.2048708 0
-7.435482 1.451512 -1.1998926 0
-7.4440346 1.4272888 -1.2004938 0
-7.4444323 1.4015042 -1.1997935 0
-7.4549928 1.3776274 -1.2007442 0
-7.4847322 1.357187 -1.2047945 0
-7.4528613 1.3256139 -1.1989422 0
-7.4504209 1.2994249 -1.197842 0
-7.4683504 1.2767653 -1.2000296 0
-7.4796014 1.2528927 -1.2011558 0
-7.470664 1.2256595 -1.1990538 0
-7.5002651 1.2047061 -1.2031498 0
-7.4899049 1.1772956 -1.2008479 0
-7.5084753 1.1544316 -1.203198 0
-7.4878774 1.1255788 -1.1992857 0
-7.5130501 1.1036166 -1.202718 0
-7.5178118 1.0785788 -1.2028947 0
-7.4918842 1.0492353 -1.1981765 0
-7.4798541 1.021992 -1.1956978 0
-7.5242629 1.0023729 -1.2022527 0
-7.5061226 0.97435433 -1.1988256 0
-7.5467982 0.95391601 -1.2048044 0
-7.5189252 0.92479122 -1.1998528 0
-7.5330563 0.90090072 -1.2016191 0
-7.552619 0.87756574 -1.2042634 0
-7.5341125 0.84982377 -1.2008516 0
-7.5246463 0.82321578 -1.1988961 0
-7.5397134 0.79929161 -1.200863 0
-7.5331874 0.77306753 -1.199404 0
-7.5057302 0.7448281 -1.1946281 0
-7.5297923 0.72172964 -1.198066 0
-7.5638041 0.69940478 -1.2030977 0
-7.5340824 0.67118788 -1.1980054 0
-7.5287666 0.64527893 -1.1968095 0
-7.5714545 0.62337267 -1.2032564 0
-7.5465741 0.59585738 -1.1989781 0
-7.5550666 0.57104588 -1.2000164 0
-7.544179 0.54479051 -1.1979902 0
-7.555613 0.52015758 -1.1995223 0
-7.5630803 0.49519965 -1.2004374 0
-7.5417209 0.46841219 -1.1967912 0
-7.5601192 0.44411463 -1.1994678 0
-7.5698323 0.41922227 -1.200779 0
-7.5573773 0.39312091 -1.1985875 0
-7.5831914 0.36897421 -1.2024786 0
-7.57512 0.3431274 -1.2010095 0
-7.5613298 0.31710276 -1.1986479 0
-7.6002626 0.29321188 -1.204657 0
-7.5698338 0.26662311 -1.1996856 0
-7.5829563 0.24163242 -1.2016301 0
-7.595552 0.21654403 -1.2035042 0
-7.5763164 0.19057533 -1.2003484 0
-7.566062 0.16493575 -1.1986294 0
-7.5952539 0.14009629 -1.2031729 0
-7.586617 0.11449327 -1.2017372 0
-7.6006002 0.089216255 -1.203898 0
-7.5712495 0.063484125 -1.1992084 0
-7.56567 0.038069863 -1.1982977 0
-7.5559349 0.012686897 -1.1967424 0
-7.5687675 2.0084404e-05 -1.1987733 0
-9.7944469 -0.016445503 -1.2026068 0
-9.775116 -0.049187623 -1.2002467 0
-9.7747622 -0.081960343 -1.2002304 0
-9.7723961 -0.11470892 -1.1999803 0
-9.7988968 -0.14787984 -1.2032884 0
-9.7651281 -0.18012014 -1.1992091 0
-9.7724705 -0.21303418 -1.2001917 0
-9.8022718 -0.24656722 -1.2039466 0
-9.7576246 -0.27818325 -1.1985706 0
-9.7648458 -0.31115878 -1.1995791 0
-9.7789402 -0.34443182 -1.2014457 0
-9.7761078 -0.3771542 -1.2012463 0
-9.7834854 -0.41029423 -1.202315 0
-9.7673473 -0.44242796 -1.2005074 0
-9.7713528 -0.47544327 -1.2011888 0
-9.7690725 -0.50816923 -1.2011112 0
-9.756814 -0.54033875 -1.19982 0
-9.767683 -0.57379663 -1.2013865 0
-9.7499866 -0.60556638 -1.1994529 0
-9.7673903 -0.63952887 -1.2018509 0
-9.7528448 -0.67142355 -1.2003314 0
-9.7295542 -0.70260382 -1.1977481 0
-9.7012997 -0.73326784 -1.1945658 0
-9.7404251 -0.76907802 -1.1996943 0
-9.7367086 -0.8016423 -1.1995608 0
-9.7103443 -0.83225852 -1.1966498 0
-9.7221937 -0.86611986 -1.1984611 0
-9.7415609 -0.90077609 -1.2012141 0
-9.7148457 -0.93116677 -1.1982982 0
-9.7304039 -0.96559274 -1.2006098 0
-9.6982956 -0.99525434 -1.1970531 0
-9.7251348 -1.0309701 -1.2007858 0
-9.7038708 -1.0616286 -1.1985929 0
-9.7167664 -1.0960201 -1.2006329 0
-9.6978397 -1.1268265 -1.1987543 0
-9.7080984 -1.1610205 -1.2004968 0
-9.6891003 -1.1917123 -1.1986349 0
-9.6904573 -1.2248746 -1.1993041 0
-9.6904449 -1.2578967 -1.1998178 0
-9.7028551 -1.2926022 -1.2018842 0
-9.6847372 -1.3232509 -1.2001828 0
-9.6555691 -1.3522584 -1.1971232 0
-9.6838121 -1.3893344 -1.2011956 0
-9.6627541 -1.4193937 -1.1991671 0
-9.6455526 -1.4499209 -1.197629 0
-9.6434469 -1.4826845 -1.1979781 0
-9.6494656 -1.5167447 -1.1993508 0
-9.652503 -1.5504024 -1.2003676 0
-9.6507177 -1.5833256 -1.200799 0
-9.6244631 -1.6121742 -1.1981981 0
-9.6139336 -1.6435673 -1.1975665 0
-9.6250963 -1.6787091 -1.1996514 0
-9.6140604 -1.7100188 -1.1989838 0
-9.5948725 -1.7398133 -1.1973115 0
-9.6214008 -1.7779635 -1.201359 0
-9.5866356 -1.8047997 -1.197767 0
-9.5998211 -1.8406304 -1.2001787 0
-9.6275015 -1.8794254 -1.2044204 0
-9.5790052 -1.9033208 -1.1991451 0
-9.5985212 -1.9406737 -1.2023959 0
-9.5787811 -1.970134 -1.2007438 0
-9.5637236 -2.0004821 -1.1996903 0
-9.5462246 -2.0302527 -1.1983424 0
-9.5715456 -2.0692048 -1.2023849 0
-9.5270329 -2.0930417 -1.1976682 0
-9.5208635 -2.1251736 -1.1977817 0
-9.5545645 -2.166352 -1.2029284 0
-9.5430622 -2.1974108 -1.202401 0
-9.5094986 -2.2232826 -1.1991047 0
-9.5130568 -2.2577798 -1.2005011 0
-9.5205431 -2.2933023 -1.2024094 0
-9.4913692 -2.3199716 -1.1997005 0
-9.4856653 -2.352309 -1.1999698 0
-9.4682941 -2.381727 -1.1987755 0
-9.4755516 -2.4173615 -1.2007139 0
-9.451108 -2.4449048 -1.1986486 0
-9.4546328 -2.4796669 -1.2001431 0
-9.4507542 -2.5125461 -1.2007135 0
-9.4544735 -2.5475047 -1.2022644 0
-9.4235163 -2.5730832 -1.1994181 0
-9.4147596 -2.6046429 -1.1994083 0
-9.4053831 -2.6360285 -1.199333 0
-9.3828993 -2.6636896 -1.1975981 0
-9.4057112 -2.7042751 -1.2016602 0
-9.3876181 -2.7331829 -1.2005126 0
-9.3809891 -2.7654054 -1.2008438 0
-9.3827171 -2.8001413 -1.2022603 0
-9.3611126 -2.8279095 -1.2007 0
-9.3439322 -2.8569417 -1.1997182 0
-9.3536024 -2.8942263 -1.202199 0
-9.3322334 -2.9219351 -1.2007049 0
-9.3281345 -2.9550295 -1.2014456 0
-9.2823668 -2.9748125 -1.1968286 0
-9.2941284 -3.0129812 -1.1996409 0
-9.2969961 -3.0483956 -1.2013236 0
-9.2867079 -3.0795443 -1.2013216 0
-9.2423649 -3.0992737 -1.1969229 0
-9.2501488 -3.1364245 -1.1992861 0
-9.2390594 -3.1672421 -1.1992184 0
-9.2310505 -3.1991236 -1.1995643 0
-9.218689 -3.2295008 -1.1993582 0
-9.2173233 -3.2637601 -1.2005975 0
-9.2112379 -3.2964027 -1.2012378 0
-9.1934557 -3.3248522 -1.2003658 0
-9.1685047 -3.350632 -1.198568 0
-9.1431046 -3.3761415 -1.1967206 0
-9.1695423 -3.4208829 -1.2016755 0
-9.1271639 -3.4399776 -1.1976266 0
-9.1192532 -3.4719586 -1.1981093 0
-9.1513672 -3.519361 -1.2038721 0
-9.0991631 -3.5343499 -1.1985567 0
-9.0747242 -3.5599194 -1.196903 0
-9.0948162 -3.6030335 -1.2011396 0
-9.0565147 -3.6230373 -1.1976787 0
-9.0492544 -3.6553764 -1.1983327 0
-9.0421238 -3.6878071 -1.199019 0
-9.0281363 -3.7174559 -1.1988103 0
-9.0319252 -3.7544818 -1.2009782 0
-9.0292778 -3.7889354 -1.2023085 0
-8.9992638 -3.811877 -1.2000071 0
-8.9936695 -3.8451226 -1.2009734 0
-8.9908342 -3.8796163 -1.202325 0
-8.947897 -3.8967271 -1.1983236 0
-8.9289589 -3.9241467 -1.1975427 0
-8.9044275 -3.9490395 -1.1960216 0
-8.9101629 -3.9873862 -1.1985809 0
-8.9042006 -4.0206051 -1.1995854 0
-8.8863678 -4.0484767 -1.199005 0
-8.8851089 -4.0839314 -1.2006758 0
-8.8491688 -4.1034055 -1.1976715 0
-8.8418102 -4.1360688 -1.1985458 0
-8.8318052 -4.1675363 -1.1990769 0
-8.827898 -4.2019391 -1.2004524 0
-8.8217955 -4.2353716 -1.2015469 0
-8.7684898 -4.2460136 -1.1962188 0
-8.7761478 -4.2861056 -1.1992173 0
-8.7755098 -4.3222942 -1.2011036 0
-8.7417707 -4.3421569 -1.1984717 0
-8.7437792 -4.379765 -1.2007535 0
-8.7490349 -4.4191532 -1.2035033 0
-8.6943102 -4.4281616 -1.1980109 0
-8.6982574 -4.4669633 -1.2006117 0
-8.6952114 -4.502305 -1.2022681 0
-8.6713123 -4.5268626 -1.2010556 0
-8.6525526 -4.5540504 -1.2005652 0
-8.6242189 -4.576129 -1.1987561 0
-8.6226063 -4.6123896 -1.2006748 0
-8.6015329 -4.6382747 -1.1998991 0
-8.5610266 -4.6535497 -1.1964183 0
-8.5750561 -4.6984897 -1.2005738 0
-8.5532827 -4.7239151 -1.199736 0
-8.5298233 -4.7483501 -1.1986718 0
-8.5246038 -4.7829533 -1.2001852 0
-8.4980173 -4.8055692 -1.1987038 0
-8.5007324 -4.8447914 -1.2013713 0
-8.4625912 -4.8607159 -1.1982775 0
-8.4661894 -4.9006057 -1.2011068 0
-8.4510441 -4.9297414 -1.2012962 0
-8.3922176 -4.9332123 -1.1952786 0
-8.4325104 -4.9950151 -1.203396 0
-8.3833599 -5.0039468 -1.1987693 0
-8.3693895 -5.0337429 -1.1991782 0
-8.3551798 -5.0634203 -1.1995679 0
-8.3430281 -5.0943804 -1.2002689 0
-8.3274555 -5.123281 -1.200493 0
-8.2843752 -5.1351457 -1.1967578 0
-8.2966623 -5.1813474 -1.2010356 0
-8.2508707 -5.1912837 -1.1969197 0
-8.2747345 -5.2451072 -1.2029259 0
-8.2543745 -5.2710791 -1.2025285 0
-8.2141447 -5.2842436 -1.199242 0
-8.2098913 -5.3205094 -1.2012187 0
-8.179369 -5.339756 -1.1993656 0
-8.1557083 -5.3633938 -1.1985264 0
-8.1411762 -5.393024 -1.1990411 0
-8.1210384 -5.4189477 -1.1987444 0
-8.1422787 -5.4726644 -1.2045814 0
-8.099472 -5.4834061 -1.2009617 0
-8.0647364 -5.4994125 -1.1985384 0
-8.0648165 -5.5391717 -1.2013037 0
-8.0465727 -5.5664387 -1.2013595 0
-8.0305052 -5.5952258 -1.2017547 0
-7.995719 -5.6109047 -1.1993575 0
-7.9798994 -5.6398277 -1.1998142 0
-7.9551678 -5.6624389 -1.1989434 0
-7.9466872 -5.6966419 -1.2005372 0
-7.9000301 -5.7033906 -1.1963707 0
-7.9078741 -5.7494841 -1.200471 0
-7.8777971 -5.7680907 -1.1988344 0
-7.8552904 -5.7921681 -1.1983578 0
-7.8509312 -5.829689 -1.200668 0
-7.8621554 -5.8790202 -1.2053922 0
-7.7968068 -5.871016 -1.1983844 0
-7.7829142 -5.9015493 -1.1992837 0
-7.7521009 -5.9192247 -1.197587 0
-7.7555685 -5.9631419 -1.2012047 0
-7.7432799 -5.9951105 -1.2024078 0
-7.7135453 -6.0135612 -1.2009146 0
-7.6918335 -6.0382071 -1.2006795 0
-7.6604156 -6.0551648 -1.1989377 0
-7.6454029 -6.0850592 -1.1997745 0
-7.626524 -6.1119137 -1.2000209 0
-7.6238647 -6.1518736 -1.2028412 0
-7.5976038 -6.1728573 -1.2019565 0
-7.5791354 -6.2001534 -1.2023166 0
-7.538065 -6.208859 -1.1990972 0
-7.5123057 -6.2300344 -1.1983155 0
-7.5132117 -6.2734199 -1.2018085 0
-7.4947453 -6.3007684 -1.202227 0
-7.4576755 -6.3124013 -1.1996689 0
-7.4455051 -6.3450704 -1.2011266 0
-7.4283819 -6.3735952 -1.2018049 0
-7.3917465 -6.385314 -1.1993347 0
-7.3547506 -6.3965411 -1.1968051 0
-7.3649988 -6.4489527 -1.2019844 0
-7.3447738 -6.4748783 -1.2022198 0
-7.3079019 -6.4860463 -1.1997373 0
-7.2923632 -6.5160956 -1.2007663 0
-7.256278 -6.5277371 -1.1984216 0
-7.267415 -6.581975 -1.2038989 0
-7.2186203 -6.5819721 -1.1994647 0
-7.1856408 -6.596159 -1.1976528 0
-7.1752524 -6.6310892 -1.1996202 0
-7.1565318 -6.6584148 -1.2002161 0
-7.1378646 -6.6858344 -1.2008381 0
-7.0980506 -6.6933613 -1.1979088 0
-7.089303 -6.7301602 -1.2002339 0
-7.0731254 -6.7600341 -1.2013255 0
-7.0383859 -6.7721314 -1.1992749 0
-7.0337572 -6.8132405 -1.2023718 0
-6.9884586 -6.8149261 -1.1985276 0
-6.9532046 -6.826179 -1.1963999 0
-6.969182 -6.8879032 -1.2031159 0
-6.9362574 -6.9014883 -1.2014199 0
-6.8923888 -6.9039803 -1.1978241 0
-6.8845339 -6.9425111 -1.2004976 0
-6.8442721 -6.9483509 -1.1975327 0
-6.8238897 -6.974277 -1.198051 0
-6.832571 -7.0301485 -1.2037066 0
-6.800776 -7.044538 -1.2022595 0
-6.7777944 -7.0680046 -1.2023793 0
-6.7487054 -7.0850697 -1.2014264 0
-6.7204251 -7.1029143 -1.2006247 0
-6.6774583 -7.1050677 -1.1971977 0
-6.6598959 -7.1341619 -1.1983308 0
-6.6378713 -7.158535 -1.1986797 0
-6.617178 -7.1843824 -1.199286 0
-6.6019335 -7.2162352 -1.2009014 0
-6.5726275 -7.2327456 -1.1999749 0
-6.5506964 -7.2573519 -1.2004067 0
-6.5309238 -7.2844014 -1.2012521 0
-6.5041475 -7.3036561 -1.2008245 0
-6.4707708 -7.3154144 -1.1991839 0
-6.4410906 -7.3312449 -1.1982321 0
-6.4390121 -7.3786263 -1.2024409 0
-6.3870287 -7.368783 -1.1973404 0
-6.3754792 -7.4054804 -1.1998231 0
-6.3498263 -7.4258928 -1.1996742 0
-6.3222322 -7.4440079 -1.1991695 0
-6.3028121 -7.4717708 -1.200231 0
-6.2628174 -7.4750676 -1.1973808 0
-6.2613707 -7.5244455 -1.2019207 0
-6.222023 -7.5283551 -1.1992062 0
-6.1947656 -7.5467606 -1.1988227 0
-6.1823473 -7.5833349 -1.2013332 0
-6.1404047 -7.5836644 -1.1981173 0
-6.1346021 -7.6286554 -1.2019689 0
-6.0904183 -7.625927 -1.1983149 0
-6.080965 -7.6666641 -1.2015057 0
-6.0501485 -7.6805639 -1.2004982 0
-6.0262055 -7.7031608 -1.2008654 0
-5.9846382 -7.7031059 -1.197722 0
-5.9751477 -7.7443452 -1.2010125 0
-5.9304538 -7.7399364 -1.1972383 0
-5.9120617 -7.7697535 -1.1987777 0
-5.8917332 -7.7971487 -1.1999499 0
-5.8637857 -7.814497 -1.1995873 0
-5.8334408 -7.8285961 -1.1987425 0
-5.8199458 -7.8653893 -1.2013817 0
-5.7858624 -7.8744063 -1.1997892 0
-5.7754097 -7.9156647 -1.2031183 0
-5.7414293 -7.9247589 -1.201568 0
-5.7200217 -7.9511857 -1.2026603 0
-5.6842508 -7.9576077 -1.2007422 0
-5.6557732 -7.9741316 -1.2003675 0
-5.6213074 -7.9821191 -1.1987259 0
-5.6119184 -8.0258121 -1.2024553 0
-5.5802488 -8.0377722 -1.2014371 0
-5.5427485 -8.0411749 -1.1991612 0
-5.5121298 -8.0544128 -1.1983727 0
-5.4898443 -8.0798407 -1.1994106 0
-5.4581165 -8.0913725 -1.1983991 0
-5.4451313 -8.1307926 -1.2015268 0
-5.4024034 -8.1257849 -1.1981034 0
-5.3859839 -8.1602993 -1.200523 0
-5.3639641 -8.1865082 -1.2017262 0
-5.3261814 -8.1886034 -1.1994057 0
-5.2813358 -8.1795282 -1.1954759 0
-5.2606168 -8.2076969 -1.1970084 0
-5.2569699 -8.2628565 -1.2024755 0
-5.2253594 -8.2742968 -1.2015841 0
-5.1974573 -8.2915621 -1.2015538 0
-5.1664929 -8.3039026 -1.2008252 0
-5.1365967 -8.3178968 -1.2003518 0
-5.1110311 -8.3389091 -1.2009043 0
-5.070962 -8.3361378 -1.19805 0
-5.0390224 -8.3465309 -1.1971087 0
-5.0387692 -8.4097099 -1.2037405 0
-4.9954367 -8.4011488 -1.2001109 0
-4.9552946 -8.397604 -1.1972245 0
-4.9465675 -8.4473982 -1.2019522 0
-4.902091 -8.436182 -1.198011 0
-4.8696213 -8.4453611 -1.1969892 0
-4.8396115 -8.4587278 -1.1965772 0
-4.8112087 -8.4748793 -1.1965734 0
-4.7938414 -8.5106239 -1.199344 0
-4.7742319 -8.5426674 -1.2015971 0
-4.7409911 -8.5503807 -1.2004395 0
-4.7191792 -8.5787392 -1.2021928 0
-4.6801348 -8.5757227 -1.1995642 0
-4.6521969 -8.5929203 -1.1997812 0
-4.6262498 -8.6138496 -1.2005311 0
-4.5988321 -8.6321068 -1.2009199 0
-4.5611 -8.6308928 -1.1986166 0
-4.5505223 -8.6812124 -1.2034792 0
-4.4913116 -8.638566 -1.195473 0
-4.475975 -8.6800518 -1.1991305 0
-4.4511275 -8.7033796 -1.2002846 0
-4.4329615 -8.7400208 -1.2032813 0
-4.393014 -8.7337217 -1.2003796 0
-4.3676105 -8.7562284 -1.2014534 0
-4.3331814 -8.7606201 -1.2000558 0
-4.2870283 -8.7409344 -1.1953837 0
-4.2756357 -8.7921467 -1.20042 0
-4.2522721 -8.8191643 -1.2021555 0
-4.2205019 -8.8288174 -1.2015356 0
-4.1743436 -8.808032 -1.1967955 0
-4.1577621 -8.8495922 -1.2005416 0
-4.1232419 -8.8531218 -1.1991382 0
-4.0899038 -8.8590279 -1.1980741 0
-4.0616946 -8.8760052 -1.1985217 0
-4.0207186 -8.8648939 -1.1951942 0
-4.0187178 -8.9400434 -1.2035029 0
-3.9736848 -8.9197168 -1.1989661 0
-3.9602456 -8.9703388 -1.2039791 0
-3.9107552 -8.9392395 -1.1980383 0
-3.8830276 -8.9575281 -1.1987379 0
-3.8595448 -8.9857979 -1.2007825 0
-3.8294125 -8.9987278 -1.2007879 0
-3.7937031 -8.9984312 -1.1990442 0
-3.7560053 -8.9931269 -1.1966528 0
-3.7326546 -9.0221605 -1.1988441 0
-3.7042134 -9.0390892 -1.1994364 0
-3.6719902 -9.0467863 -1.1988174 0
-3.6535783 -9.0887508 -1.2027482 0
-3.6173692 -9.0865927 -1.2008508 0
-3.5898268 -9.1061363 -1.2018363 0
-3.5509596 -9.096818 -1.1990284 0
-3.5252037 -9.1209993 -1.2006509 0
-3.5087469 -9.1697311 -1.2055104 0
-3.4607499 -9.135951 -1.1995373 0
-3.431366 -9.1508808 -1.1999803 0
-3.3992007 -9.1583872 -1.1994634 0
-3.3730178 -9.1820984 -1.2010809 0
-3.3378565 -9.1813726 -1.1995153 0
-3.3116844 -9.2053823 -1.2011946 0
-3.2758129 -9.2024183 -1.1993681 0
-3.2479107 -9.2217836 -1.2004659 0
-3.2169807 -9.2326422 -1.2004685 0
-3.1853333 -9.2414207 -1.2002146 0
-3.1564801 -9.2583523 -1.2010324 0
-3.1168728 -9.2435341 -1.1977477 0
-3.091104 -9.2696476 -1.1997818 0
-3.0681849 -9.304759 -1.202988 0
-3.0328524 -9.3023624 -1.2013568 0
-2.9973354 -9.2991047 -1.1996315 0
-2.9647086 -9.3046074 -1.1990523 0
-2.9336672 -9.3150415 -1.1991225 0
-2.9146354 -9.3640738 -1.2041698 0
-2.8757207 -9.3494024 -1.2010365 0
-2.8362761 -9.3323994 -1.1976238 0
-2.8115804 -9.3638706 -1.2004461 0
-2.7776604 -9.3647861 -1.1993628 0
-2.7556894 -9.4062796 -1.2034868 0
-2.7195818 -9.3997231 -1.2014745 0
-2.679626 -9.3792992 -1.1977088 0
-2.6502497 -9.3956251 -1.1986523 0
-2.6246138 -9.4255772 -1.201344 0
-2.5916145 -9.4292946 -1.2007035 0
-2.5583842 -9.4320288 -1.1999526 0
-2.5274689 -9.4432535 -1.2002959 0
-2.4904051 -9.4312696 -1.1977046 0
-2.4685731 -9.4772024 -1.20248 0
-2.4338331 -9.4739399 -1.2010238 0
-2.4021156 -9.4822855 -1.2010541 0
-2.3691602 -9.4856834 -1.2004715 0
-2.3342118 -9.480854 -1.1988631 0
-2.3002927 -9.4798975 -1.1977602 0
-2.2715964 -9.5005245 -1.1993973 0
-2.2360954 -9.4926577 -1.1974509 0
-2.2058289 -9.5068817 -1.1983056 0
-2.1768799 -9.5270834 -1.1999252 0
-2.1425719 -9.5238676 -1.1986086 0
-2.1131628 -9.5424433 -1.2000481 0
-2.0807848 -9.5477667 -1.1998334 0
-2.0518143 -9.5689287 -1.2016215 0
-2.0200591 -9.577363 -1.2018234 0
-1.9833225 -9.5618353 -1.1990337 0
-1.9524505 -9.5743074 -1.1997701 0
-1.9197186 -9.5777063 -1.1993827 0
-1.8905249 -9.5989618 -1.2012439 0
-1.8561968 -9.5942163 -1.1998645 0
-1.822654 -9.5932035 -1.1989667 0
-1.7904279 -9.5989838 -1.1989322 0
-1.7614433 -9.6224623 -1.2011204 0
-1.7262787 -9.6122093 -1.1991112 0
-1.6931417 -9.6128368 -1.1984746 0
-1.6629282 -9.6301928 -1.1999366 0
-1.6353494 -9.6635981 -1.203409 0
-1.5917327 -9.6014233 -1.1949952 0
-1.5639898 -9.6341667 -1.1984109 0
-1.534219 -9.6553383 -1.200398 0
-1.5035734 -9.6715918 -1.2017851 0
-1.4691494 -9.6634989 -1.2001606 0
-1.4365921 -9.667367 -1.200036 0
-1.4030212 -9.6642075 -1.1990533 0
-1.3715163 -9.6752434 -1.1998452 0
-1.3389411 -9.6788597 -1.1997303 0
-1.3022796 -9.6521463 -1.1958711 0
-1.2752503 -9.6970634 -1.2008996 0
-1.2399964 -9.6799402 -1.1982574 0
-1.2112565 -9.7138929 -1.2019509 0
-1.1741736 -9.6807375 -1.1973546 0
-1.1440042 -9.7040873 -1.1997615 0
-1.1095849 -9.6914749 -1.1977353 0
-1.0805335 -9.726181 -1.2015702 0
-1.0466243 -9.7177429 -1.2000874 0
-1.0125768 -9.7072029 -1.1983598 0
-0.98305154 -9.7405348 -1.2020609 0
-0.94939703 -9.7336178 -1.2008078 0
-0.91548055 -9.7231922 -1.1991361 0
-0.88326263 -9.7304735 -1.1996622 0
-0.84850609 -9.7090397 -1.1966622 0
-0.81993043 -9.759223 -1.2025018 0
-0.78444207 -9.7276545 -1.1982813 0
-0.7530604 -9.7462482 -1.200254 0
-0.7198742 -9.74189 -1.1994132 0
-0.68738806 -9.74681 -1.1997285 0
-0.65460193 -9.7475252 -1.1995395 0
-0.62314999 -9.7690001 -1.2019185 0
-0.58940786 -9.7547321 -1.1999131 0
-0.55660033 -9.7549286 -1.1997011 0
-0.52430046 -9.76437 -1.2006392 0
-0.49143544 -9.7636099 -1.2003363 0
-0.45750147 -9.739748 -1.1972075 0
-0.42664447 -9.7825241 -1.202283 0
-0.39310658 -9.7656031 -1.2000345 0
-0.36059797 -9.7732573 -1.2008198 0
-0.32818028 -9.7849131 -1.2021101 0
-0.29416549 -9.7460041 -1.197202 0
-0.26197135 -9.7649775 -1.1994181 0
-0.22929505 -9.7685823 -1.1997596 0
-0.19683602 -9.7839336 -1.2015573 0
-0.16390225 -9.776844 -1.2006124 0
-0.13084279 -9.7565632 -1.1980612 0
-0.098514117 -9.7951241 -1.202749 0
-0.065544568 -9.7763386 -1.2004086 0
-0.032727968 -9.7651606 -1.199016 0
1.2949335e-05 -9.7598619 -1.1983585 0
0.032750409 -9.7641258 -1.1988889 0
0.065585457 -9.7785664 -1.2006823 0
0.098388754 -9.7800789 -1.2009016 0
0.13108262 -9.7725124 -1.2000197 0
0.16370332 -9.7634325 -1.1989654 0
0.19640075 -9.7610092 -1.198742 0
0.22943909 -9.7736139 -1.2003777 0
0.26244673 -9.7817278 -1.2014756 0
0.29487422 -9.7686253 -1.1999809 0
0.32891884 -9.8061571 -1.20472 0
0.35978183 -9.7504358 -1.1980159 0
0.39288321 -9.7594099 -1.1992736 0
0.42513824 -9.7473936 -1.1979655 0
0.45867518 -9.7641821 -1.200211 0
0.49131998 -9.7607994 -1.1999911 0
0.52449423 -9.7674952 -1.2010236 0
0.557046 -9.7622833 -1.2006056 0
0.59009635 -9.7656965 -1.2012621 0
0.62266725 -9.7610245 -1.2009374 0
0.6553877 -9.7588387 -1.200932 0
0.68779099 -9.7521544 -1.2003865 0
0.72027725 -9.7469921 -1.2000417 0
0.75310832 -9.7465324 -1.2002891 0
0.78403842 -9.7223272 -1.1976253 0
0.81856143 -9.7426176 -1.200456 0
0.85271531 -9.7569056 -1.2025621 0
0.88474923 -9.746563 -1.2016462 0
0.91682136 -9.7371559 -1.2008586 0
0.94689631 -9.7077122 -1.1976123 0
0.98152572 -9.7251577 -1.2001637 0
1.0141079 -9.7216311 -1.2001413 0
1.0460954 -9.7125902 -1.1994514 0
1.0763011 -9.687849 -1.196835 0
1.111461 -9.707634 -1.1997328 0
1.1453419 -9.7152119 -1.2011372 0
1.1771336 -9.7049265 -1.2003467 0
1.2120427 -9.7199869 -1.2027054 0
1.2419969 -9.6953516 -1.2001656 0
1.2724262 -9.6753912 -1.1982161 0
1.3057584 -9.6777363 -1.1990421 0
1.3381985 -9.6733036 -1.199042 0
1.3698843 -9.6635456 -1.198395 0
1.4028147 -9.6626053 -1.1988549 0
1.4378973 -9.6759729 -1.2011049 0
1.4701347 -9.6698065 -1.2009445 0
1.4980915 -9.6361618 -1.197383 0
1.5312322 -9.6363764 -1.198041 0
1.5626585 -9.6258049 -1.1973712 0
1.5994151 -9.6476049 -1.2007434 0
1.629261 -9.6274652 -1.1989099 0
1.6642499 -9.6376944 -1.2008718 0
1.6944686 -9.6202211 -1.1993959 0
1.7266384 -9.6140661 -1.1993434 0
1.7544067 -9.5838795 -1.1963048 0
1.7921532 -9.6080914 -1.2000704 0
1.8262305 -9.6118879 -1.2013026 0
1.8574818 -9.6007223 -1.2006787 0
1.8903633 -9.5980082 -1.2011251 0
1.9263237 -9.610527 -1.2034932 0
1.9600055 -9.6112251 -1.2043968 0
1.9885143 -9.5867386 -1.2021571 0
2.015146 -9.5539436 -1.1988852 0
2.052563 -9.5722961 -1.2020451 0
2.0797868 -9.543066 -1.1992434 0
2.1123359 -9.5385904 -1.1995642 0
2.1454864 -9.536705 -1.200225 0
2.1774907 -9.5296392 -1.2002479 0
2.2132623 -9.5388041 -1.20233 0
2.2376041 -9.4989491 -1.1982454 0
2.2764621 -9.5207634 -1.2019532 0
2.3036935 -9.4938021 -1.1995177 0
2.3360023 -9.488019 -1.19977 0
2.3705235 -9.4910345 -1.2011495 0
2.3986039 -9.468317 -1.1992856 0
2.4247704 -9.4385576 -1.1965392 0
2.4638627 -9.4590158 -1.2001731 0
2.4930587 -9.4412174 -1.1989686 0
2.5276396 -9.4437914 -1.2003651 0
2.5530043 -9.4120951 -1.1974175 0
2.5901976 -9.4240408 -1.2000355 0
2.6156237 -9.3931952 -1.1972176 0
2.6610506 -9.4338207 -1.2035259 0
2.6813121 -9.385107 -1.1984514 0
2.7083883 -9.3609419 -1.1965184 0
2.7470803 -9.3768005 -1.1997161 0
2.779716 -9.3716259 -1.2002397 0
2.8078051 -9.3512068 -1.1988236 0
2.8468351 -9.367053 -1.2020719 0
2.8784728 -9.3582602 -1.2021754 0
2.9022317 -9.3241358 -1.1990349 0
2.9318779 -9.3092737 -1.1983812 0
2.968003 -9.3148623 -1.2003747 0
2.9948349 -9.2912626 -1.1986208 0
3.0343199 -9.3067799 -1.2019284 0
3.062042 -9.286047 -1.2005699 0
3.0972738 -9.2880669 -1.2021669 0
3.1182187 -9.2474442 -1.1982554 0
3.1630487 -9.2775393 -1.2035224 0
3.1839297 -9.2372684 -1.1996765 0
3.2102752 -9.2133188 -1.1979573 0
3.2601144 -9.2563553 -1.2049675 0
3.274008 -9.1972713 -1.1986984 0
3.3073306 -9.193203 -1.1996067 0
3.3431628 -9.1958923 -1.2014134 0
3.3770063 -9.1928806 -1.2024925 0
3.4008939 -9.1628742 -1.2000523 0
3.4267993 -9.138628 -1.1983747 0
3.4623652 -9.1401415 -1.2000887 0
3.4911678 -9.1237173 -1.1994624 0
3.5261834 -9.1234617 -1.2009764 0
3.5510211 -9.0969048 -1.199041 0
3.5868032 -9.0983963 -1.2008159 0
3.6246507 -9.1048136 -1.2032601 0
3.6594276 -9.1032324 -1.2046659 0
3.6680427 -9.0369921 -1.1975207 0
3.7019079 -9.0333948 -1.1986821 0
3.7340009 -9.0253477 -1.1992687 0
3.7700059 -9.0265818 -1.2011057 0
3.796911 -9.0059738 -1.2000506 0
3.8290267 -8.9977551 -1.2006594 0
3.8540881 -8.9730282 -1.1990775 0
3.8897965 -8.9730778 -1.2008202 0
3.9121284 -8.9423141 -1.1984518 0
3.9330971 -8.9087811 -1.1957184 0
3.9747329 -8.9220047 -1.1992751 0
4.0078712 -8.9158506 -1.2002474 0
4.0361485 -8.8988504 -1.1997739 0
4.0663037 -8.8860159 -1.1998748 0
4.0955606 -8.8712196 -1.1997244 0
4.1201963 -8.8465204 -1.1982455 0
4.1579733 -8.8499804 -1.2005957 0
4.1690989 -8.7969055 -1.1952851 0
4.2212839 -8.8303928 -1.2017516 0
4.2441115 -8.8021793 -1.1998419 0
4.2805891 -8.8022728 -1.2018042 0
4.2976465 -8.7625256 -1.1983379 0
4.3364372 -8.7671442 -1.2009511 0
4.3676581 -8.7562656 -1.2014601 0
4.390162 -8.7279949 -1.199594 0
4.4161515 -8.7068205 -1.1987121 0
4.455483 -8.7118387 -1.2014529 0
4.4794469 -8.6867275 -1.2000543 0
4.518084 -8.6900043 -1.202593 0
4.5236483 -8.6298876 -1.1963657 0
4.5632687 -8.6349411 -1.1991806 0
4.6023612 -8.6386757 -1.2018355 0
4.6207361 -8.603529 -1.1990943 0
4.6512456 -8.5911083 -1.19953 0
4.6951723 -8.6032219 -1.2034127 0
4.716506 -8.5738258 -1.201506 0
4.7276649 -8.5262928 -1.1970594 0
4.7620077 -8.5207405 -1.1985148 0
4.7997241 -8.5210152 -1.2008102 0
4.8196354 -8.4896708 -1.1986636 0
4.8393011 -8.4581327 -1.1964948 0
4.8903151 -8.4811983 -1.2020704 0
4.9170527 -8.4618797 -1.2016621 0
4.9441442 -8.4432077 -1.2013578 0
4.9650502 -8.4140854 -1.1995761 0
4.993732 -8.3982306 -1.1996959 0
5.0239496 -8.3849249 -1.2001947 0
5.0610857 -8.3830261 -1.202345 0
5.0964875 -8.3780489 -1.2040752 0
5.1107707 -8.3384352 -1.200838 0
5.1329451 -8.3119345 -1.1994932 0
5.1735487 -8.3151932 -1.2024599 0
5.1927299 -8.2839708 -1.2004559 0
5.2189398 -8.264082 -1.2001027 0
5.2433057 -8.2413311 -1.199345 0
5.2865992 -8.2481871 -1.2029154 0
5.2987514 -8.2064524 -1.1994131 0
5.3252726 -8.1871586 -1.1991961 0
5.3431115 -8.1546354 -1.1970496 0
5.386704 -8.1613436 -1.2006787 0
5.4167128 -8.1472616 -1.2012721 0
5.4480963 -8.1351728 -1.2021763 0
5.4723806 -8.1124716 -1.2015262 0
5.4805579 -8.0661268 -1.197377 0
5.5171418 -8.0616903 -1.1994576 0
5.5475373 -8.0480757 -1.2001926 0
5.5728803 -8.027113 -1.1998461 0
5.5978436 -8.0056391 -1.199435 0
5.6158843 -7.9743729 -1.197565 0
5.6595974 -7.9794788 -1.2011746 0
5.6786966 -7.9497876 -1.1995646 0
5.6977744 -7.9202156 -1.1979783 0
5.7534237 -7.9412699 -1.2040738 0
5.7541475 -7.8864789 -1.1986847 0
5.7816095 -7.8685751 -1.1989031 0
5.8055253 -7.8458571 -1.1984007 0
5.8572049 -7.8604441 -1.2036216 0
5.8645401 -7.8154588 -1.1997373 0
5.8887329 -7.7931352 -1.1993346 0
5.9196501 -7.7796831 -1.2003121 0
5.9440026 -7.7575765 -1.1999694 0
5.9648848 -7.7310009 -1.1989454 0
5.9899645 -7.7099195 -1.1987839 0
6.0269389 -7.7040558 -1.2010074 0
6.0484328 -7.6783438 -1.2001537 0
6.0714927 -7.6546803 -1.1996301 0
6.1037846 -7.642621 -1.2009406 0
6.1075239 -7.5949411 -1.1966594 0
6.1509867 -7.5966921 -1.200178 0
6.1774268 -7.5772581 -1.2003732 0
6.1970735 -7.549531 -1.1992655 0
6.2239547 -7.530652 -1.1995747 0
6.2659879 -7.5299535 -1.2028031 0
6.2800241 -7.4955645 -1.2006667 0
6.3068337 -7.4764981 -1.2009929 0
6.3246088 -7.4467664 -1.1996167 0
6.3311305 -7.4039893 -1.1961384 0
6.364821 -7.3930602 -1.1978136 0
6.3966284 -7.3798189 -1.1991363 0
6.4175324 -7.3539729 -1.1984261 0
1.295341 -1.4743484 -0.24097076 0
1.3199844 -1.4922768 -0.24462299 0
1.3146131 -1.4762013 -0.24270895 0
1.3375043 -1.4918052 -0.24601039 0
1.3426436 -1.4874731 -0.24603698 0
1.3450605 -1.480143 -0.2455691 0
1.3603749 -1.4869483 -0.24745348 0
1.3545501 -1.4706502 -0.24549562 0
1.3473617 -1.4530388 -0.24330848 0
1.3674278 -1.4647976 -0.2460438 0
1.3907491 -1.4798018 -0.24934591 0
1.3770494 -1.4554156 -0.24601343 0
1.3762076 -1.4447918 -0.24499623 0
1.3952142 -1.4549465 -0.24751005 0
1.386843 -1.4365443 -0.24516915 0
1.4074626 -1.4481546 -0.24795461 0
1.4229167 -1.4542677 -0.24981678 0
1.4105376 -1.4319797 -0.24679911 0
1.4188011 -1.4307418 -0.24740423 0
1.4538777 -1.4563152 -0.25266787 0
1.4539707 -1.4466747 -0.25183967 0
1.4696807 -1.4525326 -0.25371578 0
1.4611026 -1.4344026 -0.25140327 0
1.4749995 -1.4383658 -0.25296322 0
1.469057 -1.4229927 -0.25112441 0
1.481243 -1.4252017 -0.25238928 0
1.4998611 -1.4334623 -0.25474125 0
1.5223427 -1.4452133 -0.25773516 0
1.5163114 -1.4298526 -0.25590098 0
1.4944235 -1.3997765 -0.25141358 0
1.5179405 -1.4122795 -0.25457191 0
1.5280254 -1.4121342 -0.25546777 0
1.5437627 -1.4171108 -0.25730303 0
1.5470597 -1.4106089 -0.25706285 0
1.54748 -1.4015191 -0.25635043 0
1.555752 -1.3995448 -0.25694197 0
1.5654656 -1.3988153 -0.25777018 0
1.5550424 -1.3801531 -0.25529051 0
1.5928384 -1.4041793 -0.26072112 0
1.594669 -1.3963193 -0.26025298 0
1.5858854 -1.3792619 -0.25806332 0
1.6006469 -1.3827014 -0.25970951 0
1.6056067 -1.3776126 -0.25976339 0
1.6246907 -1.3845563 -0.26209837 0
1.6148161 -1.3668216 -0.25976461 0
1.6463556 -1.3840697 -0.26409021 0
1.636834 -1.3667246 -0.26182634 0
1.6556033 -1.3730019 -0.26409081 0
1.6500541 -1.3590885 -0.26247728 0
1.6930072 -1.3849664 -0.26856977 0
1.6843998 -1.368524 -0.26647493 0
1.694241 -1.3671151 -0.2673052 0
1.6639961 -1.3335229 -0.26182646 0
1.6848766 -1.3410043 -0.26440302 0
1.6949822 -1.339789 -0.26528242 0
1.7190393 -1.3494649 -0.26833799 0
1.7243448 -1.34431 -0.26846108 0
1.7418165 -1.3485661 -0.27047575 0
1.731396 -1.3312373 -0.26816303 0
1.7382374 -1.3272481 -0.26853189 0
1.7509427 -1.3276798 -0.26980546 0
1.770746 -1.333369 -0.27216658 0
1.7742444 -1.3267051 -0.27201906 0
1.7971373 -1.3344523 -0.2748414 0
1.7858235 -1.3167855 -0.27243441 0
1.8286595 -1.3389295 -0.27828282 0
1.7988795 -1.3078828 -0.27308208 0
1.7943178 -1.2953923 -0.27172872 0
1.8201171 -1.3047571 -0.27497169 0
1.8273797 -1.3007102 -0.27540851 0
1.8190864 -1.2856399 -0.27350742 0
1.8515338 -1.2992853 -0.27772945 0
1.8577173 -1.2943505 -0.27800447 0
1.8573881 -1.2848922 -0.27730897 0
1.8724158 -1.2860272 -0.27890727 0
1.878845 -1.2811931 -0.2792235 0
1.8633482 -1.2614942 -0.27629033 0
1.8884057 -1.2692456 -0.2793732 0
1.9202788 -1.2813425 -0.28345138 0
1.9296836 -1.2782882 -0.28420538 0
1.9022331 -1.2509478 -0.27954316 0
1.9322752 -1.2614442 -0.28333488 0
1.9510741 -1.2644075 -0.28546816 0
1.9437944 -1.2504556 -0.28378803 0
8.2298594 -5.2553935 -1.1989551 0
8.2607651 -5.2362213 -1.200893 0
8.2720413 -5.2045732 -1.1999888 0
8.2796774 -5.1707096 -1.1985749 0
8.282197 -5.1337647 -1.1964412 0
8.3172331 -5.1169615 -1.1990173 0
8.3514061 -5.0994654 -1.2014722 0
8.3401985 -5.0543113 -1.1974151 0
8.3846684 -5.042902 -1.2013654 0
8.3955564 -5.0111966 -1.2005115 0
8.3993645 -4.9753509 -1.1986638 0
8.4305878 -4.9557376 -1.2007418 0
8.4614773 -4.9357972 -1.2027775 0
8.4725895 -4.9042802 -1.2020129 0
8.4808292 -4.8711615 -1.2008581 0
8.4849424 -4.8357625 -1.1991379 0
8.5018034 -4.8076806 -1.199236 0
8.510272 -4.7748823 -1.1981657 0
8.5324926 -4.7498069 -1.1990453 0
8.5521612 -4.7232661 -1.1995771 0
8.572998 -4.6973319 -1.2002839 0
8.5781116 -4.6628065 -1.1988041 0
8.601037 -4.6379781 -1.1998281 0
8.625494 -4.613904 -1.2010751 0
8.6147528 -4.5710769 -1.1974386 0
8.6727142 -4.5646329 -1.203361 0
8.6892023 -4.5361724 -1.2035317 0
8.6834421 -4.496182 -1.2006392 0
8.7021828 -4.4689503 -1.201152 0
8.6941509 -4.428051 -1.1979873 0
8.6815386 -4.3850317 -1.194217 0
8.720129 -4.3678894 -1.197504 0
8.7616768 -4.352015 -1.2011991 0
8.7434626 -4.3064809 -1.1967157 0
8.8023787 -4.2988873 -1.2028 0
8.7964325 -4.2595153 -1.2000293 0
8.818121 -4.2335787 -1.2010449 0
8.8099995 -4.1933908 -1.198017 0
8.8422689 -4.1724453 -1.2004961 0
8.839016 -4.1347332 -1.1981655 0
8.8617039 -4.1091895 -1.1993667 0
8.8991518 -4.0903573 -1.2025721 0
8.9012861 -4.0552444 -1.2010164 0
8.8866472 -4.0126505 -1.1972193 0
5.1496787 -2.3045161 -0.69272578 0
5.1425204 -2.2806487 -0.69073033 0
5.1254697 -2.2525527 -0.68742186 0
5.1275105 -2.2329674 -0.68668753 0
5.1413574 -2.2185204 -0.68754196 0
5.1351094 -2.1954308 -0.68571818 0
5.1399131 -2.1771305 -0.68538105 0
5.1330166 -2.1539402 -0.68349463 0
5.1301522 -2.1325374 -0.68215728 0
5.1394272 -2.1162119 -0.68244332 0
5.1288061 -2.0917547 -0.68009794 0
5.1439281 -2.0778341 -0.68117547 0
5.2244601 -2.0900168 -0.69090796 0
5.2651935 -2.085861 -0.69536597 0
5.2947907 -2.0770748 -0.69835114 0
5.3374629 -2.0731921 -0.7030586 0
5.4094362 -2.080302 -0.71161628 0
5.454987 -2.0768521 -0.71668851 0
9.1357107 -3.4431713 -1.1987468 0
9.1593647 -3.4170585 -1.2003406 0
9.1683121 -3.3854218 -1.2000188 0
9.1864939 -3.3571784 -1.2009186 0
9.1982822 -3.3265703 -1.2009948 0
9.1878557 -3.2880073 -1.1981874 0
9.1943388 -3.2555943 -1.1976026 0
9.235918 -3.2355092 -1.2015986 0
9.2156658 -3.1937647 -1.197564 0
9.2308226 -3.164391 -1.1981481 0
9.2682228 -3.1425252 -1.2016282 0
9.258482 -3.104651 -1.1990091 0
9.2681265 -3.0733554 -1.1989169 0
9.2656984 -3.038106 -1.1972784 0
9.2992735 -3.0146217 -1.200304 0
9.2900887 -2.9772601 -1.1978233 0
9.3404055 -2.9588892 -1.203025 0
9.3181353 -2.9174936 -1.19889 0
9.3337021 -2.8880417 -1.1996404 0
9.3378859 -2.8550658 -1.198941 0
9.3715219 -2.8310268 -1.2020342 0
9.3718538 -2.7968721 -1.2008672 0
9.3610983 -2.759515 -1.1982968 0
9.3855286 -2.7325478 -1.2002445 0
9.3836164 -2.6978958 -1.1988364 0
9.3983831 -2.6680582 -1.1995735 0
9.3996487 -2.6343946 -1.1986009 0
9.4162769 -2.6050358 -1.1996007 0
9.4489231 -2.5799937 -1.2026509 0
9.4715176 -2.5520704 -1.2044309 0
9.4500046 -2.5123198 -1.2006173 0
9.4595709 -2.4809353 -1.2007692 0
9.4364748 -2.4410927 -1.1967919 0
9.4819632 -2.4189703 -1.2015256 0
9.4983654 -2.3892648 -1.2025821 0
9.4967232 -2.3550246 -1.2013677 0
9.5261059 -2.3284354 -1.2040904 0
9.4954071 -2.287221 -1.199234 0
9.4922934 -2.2528255 -1.1978801 0
9.5173903 -2.225101 -1.200099 0
9.5214596 -2.19241 -1.1996784 0
9.5231142 -2.1591945 -1.1989681 0
9.5175943 -2.1244173 -1.1973696 0
9.5129528 -2.0899217 -1.1958973 0
9.5659847 -2.0679762 -1.2016858 0
9.5457716 -2.0301297 -1.1982849 0
9.5446205 -1.9964598 -1.1972934 0
9.5671587 -1.9677171 -1.1992862 0
9.5790682 -1.9367141 -1.1999584 0
9.5836267 -1.9042125 -1.1997229 0
9.5711279 -1.8683941 -1.1973673 0
9.5696945 -1.8348278 -1.1964116 0
9.6067886 -1.8085675 -1.2002844 0
9.635891 -1.7806149 -1.2031678 0
9.5965614 -1.7400932 -1.1975217 0
9.5981226 -1.7071577 -1.1969956 0
9.6152067 -1.6769581 -1.1984183 0
9.6132784 -1.6434292 -1.1974844 0
9.6578102 -1.6177337 -1.2023491 0
9.63867 -1.5813227 -1.1992995 0
9.6626921 -1.5520128 -1.2016343 0
9.6335783 -1.5142213 -1.1973757 0
9.6750822 -1.4875221 -1.2019075 0
9.6673975 -1.4531783 -1.2003409 0
9.6982222 -1.4245774 -1.2035683 0
9.6566887 -1.3854169 -1.1978307 0
9.660965 -1.3529881 -1.1977918 0
9.6888075 -1.3237808 -1.2006867 0
