# .PCD v0.7 - Point Cloud Data file format
VERSION 0.7
FIELDS x y z intensity
SIZE 4 4 4 4
TYPE F F F F
COUNT 1 1 1 1
WIDTH 1403
HEIGHT 1
VIEWPOINT 0 0 0 1 0 0 0
POINTS 1403
DATA ascii
-9.1073828 21.009287 -1.2000501 0
-9.177475 20.977955 -1.2000113 0
-9.2634449 20.982597 -1.2020468 0
-9.3236456 20.928755 -1.2007463 0
-9.4003983 20.912136 -1.2015944 0
-9.4549255 20.846251 -1.1996233 0
-9.5422602 20.852663 -1.2018267 0
-9.5940294 20.781363 -1.1995646 0
-9.6640835 20.750008 -1.1996182 0
-9.7371454 20.725035 -1.2000551 0
-9.8005447 20.679543 -1.199317 0
-9.8738337 20.654953 -1.1998041 0
-9.9392948 20.613985 -1.1993533 0
-10.018437 20.60128 -1.2005618 0
-10.079916 20.552206 -1.1996647 0
-10.153069 20.526991 -1.2001733 0
-10.22629 20.501766 -1.2006962 0
-10.279202 20.436014 -1.1988572 0
-10.354084 20.414095 -1.1996012 0
-10.432315 20.398516 -1.2007343 0
-10.486824 20.336615 -1.1991534 0
-10.555743 20.302866 -1.1992435 0
-10.634582 20.288012 -1.2004656 0
-10.698499 20.244589 -1.200012 0
-10.773089 20.221321 -1.200767 0
-10.841423 20.186197 -1.200833 0
-10.891184 20.116747 -1.1988671 0
-10.968425 20.098175 -1.1999452 0
-11.045349 20.078739 -1.2009891 0
-11.105717 20.029167 -1.2002444 0
-11.16927 19.985487 -1.1998643 0
-11.240808 19.956081 -1.2003549 0
-11.305161 19.913889 -1.2000902 0
-11.362635 19.859741 -1.1991161 0
-11.441722 19.843323 -1.2004344 0
-11.496354 19.784483 -1.1991999 0
-11.573636 19.764635 -1.2003422 0
-11.637197 19.721245 -1.2000698 0
-11.708946 19.69169 -1.2006536 0
-11.777727 19.657034 -1.2009414 0
-11.831882 19.59808 -1.1997566 0
-11.902697 19.566805 -1.2002783 0
-11.968672 19.527502 -1.2003223 0
-12.034374 19.487745 -1.200352 0
-12.092935 19.436501 -1.1996862 0
-12.158634 19.396805 -1.1997454 0
-12.233485 19.371584 -1.2007157 0
-12.298736 19.331039 -1.2007518 0
-12.371543 19.302277 -1.2015349 0
-12.430397 19.251717 -1.2009752 0
-12.484484 19.193956 -1.1999764 0
-12.537619 19.134974 -1.1989104 0
-12.611396 19.107515 -1.1998324 0
-12.681111 19.07373 -1.2003741 0
-12.75448 19.045275 -1.2012678 0
-12.817972 19.001972 -1.2012405 0
-12.87222 18.94507 -1.2003649 0
-12.939588 18.907534 -1.2007287 0
-13.007054 18.87006 -1.2011116 0
-13.066354 18.820732 -1.2007536 0
-13.120905 18.764694 -1.1999784 0
-13.184992 18.722366 -1.2000917 0
-13.26365 18.700554 -1.2015375 0
-13.312463 18.636642 -1.2002921 0
-13.37319 18.589565 -1.2001411 0
-13.45313 18.569036 -1.2017211 0
-13.490561 18.489902 -1.1995203 0
-13.56128 18.456547 -1.2002993 0
-13.622544 18.410242 -1.2002516 0
-13.689308 18.371328 -1.2007002 0
-13.730788 18.298624 -1.1989505 0
-13.800695 18.263906 -1.1997008 0
-13.870611 18.229044 -1.2004589 0
-13.934947 18.186737 -1.2007428 0
-13.990421 18.132883 -1.2002774 0
-14.037697 18.068571 -1.1991292 0
-14.116821 18.04521 -1.2007132 0
-14.170902 17.989727 -1.2001761 0
-14.23006 17.940752 -1.200085 0
-14.297762 17.902494 -1.2007259 0
-14.34211 17.835062 -1.1994216 0
-14.403851 17.789375 -1.1995902 0
-14.46417 17.741909 -1.1996528 0
-14.518738 17.687422 -1.1992534 0
-14.596568 17.661161 -1.2007843 0
-14.644542 17.598713 -1.19987 0
-14.704176 17.550362 -1.199928 0
-14.74441 17.479 -1.1984222 0
-14.816296 17.445204 -1.1995043 0
-14.888384 17.411428 -1.2006075 0
-14.939623 17.353218 -1.2000408 0
-14.993213 17.297831 -1.1996801 0
-15.047448 17.24325 -1.1993871 0
-15.109115 17.197184 -1.1996998 0
-15.163086 17.142357 -1.1994147 0
-15.235459 17.108246 -1.2005955 0
-15.287066 17.050745 -1.2001504 0
-15.340253 16.995081 -1.1998458 0
-15.400408 16.94714 -1.2000998 0
-15.459703 16.898209 -1.2002988 0
-15.499843 16.828442 -1.1990277 0
-15.570692 16.792032 -1.2001464 0
-15.629545 16.742559 -1.2003492 0
-15.691632 16.696489 -1.2008114 0
-15.74137 16.637281 -1.2003422 0
-15.785492 16.572262 -1.1994629 0
-15.84782 16.52639 -1.1999818 0
-15.914994 16.485439 -1.2008761 0
-15.972393 16.434267 -1.2010428 0
-16.014214 16.36714 -1.2000543 0
-16.084961 16.329559 -1.2012464 0
-16.125744 16.261545 -1.2002137 0
-16.158546 16.185722 -1.1986091 0
-16.233713 16.152338 -1.200161 0
-16.292316 16.102306 -1.2004955 0
-16.368635 16.069603 -1.2021421 0
-16.401745 15.994468 -1.2006286 0
-16.441238 15.925786 -1.1996042 0
-16.520136 15.895198 -1.2014655 0
-16.554935 15.822132 -1.2001315 0
-16.60861 15.76722 -1.2001835 0
-16.638399 15.689775 -1.1985281 0
-16.717697 15.658993 -1.2004515 0
-16.770138 15.602882 -1.2004538 0
-16.792387 15.518871 -1.1983153 0
-16.86484 15.481315 -1.1997746 0
-16.923515 15.430942 -1.2002615 0
-16.962101 15.362289 -1.1993383 0
-17.01605 15.307615 -1.1995173 0
-17.087074 15.268167 -1.2009085 0
-17.110664 15.186378 -1.1989812 0
-17.196196 15.159523 -1.2014061 0
-17.236221 15.09241 -1.2006605 0
-17.268515 15.018696 -1.1993955 0
-17.325655 14.966659 -1.1998723 0
-17.396126 14.925978 -1.2012801 0
-17.419552 14.844967 -1.1994539 0
-17.480885 14.796348 -1.2002544 0
-17.521801 14.73043 -1.199666 0
-17.558411 14.66101 -1.1988002 0
-17.62932 14.620182 -1.2002882 0
-17.677374 14.560278 -1.2002293 0
-17.721279 14.49699 -1.1999035 0
-17.769682 14.437408 -1.1998965 0
-17.820902 14.3801 -1.2000927 0
-17.88372 14.332053 -1.2010802 0
-17.907473 14.252751 -1.1994593 0
-17.979731 14.212053 -1.2011008 0
-18.026308 14.150928 -1.2010361 0
-18.058464 14.078569 -1.2000269 0
-18.111814 14.02278 -1.2004409 0
-18.161337 13.963983 -1.2006134 0
-18.197651 13.89507 -1.1999276 0
-18.221491 13.816807 -1.198438 0
-18.276957 13.762596 -1.1990445 0
-18.342054 13.71549 -1.2002915 0
-18.397509 13.661022 -1.2009163 0
-18.425034 13.585862 -1.1997329 0
-18.472723 13.525652 -1.1998786 0
-18.52873 13.471464 -1.2005758 0
-18.567518 13.404736 -1.2001703 0
-18.588379 13.325217 -1.198624 0
-18.660431 13.282379 -1.2003919 0
-18.699255 13.215778 -1.2000322 0
-18.727814 13.142029 -1.1990304 0
-18.748802 13.063161 -1.1975633 0
-18.836935 13.030969 -1.2003952 0
-18.86624 12.957932 -1.1994873 0
-18.916727 12.899478 -1.1999408 0
-18.965374 12.839707 -1.2002891 0
-19.014729 12.780357 -1.200694 0
-19.052689 12.713342 -1.2003927 0
-19.08337 12.641548 -1.1996485 0
-19.12192 12.575042 -1.1994146 0
-19.164417 12.511149 -1.1994425 0
-19.199186 12.442243 -1.1990008 0
-19.247507 12.382119 -1.1994191 0
-19.325846 12.3411 -1.2017156 0
-19.347082 12.263537 -1.2004727 0
-19.372257 12.188639 -1.1994923 0
-19.415632 12.125253 -1.199654 0
-19.445257 12.05332 -1.1989807 0
-19.500156 11.997036 -1.1998788 0
-19.550297 11.93771 -1.2004945 0
-19.571129 11.86053 -1.1993251 0
-19.623123 11.802265 -1.2000796 0
-19.654108 11.731347 -1.1995623 0
-19.697142 11.667643 -1.1997944 0
-19.756567 11.613538 -1.2010356 0
-19.789841 11.543994 -1.2006987 0
-19.797695 11.459784 -1.1988373 0
-19.852989 11.403096 -1.1998638 0
-19.890318 11.336017 -1.199816 0
-19.926338 11.268204 -1.1997031 0
-19.949152 11.192997 -1.1988105 0
-20.004065 11.135788 -1.1998599 0
-20.071388 11.085279 -1.2016619 0
-20.092373 11.009117 -1.2007016 0
-20.108612 10.930514 -1.1994753 0
-20.15881 10.870399 -1.2002888 0
-20.190611 10.800326 -1.2000195 0
-20.200909 10.71888 -1.1984887 0
-20.24518 10.655535 -1.1989889 0
-20.30048 10.597876 -1.2001529 0
-20.319309 10.521162 -1.1991738 0
-20.362526 10.457112 -1.1996484 0
-20.407049 10.393661 -1.2002116 0
-20.425503 10.316957 -1.1992558 0
-20.495119 10.266019 -1.2013156 0
-20.50625 10.185734 -1.1999595 0
-20.552376 10.122878 -1.2006658 0
-20.563189 10.042674 -1.1993237 0
-20.607519 9.9788914 -1.1999511 0
-20.650141 9.9141979 -1.2004906 0
-20.66086 9.8342409 -1.1991901 0
-20.672028 9.7546797 -1.1979333 0
-20.754597 9.7086954 -1.2008251 0
-20.756109 9.6247149 -1.1990387 0
-20.796732 9.5589628 -1.1995273 0
-20.85445 9.5009289 -1.2010123 0
-20.879084 9.4277468 -1.2006037 0
-20.88896 9.3480167 -1.1993626 0
-20.93836 9.2859888 -1.2004046 0
-20.986706 9.2233496 -1.2013967 0
-21.009335 9.1493721 -1.2009293 0
-21.01087 9.0663576 -1.1992728 0
-21.077116 9.0112381 -1.2013227 0
-21.099695 8.937336 -1.2008948 0
-21.130833 8.8670835 -1.2009683 0
-21.131651 8.7842178 -1.1993341 0
-21.192083 8.7261238 -1.2010968 0
-21.182619 8.6392775 -1.1989119 0
-21.228737 8.5751839 -1.199888 0
-21.262814 8.5061378 -1.2001954 0
-21.28392 8.4319105 -1.1997843 0
-21.309702 8.3595734 -1.1996509 0
-21.333847 8.2866173 -1.1994394 0
-21.366508 8.2169638 -1.19972 0
-21.410803 8.151701 -1.2006657 0
-21.419001 8.0727034 -1.1996009 0
-21.458984 8.0057077 -1.2003301 0
-21.476021 7.9301386 -1.1997892 0
-21.49439 7.8551297 -1.1993372 0
-21.533915 7.7878318 -1.200079 0
-21.568548 7.7186818 -1.20056 0
-21.587095 7.6437697 -1.2001591 0
-21.596527 7.5657177 -1.1992664 0
-21.620607 7.4928632 -1.1992019 0
-21.656961 7.4242229 -1.1998309 0
-21.658222 7.3435979 -1.1985298 0
-21.726858 7.2857413 -1.2009696 0
-21.739405 7.2089548 -1.2003202 0
-21.765976 7.1368537 -1.2004595 0
-21.788759 7.0635047 -1.2004031 0
-21.806486 6.9885421 -1.2000821 0
-21.833368 6.916522 -1.2002785 0
-21.85223 6.8419628 -1.2000476 0
-21.862745 6.764852 -1.1993728 0
-21.883558 6.6909785 -1.1992772 0
-21.930372 6.6249714 -1.2006185 0
-21.947359 6.5498834 -1.2003396 0
-21.97687 6.4785233 -1.2007588 0
-22.001001 6.40554 -1.200897 0
-21.986731 6.3214965 -1.1989545 0
-22.014172 6.2495522 -1.1993015 0
-22.050528 6.180059 -1.2001466 0
-22.081299 6.1089077 -1.2006998 0
-22.094845 6.032979 -1.2003297 0
-22.111217 5.9578605 -1.2001272 0
-22.118837 5.8804402 -1.199464 0
-22.149931 5.8092637 -1.2000872 0
-22.17659 5.7368565 -1.2004826 0
-22.186356 5.6600862 -1.1999773 0
-22.19309 5.5826197 -1.1993225 0
-22.229778 5.5126667 -1.2002995 0
-22.237289 5.435452 -1.1997143 0
-22.266787 5.3636098 -1.2003287 0
-22.269375 5.2852988 -1.1995062 0
-22.302279 5.2141833 -1.2003301 0
-22.305328 5.1360841 -1.1995606 0
-22.336121 5.0643754 -1.2002968 0
-22.362028 4.9914789 -1.2007829 0
-22.36161 4.912734 -1.1998692 0
-22.373888 4.836853 -1.1996511 0
-22.380524 4.7597995 -1.1991445 0
-22.410862 4.6877694 -1.1999211 0
-22.434368 4.6142311 -1.2003446 0
-22.427298 4.5344553 -1.1991462 0
-22.485226 4.4677496 -1.2014358 0
-22.473408 4.3871293 -1.2000116 0
-22.484312 4.3110504 -1.1998153 0
-22.512201 4.2381935 -1.2005385 0
-22.488531 4.155714 -1.1985265 0
-22.550549 4.0890326 -1.2010943 0
-22.552816 4.0113893 -1.2004919 0
-22.567444 3.9359789 -1.2005614 0
-22.570557 3.8585901 -1.2000319 0
-22.565399 3.7798839 -1.1990771 0
-22.600103 3.7078404 -1.200254 0
-22.568237 3.6249509 -1.1979094 0
-22.639832 3.5586267 -1.2010695 0
-22.637171 3.4804754 -1.2003025 0
-22.636179 3.4026737 -1.1996382 0
-22.669666 3.3300216 -1.2008145 0
-22.648119 3.2493207 -1.1990893 0
-22.631952 3.1695957 -1.197664 0
-22.688074 3.0999305 -1.2000772 0
-22.714552 3.0260041 -1.2009343 0
-22.717125 2.9488633 -1.2005409 0
-22.721577 2.8720095 -1.2002605 0
-22.724417 2.7949929 -1.1999087 0
-22.742092 2.7197948 -1.2003537 0
-22.751314 2.6435564 -1.200366 0
-22.761133 2.5673831 -1.2004231 0
-22.7598 2.4899812 -1.1999059 0
-22.752375 2.4119992 -1.1990812 0
-22.781513 2.3378747 -1.200197 0
-22.765184 2.2590938 -1.198931 0
-22.806116 2.1859634 -1.200694 0
-22.81883 2.1099963 -1.2009841 0
-22.791464 2.0304203 -1.1991787 0
-22.808964 1.954921 -1.1997479 0
-22.843168 1.8807229 -1.2012086 0
-22.804897 1.8006139 -1.1988719 0
-22.829256 1.7255378 -1.1998415 0
-22.857416 1.6506109 -1.2010239 0
-22.84486 1.5727285 -1.2000804 0
-22.855572 1.4964896 -1.2003728 0
-22.828009 1.4178352 -1.1986687 0
-22.867172 1.3433182 -1.200482 0
-22.907515 1.2686331 -1.2023698 0
-22.85417 1.1888319 -1.1993538 0
-22.886183 1.1135696 -1.2008312 0
-22.886332 1.0366738 -1.20065 0
-22.866539 0.95896393 -1.1994361 0
-22.880526 0.88271189 -1.2000078 0
-22.876423 0.80574858 -1.1996442 0
-22.899706 0.72970366 -1.2007301 0
-22.896145 0.65275353 -1.2004218 0
-22.873392 0.57535934 -1.1991211 0
-22.886705 0.49891689 -1.1997246 0
-22.906191 0.42251021 -1.200665 0
-22.899717 0.34559059 -1.2002583 0
-22.931152 0.2691671 -1.2018517 0
-22.897495 0.19199307 -1.2000473 0
-22.864758 0.11505368 -1.1983045 0
-22.886711 0.038428251 -1.1994417 0
-22.923599 6.0829832e-05 -1.2013732 0
-68.743111 -0.11542408 -1.1999154 0
-68.752541 -0.34595743 -1.2000934 0
-68.739563 -0.57637393 -1.199894 0
-68.733833 -0.8068015 -1.1998345 0
-68.769867 -1.0378389 -1.2005174 0
-68.73188 -1.267776 -1.1999217 0
-68.729851 -1.4982709 -1.1999673 0
-68.754143 -1.7294477 -1.2004858 0
-68.654259 -1.9572864 -1.1988497 0
-68.725128 -2.18994 -1.2002087 0
-68.714211 -2.4202378 -1.200153 0
-68.698196 -2.6503201 -1.2000217 0
-68.689499 -2.880661 -1.2000318 0
-68.672554 -3.1106353 -1.1999111 0
-68.688812 -3.3421812 -1.2003844 0
-68.653061 -3.5712063 -1.199962 0
-68.62252 -3.8003604 -1.1996443 0
-68.636002 -4.0319805 -1.2001095 0
-68.605347 -4.2610412 -1.1998166 0
-68.604393 -4.4919357 -1.2000566 0
-68.561272 -4.7200227 -1.1995723 0
-68.576424 -4.9521341 -1.2001212 0
-68.56237 -5.1822519 -1.2001725 0
-68.548676 -5.4124207 -1.2002437 0
-68.529388 -5.6421585 -1.2002305 0
-68.5019 -5.8711915 -1.2000871 0
-68.46199 -6.0990653 -1.1997395 0
-68.468163 -6.3310685 -1.2002128 0
-68.43573 -6.559556 -1.2000231 0
-68.40229 -6.7878737 -1.1998291 0
-68.366226 -7.0158496 -1.1996022 0
-68.3414 -7.2449322 -1.1995863 0
-68.347023 -7.4773412 -1.2001182 0
-68.327599 -7.7071338 -1.200224 0
-68.270889 -7.9326382 -1.1996884 0
-68.244652 -8.161582 -1.1997015 0
-68.239281 -8.3930998 -1.2000951 0
-68.203606 -8.6209421 -1.1999692 0
-68.166977 -8.8486137 -1.1998399 0
-68.132851 -9.0765724 -1.1997682 0
-68.121819 -9.307662 -1.2001168 0
-68.092766 -9.5363646 -1.2001615 0
-68.053139 -9.7635689 -1.2000332 0
-67.999008 -9.9885969 -1.1996624 0
-68.002312 -10.222117 -1.2003188 0
-67.948143 -10.447058 -1.1999741 0
-67.908524 -10.674155 -1.1998997 0
-67.869492 -10.90132 -1.1998491 0
-67.861305 -11.133528 -1.2003576 0
-67.807938 -11.358369 -1.2000805 0
-67.748222 -11.58202 -1.1997042 0
-67.716164 -11.810349 -1.1998309 0
-67.698288 -12.041254 -1.2002227 0
-67.610245 -12.25959 -1.1993839 0
-67.595932 -12.491227 -1.1998662 0
-67.54409 -12.715989 -1.1996959 0
-67.529205 -12.947774 -1.2001959 0
-67.478851 -13.172832 -1.2000791 0
-67.453583 -13.402833 -1.2004222 0
-67.378525 -13.622903 -1.1998926 0
-67.343735 -13.85105 -1.2000933 0
-67.27861 -14.072935 -1.1997669 0
-67.236626 -14.299615 -1.1998664 0
-67.185165 -14.524286 -1.1998103 0
-67.158257 -14.754334 -1.2002065 0
-67.114357 -14.980747 -1.2003127 0
-67.054054 -15.203485 -1.2001392 0
-66.998825 -15.427327 -1.2000698 0
-66.937843 -15.649799 -1.1999106 0
-66.894646 -15.876431 -1.2000837 0
-66.805679 -16.09211 -1.1994488 0
-66.784805 -16.324183 -1.20005 0
-66.739487 -16.550436 -1.2002261 0
-66.66716 -16.769968 -1.1999298 0
-66.62027 -16.995872 -1.2001046 0
-66.584488 -17.224724 -1.2004938 0
-66.4869 -17.437523 -1.1997817 0
-66.45723 -17.668098 -1.2003084 0
-66.404755 -17.892738 -1.2004374 0
-66.335869 -18.112955 -1.2002833 0
-66.262703 -18.331926 -1.2000648 0
-66.19014 -18.550983 -1.1998703 0
-66.123039 -18.771517 -1.1997881 0
-66.047211 -18.98951 -1.1995608 0
-66.00351 -19.216768 -1.1999305 0
-65.961655 -19.444721 -1.200348 0
-65.88253 -19.661722 -1.200101 0
-65.81739 -19.882853 -1.2001221 0
-65.743294 -20.101254 -1.1999931 0
-65.68824 -20.3255 -1.2002255 0
-65.615059 -20.544165 -1.2001401 0
-65.554359 -20.766752 -1.2002965 0
-65.455521 -20.977184 -1.1997679 0
-65.373283 -21.192787 -1.1995564 0
-65.307945 -21.413845 -1.1996679 0
-65.24852 -21.636915 -1.1999023 0
-65.164429 -21.85181 -1.1996964 0
-65.117409 -22.079195 -1.200187 0
-65.004143 -22.284069 -1.1994696 0
-64.967178 -22.515102 -1.2001739 0
-64.906418 -22.738085 -1.2004529 0
-64.806999 -22.947496 -1.2000304 0
-64.70298 -23.155092 -1.1995351 0
-64.655205 -23.38283 -1.2000961 0
-64.555214 -23.591717 -1.1997015 0
-64.515579 -23.822731 -1.2004426 0
-64.428253 -24.036261 -1.2003105 0
-64.339355 -24.249147 -1.2001624 0
-64.261436 -24.466154 -1.2002323 0
-64.171715 -24.678656 -1.2000952 0
-64.094719 -24.896044 -1.2002096 0
-64.01709 -25.113234 -1.2003258 0
-63.908581 -25.318243 -1.1998762 0
-63.807991 -25.526236 -1.1995877 0
-63.764259 -25.75708 -1.2003824 0
-63.648697 -25.95896 -1.1998386 0
-63.555233 -26.169716 -1.1997241 0
-63.490082 -26.392197 -1.2001579 0
-63.434265 -26.618778 -1.200783 0
-63.285179 -26.806118 -1.1996555 0
-63.213371 -27.026028 -1.2000053 0
-63.142284 -27.246395 -1.2003832 0
-63.02367 -27.44623 -1.1998709 0
-62.937813 -27.660248 -1.1999953 0
-62.842148 -27.869968 -1.1999462 0
-62.761017 -28.086178 -1.2001883 0
-62.641354 -28.285093 -1.1997068 0
-62.561192 -28.501804 -1.1999949 0
-62.446968 -28.702984 -1.1996433 0
-62.355515 -28.914574 -1.199742 0
-62.26897 -29.128508 -1.1999491 0
-62.174568 -29.338823 -1.2000188 0
-62.100483 -29.558842 -1.200495 0
-62.014435 -29.773323 -1.2007545 0
-61.88261 -29.965754 -1.2001407 0
-61.780819 -30.172588 -1.2001218 0
-61.668423 -30.374197 -1.19991 0
-61.571598 -30.583452 -1.2000145 0
-61.470325 -30.790527 -1.2000461 0
-61.349926 -30.987957 -1.1997172 0
-61.293041 -31.217596 -1.2006447 0
-61.154034 -31.405466 -1.1999776 0
-61.057438 -31.615011 -1.2001555 0
-60.983051 -31.836231 -1.2007847 0
-60.832657 -32.017719 -1.1999303 0
-60.740185 -32.229576 -1.2002311 0
-60.588219 -32.40974 -1.1993687 0
-60.51783 -32.633526 -1.2001345 0
-60.407818 -32.836105 -1.2001294 0
-60.309902 -33.045315 -1.2003784 0
-60.154716 -33.223007 -1.1995001 0
-60.056805 -33.432198 -1.1997761 0
-59.938007 -33.629799 -1.1996487 0
-59.834164 -33.8358 -1.1998341 0
-59.733841 -34.043892 -1.2001045 0
-59.607319 -34.237061 -1.1998621 0
-59.495083 -34.438389 -1.1999203 0
-59.371201 -34.632957 -1.199757 0
-59.253174 -34.830898 -1.1997252 0
-59.141171 -35.032394 -1.1998287 0
-59.033512 -35.236534 -1.2000347 0
-58.923336 -35.439255 -1.2002038 0
-58.786507 -35.625904 -1.1998429 0
-58.634739 -35.803268 -1.1991887 0
-58.564049 -36.03022 -1.2002069 0
-58.416649 -36.210094 -1.1996675 0
-58.318058 -36.420204 -1.2001437 0
-58.191147 -36.612713 -1.2000514 0
-58.064953 -36.805637 -1.1999872 0
-57.958988 -37.011456 -1.2003551 0
-57.83849 -37.208096 -1.2004364 0
-57.705757 -37.396847 -1.2002772 0
-57.581318 -37.590939 -1.2003036 0
-57.433064 -37.76939 -1.1998461 0
-57.323738 -37.973419 -1.2002153 0
-57.173641 -38.150414 -1.1997441 0
-57.081062 -38.36586 -1.2004939 0
-56.941742 -38.550007 -1.2002754 0
-56.78751 -38.723888 -1.1997544 0
-56.682693 -38.931469 -1.2002909 0
-56.54768 -39.118416 -1.2002025 0
-56.391083 -39.290287 -1.199668 0
-56.250599 -39.473217 -1.1994882 0
-56.144733 -39.680531 -1.2000611 0
-56.017483 -39.872894 -1.2001917 0
-55.873657 -40.053444 -1.1999809 0
-55.741199 -40.242107 -1.2000271 0
-55.593029 -40.419365 -1.1997479 0
-55.486351 -40.626877 -1.2003787 0
-55.354801 -40.816353 -1.2004865 0
-55.163349 -40.961403 -1.1993062 0
-55.061546 -41.172928 -1.2000874 0
-54.922386 -41.356701 -1.2000699 0
-54.798588 -41.552116 -1.2004021 0
-54.638458 -41.719955 -1.1999518 0
-54.473232 -41.883659 -1.1994005 0
-54.349007 -42.078846 -1.199765 0
-54.218224 -42.269096 -1.1999996 0
-54.071777 -42.447174 -1.1999016 0
-53.923264 -42.623569 -1.1997705 0
-53.780865 -42.804771 -1.1997886 0
-53.629601 -42.978882 -1.199622 0
-53.513584 -43.181355 -1.2002587 0
-53.359272 -43.353031 -1.2000511 0
-53.229824 -43.544949 -1.2004164 0
-53.069981 -43.712017 -1.2001102 0
-52.907997 -43.877159 -1.1997671 0
-52.779331 -44.069954 -1.2001934 0
-52.61515 -44.233109 -1.1998256 0
-52.456478 -44.400745 -1.1995953 0
-52.312241 -44.58057 -1.1997083 0
-52.183346 -44.773613 -1.2001883 0
-52.030758 -44.946445 -1.200138 0
-51.876457 -45.11776 -1.2000614 0
-51.732567 -45.298157 -1.2002394 0
-51.585423 -45.47578 -1.2003564 0
-51.415642 -45.633377 -1.1999592 0
-51.277176 -45.818752 -1.2003061 0
-51.10112 -45.970497 -1.1997862 0
-50.95517 -46.149239 -1.1999856 0
-50.806782 -46.325863 -1.2001421 0
-50.644791 -46.490089 -1.1999909 0
-50.503914 -46.673752 -1.200354 0
-50.341152 -46.837246 -1.2002113 0
-50.171387 -46.994114 -1.1999136 0
-50.009174 -47.157944 -1.1998088 0
-49.858746 -47.332909 -1.2000004 0
-49.712097 -47.511593 -1.2002982 0
-49.546761 -47.672462 -1.2001587 0
-49.373028 -47.825127 -1.1998278 0
-49.246571 -48.023712 -1.2006608 0
-49.044544 -48.148567 -1.1996645 0
-48.901825 -48.331501 -1.2001303 0
-48.721504 -48.47728 -1.1996872 0
-48.557602 -48.639267 -1.1996602 0
-48.425144 -48.832951 -1.2004261 0
-48.261002 -48.994892 -1.2004225 0
-48.06892 -49.128281 -1.1997352 0
-47.899063 -49.284161 -1.1996132 0
-47.741901 -49.453129 -1.199823 0
-47.567966 -49.604721 -1.1996248 0
-47.397781 -49.760147 -1.1995336 0
-47.231522 -49.919674 -1.1995549 0
-47.096584 -50.112549 -1.2003884 0
-46.926529 -50.268272 -1.2003431 0
-46.732037 -50.397621 -1.1996835 0
-46.586273 -50.579506 -1.2002884 0
-46.409126 -50.72744 -1.2000996 0
-46.229088 -50.872082 -1.1998479 0
-46.076321 -51.046799 -1.2003183 0
-45.888565 -51.182762 -1.1998909 0
-45.745476 -51.368645 -1.2006462 0
-45.549282 -51.494926 -1.2000215 0
-45.373638 -51.644245 -1.1999491 0
-45.197239 -51.792652 -1.1998698 0
-45.029709 -51.95126 -1.2000397 0
-44.839458 -52.083572 -1.1996166 0
-44.679695 -52.251293 -1.2000226 0
-44.509518 -52.406998 -1.2001644 0
-44.329556 -52.551193 -1.2000561 0
-44.150139 -52.695976 -1.1999754 0
-43.982548 -52.854931 -1.2002301 0
-43.786663 -52.979801 -1.1997253 0
-43.618633 -53.138309 -1.1999962 0
-43.438633 -53.282303 -1.1999521 0
-43.260483 -53.428558 -1.1999727 0
-43.08083 -53.57296 -1.1999651 0
-42.898186 -53.713623 -1.1998873 0
-42.712429 -53.850307 -1.1997349 0
-42.527794 -53.988331 -1.1996264 0
-42.339088 -54.12109 -1.1994153 0
-42.18523 -54.298573 -1.2002074 0
-41.993126 -54.426983 -1.1999269 0
-41.807549 -54.563744 -1.1998448 0
-41.616684 -54.693504 -1.1996232 0
-41.446125 -54.850006 -1.2000012 0
-41.249302 -54.971748 -1.1996322 0
-41.081581 -55.132313 -1.2001235 0
-40.896671 -55.26997 -1.2001284 0
-40.725761 -55.426689 -1.2005597 0
-40.513676 -55.52726 -1.1997892 0
-40.328789 -55.664867 -1.1998341 0
-40.142582 -55.800678 -1.1998537 0
-39.953362 -55.932289 -1.1997964 0
-39.755692 -56.051956 -1.1994973 0
-39.58564 -56.210636 -1.2000461 0
-39.375378 -56.312191 -1.199389 0
-39.219566 -56.491734 -1.2004056 0
-39.011856 -56.596676 -1.1998494 0
-38.832314 -56.742401 -1.2001718 0
-38.619751 -56.83976 -1.1994855 0
-38.436989 -56.980827 -1.1997361 0
-38.245155 -57.108521 -1.1997181 0
-38.059422 -57.245388 -1.1999059 0
-37.870789 -57.377998 -1.2000173 0
-37.667625 -57.488514 -1.1996806 0
-37.488377 -57.635559 -1.2001194 0
-37.289547 -57.752602 -1.1999464 0
-37.102062 -57.887218 -1.200152 0
-36.910229 -58.01516 -1.2002321 0
-36.700668 -58.115086 -1.199747 0
-36.504135 -58.235455 -1.1996984 0
-36.315002 -58.367687 -1.1999074 0
-36.122326 -58.494335 -1.2000146 0
-35.925758 -58.614712 -1.2000062 0
-35.731998 -58.739716 -1.200106 0
-35.531239 -58.853195 -1.1999838 0
-35.342556 -58.986755 -1.2002841 0
-35.134453 -59.087875 -1.1999379 0
-34.941483 -59.21439 -1.2001214 0
-34.735687 -59.319149 -1.1998774 0
-34.52673 -59.418278 -1.1995343 0
-34.344551 -59.563591 -1.2001364 0
-34.136337 -59.663876 -1.1998441 0
-33.927612 -59.763035 -1.1995438 0
-33.742447 -59.903793 -1.2000916 0
-33.537327 -60.009277 -1.1999454 0
-33.34296 -60.134052 -1.2001983 0
-33.151054 -60.263496 -1.2005566 0
-32.939949 -60.358067 -1.2002337 0
-32.719429 -60.434982 -1.1995751 0
-32.540836 -60.589436 -1.2004684 0
-32.321583 -60.668304 -1.1998771 0
-32.120659 -60.78138 -1.1999768 0
-31.92194 -60.89875 -1.2001743 0
-31.717079 -61.004475 -1.2001554 0
-31.506037 -61.098202 -1.1999143 0
-31.29705 -61.195755 -1.1997626 0
-31.09351 -61.303917 -1.1998326 0
-30.911108 -61.454174 -1.2007382 0
-30.684469 -61.516525 -1.1999396 0
-30.482855 -61.628788 -1.200129 0
-30.271128 -61.7206 -1.1999338 0
-30.065239 -61.824253 -1.1999824 0
-29.851887 -61.912476 -1.1997454 0
-29.641964 -62.007668 -1.1996573 0
-29.43873 -62.116898 -1.1998544 0
-29.229311 -62.21315 -1.1998138 0
-29.015207 -62.299313 -1.1995926 0
-28.807041 -62.398144 -1.1996291 0
-28.607281 -62.515377 -1.2000322 0
-28.390625 -62.595745 -1.1997409 0
-28.186113 -62.702858 -1.199976 0
-27.9736 -62.79224 -1.1998848 0
-27.770121 -62.902004 -1.2001963 0
-27.553019 -62.980938 -1.1999329 0
-27.347757 -63.086933 -1.2001988 0
-27.130054 -63.16423 -1.1999321 0
-26.914177 -63.245567 -1.1997561 0
-26.707066 -63.347519 -1.1999848 0
-26.493229 -63.433613 -1.1999263 0
-26.274294 -63.50732 -1.1996474 0
-26.072056 -63.621502 -1.2001463 0
-25.865112 -63.724613 -1.2004488 0
-25.635345 -63.771259 -1.1997015 0
-25.425064 -63.866085 -1.199875 0
-25.222118 -63.979706 -1.2004142 0
-24.998716 -64.041496 -1.1999942 0
-24.788904 -64.138016 -1.2002386 0
-24.584158 -64.248039 -1.2007483 0
-24.352217 -64.286835 -1.1999406 0
-24.134315 -64.36219 -1.1998301 0
-23.917871 -64.441368 -1.1998043 0
-23.712158 -64.549728 -1.2003349 0
-23.492666 -64.620789 -1.2001848 0
-23.267101 -64.674812 -1.1997325 0
-23.05945 -64.778648 -1.2002178 0
-22.841877 -64.854874 -1.2002045 0
-22.620552 -64.920334 -1.2000055 0
-22.400234 -64.988487 -1.1998703 0
-22.181124 -65.06002 -1.1998112 0
-21.971039 -65.158272 -1.2002579 0
-21.742981 -65.203171 -1.1997353 0
-21.529951 -65.293007 -1.2000533 0
-21.312225 -65.368843 -1.2001271 0
-21.0926 -65.438889 -1.2001079 0
-20.861984 -65.474426 -1.1994702 0
-20.646971 -65.558693 -1.1997391 0
-20.430231 -65.637779 -1.199926 0
-20.20672 -65.695099 -1.1997286 0
-19.994284 -65.788597 -1.2002051 0
-19.777597 -65.868599 -1.2004482 0
-19.551378 -65.916794 -1.2001251 0
-19.323435 -65.958672 -1.1997012 0
-19.100891 -66.018639 -1.1996202 0
-18.886934 -66.108559 -1.2000968 0
-18.652729 -66.127373 -1.1992964 0
-18.434387 -66.202026 -1.1995225 0
-18.220827 -66.294411 -1.2000828 0
-17.998556 -66.355515 -1.2000898 0
-17.776218 -66.416389 -1.200106 0
-17.554657 -66.480232 -1.2001895 0
-17.331511 -66.538132 -1.2001789 0
-17.101395 -66.568901 -1.1996928 0
-16.884304 -66.65033 -1.2001333 0
-16.657288 -66.692726 -1.1998845 0
-16.435253 -66.754974 -1.2000062 0
-16.208731 -66.798935 -1.1998128 0
-15.986673 -66.861259 -1.1999627 0
-15.760704 -66.907242 -1.1998328 0
-15.541093 -66.980415 -1.2002039 0
-15.313963 -67.021332 -1.2000103 0
-15.091528 -67.082794 -1.2001982 0
-14.862485 -67.114761 -1.1998718 0
-14.639831 -67.175468 -1.2000728 0
-14.41178 -67.211395 -1.1998446 0
-14.190124 -67.277214 -1.2001635 0
-13.96667 -67.334991 -1.2003521 0
-13.738202 -67.368553 -1.2001226 0
-13.508956 -67.397797 -1.1998298 0
-13.285842 -67.457611 -1.2000949 0
-13.05753 -67.491104 -1.1999053 0
-12.828784 -67.521942 -1.1996819 0
-12.600861 -67.556725 -1.1995426 0
-12.374998 -67.602493 -1.1996118 0
-12.151002 -67.658813 -1.1998816 0
-11.927135 -67.716484 -1.2001883 0
-11.698799 -67.748978 -1.2000623 0
-11.470104 -67.779076 -1.1999075 0
-11.24249 -67.815346 -1.1998755 0
-11.014641 -67.850113 -1.1998305 0
-10.79128 -67.913025 -1.2002964 0
-10.559561 -67.923363 -1.1998467 0
-10.334023 -67.973221 -1.2001085 0
-10.101816 -67.978905 -1.1996043 0
-9.8792133 -68.049416 -1.2002572 0
-9.6458216 -68.045616 -1.1996131 0
-9.4185438 -68.084229 -1.1997303 0
-9.1910458 -68.121567 -1.1998385 0
-8.9647846 -68.168648 -1.2001315 0
-8.735981 -68.196785 -1.2001046 0
-8.5046015 -68.204208 -1.1997266 0
-8.2771263 -68.242622 -1.1999075 0
-8.0469999 -68.259178 -1.1997174 0
-7.816052 -68.267929 -1.199404 0
-7.5873518 -68.295853 -1.1994408 0
-7.3617024 -68.352257 -1.1999912 0
-7.1341496 -68.392479 -1.2002707 0
-6.9031854 -68.399986 -1.1999896 0
-6.6746631 -68.43145 -1.2001421 0
-6.4438558 -68.439301 -1.1998942 0
-6.2178741 -68.499283 -1.2005736 0
-5.9846945 -68.479927 -1.1998758 0
-5.7545485 -68.493515 -1.1997691 0
-5.5259514 -68.525833 -1.2000039 0
-5.2952151 -68.53167 -1.1997885 0
-5.0649176 -68.542343 -1.1996714 0
-4.8365035 -68.579132 -1.2000247 0
-4.6049767 -68.57164 -1.1996166 0
-4.3756428 -68.596092 -1.1997809 0
-4.1460752 -68.617775 -1.1999103 0
-3.9167376 -68.644394 -1.2001395 0
-3.6862335 -68.650993 -1.200032 0
-3.4555347 -68.652946 -1.1998569 0
-3.2251775 -68.660797 -1.1997983 0
-2.9954062 -68.681618 -1.19998 0
-2.7650619 -68.690018 -1.1999578 0
-2.5350797 -68.708054 -1.2001178 0
-2.3045478 -68.711632 -1.2000386 0
-2.0742118 -68.720757 -1.2000698 0
-1.8444759 -68.7528 -1.2005146 0
-1.613466 -68.737968 -1.2001544 0
-1.3825731 -68.722191 -1.1997913 0
-1.15238 -68.73999 -1.2000278 0
-0.92185503 -68.740021 -1.1999676 0
-0.69152153 -68.757042 -1.2002175 0
-0.4609732 -68.756729 -1.2001783 0
-0.23038647 -68.741234 -1.1998876 0
9.119515e-05 -68.733414 -1.1997445 0
0.23060408 -68.751724 -1.2000709 0
0.46099728 -68.733109 -1.1997662 0
0.69155818 -68.742546 -1.1999646 0
0.92198473 -68.736092 -1.1998991 0
1.1529467 -68.762909 -1.200428 0
1.382508 -68.709892 -1.1995766 0
1.6132605 -68.721436 -1.1998658 0
1.8443643 -68.741837 -1.2003233 0
2.0747807 -68.733559 -1.2002934 0
2.3040242 -68.690575 -1.1996709 0
2.534816 -68.695961 -1.1999067 0
2.7656496 -68.700073 -1.2001338 0
2.9944646 -68.655846 -1.1995298 0
3.2271507 -68.698914 -1.2004646 0
3.45574 -68.653397 -1.199865 0
3.6859453 -68.64222 -1.1998788 0
3.91748 -68.654205 -1.2003112 0
4.1441889 -68.583534 -1.1993117 0
4.3782682 -68.634384 -1.2004509 0
4.6067214 -68.594894 -1.2000237 0
4.8370662 -68.584526 -1.2001193 0
5.0656023 -68.549141 -1.1997905 0
5.2974367 -68.558044 -1.2002505 0
5.5274901 -68.542641 -1.2002985 0
5.7586513 -68.540169 -1.2005867 0
5.9869199 -68.503296 -1.2002856 0
6.2142878 -68.457756 -1.199846 0
6.4412451 -68.40963 -1.1993742 0
6.6740265 -68.42305 -1.199995 0
6.9028625 -68.394974 -1.1999019 0
7.1333117 -68.38269 -1.2000992 0
7.363379 -68.366119 -1.2002349 0
7.5882001 -68.301842 -1.1995463 0
7.8204165 -68.304451 -1.2000459 0
8.0466223 -68.254417 -1.1996341 0
8.2796974 -68.262306 -1.200254 0
8.5078564 -68.228828 -1.2001601 0
8.7373772 -68.206245 -1.2002715 0
8.9667158 -68.181931 -1.2003659 0
9.1897688 -68.110741 -1.1996483 0
9.4161291 -68.065437 -1.1993997 0
9.6463785 -68.048248 -1.1996599 0
9.8767147 -68.030937 -1.1999317 0
10.104998 -67.999069 -1.1999606 0
10.330972 -67.951935 -1.1997334 0
10.558866 -67.917702 -1.1997472 0
10.788699 -67.895622 -1.1999894 0
11.015269 -67.852852 -1.1998794 0
11.248199 -67.848663 -1.2004656 0
11.470162 -67.778328 -1.1998948 0
11.696566 -67.73497 -1.1998148 0
11.927959 -67.720116 -1.2002532 0
12.154729 -67.678535 -1.2002318 0
12.379835 -67.627899 -1.2000632 0
12.608771 -67.598145 -1.2002786 0
12.831939 -67.537567 -1.1999602 0
13.056918 -67.486984 -1.1998326 0
13.28243 -67.439346 -1.1997706 0
13.509078 -67.397476 -1.1998248 0
13.735648 -67.355118 -1.1998838 0
13.957024 -67.28759 -1.1995077 0
14.187364 -67.263245 -1.1999151 0
14.415915 -67.229805 -1.2001739 0
14.634752 -67.151314 -1.1996418 0
14.863088 -67.116646 -1.1999061 0
15.089423 -67.072609 -1.2000165 0
15.311022 -67.007645 -1.1997659 0
15.539774 -66.973923 -1.2000883 0
15.766706 -66.931915 -1.2002761 0
15.987439 -66.863678 -1.2000068 0
16.2187 -66.839241 -1.2005376 0
16.438679 -66.768127 -1.2002434 0
16.657089 -66.691185 -1.1998575 0
16.88666 -66.658882 -1.2002883 0
17.100584 -66.565002 -1.1996235 0
17.326073 -66.516533 -1.1997901 0
17.558645 -66.494621 -1.2004501 0
17.765141 -66.37429 -1.1993462 0
17.991594 -66.329147 -1.1996138 0
18.218935 -66.286835 -1.1999466 0
18.44437 -66.237198 -1.2001606 0
18.660149 -66.153008 -1.1997621 0
18.889997 -66.118622 -1.2002803 0
19.110905 -66.052597 -1.2002382 0
19.320576 -65.948265 -1.1995128 0
19.550573 -65.913437 -1.2000649 0
19.767715 -65.83506 -1.1998378 0
19.997818 -65.799606 -1.2004069 0
20.207479 -65.696945 -1.1997633 0
20.43075 -65.638832 -1.1999462 0
20.65056 -65.569489 -1.1999376 0
20.871902 -65.504951 -1.2000304 0
21.096783 -65.451263 -1.200336 0
21.307781 -65.354622 -1.1998671 0
21.524141 -65.274803 -1.1997199 0
21.752867 -65.232239 -1.2002712 0
21.961075 -65.128143 -1.1997041 0
22.186472 -65.07515 -1.2000914 0
22.408106 -65.010765 -1.2002827 0
22.618069 -64.912651 -1.1998647 0
22.834726 -64.834023 -1.1998197 0
23.056967 -64.771126 -1.2000796 0
23.283241 -64.719139 -1.200556 0
23.486324 -64.602814 -1.1998521 0
23.699562 -64.514908 -1.1996886 0
23.922066 -64.452141 -1.2000061 0
24.138836 -64.373726 -1.2000463 0
24.346201 -64.270432 -1.1996357 0
24.57822 -64.232018 -1.2004499 0
24.771883 -64.093468 -1.1994061 0
24.999615 -64.043297 -1.2000291 0
25.218098 -63.969009 -1.2002147 0
25.431093 -63.880737 -1.2001516 0
25.642485 -63.788528 -1.2000277 0
25.846493 -63.678249 -1.1995766 0
26.06625 -63.606853 -1.1998713 0
26.281708 -63.524765 -1.1999782 0
26.494644 -63.436523 -1.1999826 0
26.712997 -63.361118 -1.2002437 0
26.925484 -63.271671 -1.2002527 0
27.135817 -63.177185 -1.2001795 0
27.342827 -63.0751 -1.199975 0
27.556726 -62.988956 -1.2000872 0
27.775904 -62.914654 -1.2004391 0
27.984034 -62.815212 -1.2003253 0
28.18063 -62.690216 -1.1997354 0
28.398279 -62.612179 -1.2000574 0
28.614016 -62.529655 -1.2003077 0
28.821117 -62.428196 -1.2002083 0
29.015306 -62.299095 -1.1995898 0
29.237312 -62.229752 -1.2001355 0
29.438299 -62.115562 -1.1998301 0
29.647999 -62.019867 -1.1998949 0
29.841425 -61.890358 -1.1993183 0
30.070963 -61.835606 -1.2002044 0
30.277048 -61.732258 -1.2001619 0
30.475887 -61.614288 -1.1998483 0
30.684385 -61.515949 -1.19993 0
30.899368 -61.430424 -1.2002758 0
31.091509 -61.299568 -1.1997491 0
31.317736 -61.235798 -1.2005494 0
31.494905 -61.076218 -1.1994842 0
31.703379 -60.977726 -1.1996307 0
31.912001 -60.879395 -1.1997945 0
32.124565 -60.78838 -1.2001168 0
32.32082 -60.666485 -1.1998429 0
32.53915 -60.585907 -1.2004002 0
32.737682 -60.468315 -1.2002383 0
32.928326 -60.336384 -1.1998043 0
33.144287 -60.250816 -1.2003058 0
33.337784 -60.124336 -1.2000061 0
33.551094 -60.033539 -1.2004324 0
33.753128 -59.922379 -1.2004658 0
33.931416 -59.769367 -1.1996728 0
34.143513 -59.676052 -1.2000909 0
34.348152 -59.569477 -1.2002568 0
34.537426 -59.436325 -1.1999004 0
34.745831 -59.336105 -1.2002223 0
34.938923 -59.209694 -1.2000281 0
35.133465 -59.085861 -1.199899 0
35.340961 -58.983734 -1.2002246 0
35.533512 -58.856613 -1.2000554 0
35.7271 -58.731312 -1.1999363 0
35.92477 -58.612755 -1.1999681 0
36.109402 -58.473057 -1.19958 0
36.325142 -58.383636 -1.2002373 0
36.524326 -58.267319 -1.200357 0
36.708847 -58.127697 -1.2000093 0
36.903149 -58.003693 -1.1999968 0
37.102253 -57.88718 -1.2001534 0
37.311497 -57.786259 -1.2006478 0
37.493248 -57.642715 -1.2002705 0
37.684929 -57.514591 -1.2002268 0
37.869007 -57.374966 -1.1999559 0
38.047035 -57.226429 -1.1995106 0
38.255089 -57.123028 -1.200025 0
38.456493 -57.009415 -1.2003402 0
38.625183 -56.847427 -1.1996496 0
38.831417 -56.740772 -1.2001395 0
39.01609 -56.602497 -1.199975 0
39.198174 -56.460594 -1.1997461 0
39.396255 -56.341728 -1.2000203 0
39.574879 -56.195042 -1.1997155 0
39.771919 -56.074516 -1.1999825 0
39.962414 -55.944653 -1.2000639 0
40.156223 -55.819332 -1.2002571 0
40.332664 -55.66991 -1.1999451 0
40.521511 -55.537689 -1.2000169 0
40.702011 -55.394058 -1.1998553 0
40.884804 -55.253628 -1.1997759 0
41.063602 -55.10788 -1.199594 0
41.259151 -54.98457 -1.1999143 0
41.454605 -54.860924 -1.2002425 0
41.650684 -54.737888 -1.2005992 0
41.834156 -54.598171 -1.2006043 0
41.992054 -54.425297 -1.1998922 0
42.169941 -54.278595 -1.1997683 0
42.371887 -54.16272 -1.2003404 0
42.540016 -54.003551 -1.1999671 0
42.729298 -53.871281 -1.2002047 0
42.914219 -53.733402 -1.2003318 0
43.088051 -53.58165 -1.2001622 0
43.251675 -53.417389 -1.1997244 0
43.450684 -53.296795 -1.2002811 0
43.632626 -53.155071 -1.2003773 0
43.789795 -52.983307 -1.1998073 0
43.962589 -52.830658 -1.1996816 0
44.169693 -52.719032 -1.200503 0
44.333347 -52.555405 -1.200155 0
44.501877 -52.39772 -1.1999547 0
44.676285 -52.247028 -1.1999273 0
44.84988 -52.095398 -1.1998917 0
45.008343 -51.926327 -1.1994666 0
45.208542 -51.805332 -1.2001662 0
45.379036 -51.650108 -1.2000883 0
45.550121 -51.495602 -1.20004 0
45.720695 -51.340546 -1.1999922 0
45.877708 -51.17038 -1.1996034 0
46.049175 -51.016449 -1.1996076 0
46.22884 -50.87154 -1.199838 0
46.394821 -50.711533 -1.1997262 0
46.580669 -50.573154 -1.2001406 0
46.749664 -50.416363 -1.2001327 0
46.915089 -50.255749 -1.200047 0
47.091568 -50.106941 -1.2002572 0
47.246368 -49.935101 -1.1999288 0
47.411491 -49.774277 -1.1998771 0
47.570187 -49.606773 -1.1996775 0
47.744839 -49.455906 -1.1998935 0
47.92078 -49.306244 -1.2001538 0
48.079998 -49.139339 -1.2000084 0
48.251007 -48.984486 -1.2001706 0
48.395145 -48.802441 -1.1996791 0
48.565418 -48.646835 -1.1998501 0
48.75618 -48.511524 -1.2005379 0
48.872795 -48.302555 -1.1994148 0
49.06741 -48.170761 -1.2002206 0
49.212578 -47.990311 -1.199829 0
49.377544 -47.829247 -1.1999345 0
49.551067 -47.67635 -1.2002599 0
49.71286 -47.51207 -1.2003136 0
49.852573 -47.326801 -1.1998489 0
50.017933 -47.165951 -1.2000159 0
50.190426 -47.011696 -1.200366 0
50.334103 -46.830441 -1.2000402 0
50.492374 -46.662838 -1.2000768 0
50.643532 -46.488686 -1.1999581 0
50.791599 -46.311771 -1.1997806 0
50.962921 -46.156013 -1.2001653 0
51.129589 -45.995861 -1.2004517 0
51.282959 -45.823677 -1.2004386 0
51.403282 -45.622162 -1.1996678 0
51.597862 -45.486504 -1.2006431 0
51.725147 -45.29142 -1.2000645 0
51.859161 -45.102478 -1.1996586 0
52.019253 -44.936264 -1.1998699 0
52.187756 -44.777161 -1.200287 0
52.308144 -44.576836 -1.1996115 0
52.455421 -44.399612 -1.1995685 0
52.632774 -44.247688 -1.2002249 0
52.760406 -44.053913 -1.1997604 0
52.913754 -43.881695 -1.199895 0
53.056477 -43.700657 -1.1998022 0
53.207493 -43.526447 -1.1999103 0
53.371429 -43.362675 -1.2003219 0
53.487469 -43.160046 -1.1996703 0
53.664661 -43.006744 -1.2004037 0
53.808632 -42.826637 -1.2004055 0
53.938335 -42.63525 -1.2001033 0
54.077812 -42.451679 -1.2000329 0
54.216751 -42.267719 -1.1999646 0
54.361752 -42.088486 -1.2000439 0
54.491081 -41.897156 -1.1997911 0
1.6547496 -1.2635002 -0.036340993 0
1.6386505 -1.2425325 -0.035895739 0
1.6247303 -1.2234194 -0.03550075 0
1.668691 -1.2477767 -0.036369685 0
1.6564239 -1.2299665 -0.036012236 0
1.6972975 -1.2515104 -0.036809433 0
1.7120612 -1.2535572 -0.037038255 0
1.701429 -1.237031 -0.036718309 0
1.7233771 -1.2441773 -0.037101734 0
1.7107589 -1.2263634 -0.036741357 0
1.7184911 -1.2232045 -0.03681913 0
1.7375963 -1.2280467 -0.037140038 0
1.7368004 -1.218773 -0.037035476 0
1.7735314 -1.2356946 -0.037730169 0
1.7713068 -1.2253433 -0.037595231 0
1.7656285 -1.2126827 -0.037388202 0
1.8023225 -1.2290121 -0.038077749 0
1.802586 -1.2203579 -0.037996657 0
1.8205136 -1.2236136 -0.038287859 0
1.8191074 -1.2138339 -0.038172476 0
1.8480222 -1.224193 -0.038692884 0
1.8446542 -1.2130828 -0.038536992 0
1.8319342 -1.1959388 -0.038187273 0
1.8525822 -1.2005792 -0.038533561 0
1.8913223 -1.2167 -0.039254278 0
1.8970838 -1.2114328 -0.039289337 0
1.9072046 -1.2089128 -0.039414775 0
1.9161038 -1.2055674 -0.039514933 0
1.9217479 -1.2001435 -0.039548125 0
1.9510062 -1.2093418 -0.04006657 0
1.9609913 -1.2064489 -0.040188331 0
1.9553998 -1.1939899 -0.039991472 0
1.9700216 -1.1938688 -0.040208422 0
1.9683716 -1.1838638 -0.040093508 0
2.0202575 -1.2058649 -0.041067783 0
1.9978764 -1.183439 -0.040531933 0
2.0308146 -1.1937702 -0.041118734 0
2.0391369 -1.1894809 -0.041206256 0
2.047606 -1.1852378 -0.041296862 0
2.0679824 -1.1877937 -0.041627269 0
2.0633302 -1.175939 -0.041454021 0
2.108896 -1.1925585 -0.042288911 0
2.0905755 -1.1729652 -0.041842438 0
2.1026664 -1.1704972 -0.042005651 0
2.1137545 -1.1674037 -0.042148732 0
2.1374495 -1.1711551 -0.042542677 0
2.168695 -1.1788383 -0.043085661 0
2.1712811 -1.1708302 -0.043058809 0
2.184236 -1.1683803 -0.04323779 0
2.1829722 -1.1583076 -0.04313565 0
2.2100646 -1.1632038 -0.04359369 0
2.2373686 -1.1680117 -0.044054765 0
2.2274532 -1.1533484 -0.043783139 0
2.2615118 -1.1613848 -0.044375811 0
2.2721817 -1.1572536 -0.044508796 0
2.2829888 -1.153134 -0.044644501 0
2.2827287 -1.1434127 -0.044564195 0
2.2917154 -1.1383187 -0.044664878 0
2.3269808 -1.1461247 -0.045277044 0
61.769878 -30.167042 -1.1999077 0
61.860119 -29.954659 -1.199703 0
61.970726 -29.752138 -1.1999067 0
62.066864 -29.542639 -1.1998435 0
62.179676 -29.341032 -1.2001159 0
62.258507 -29.123411 -1.199746 0
62.363518 -28.918083 -1.1998944 0
62.480255 -28.718082 -1.2002813 0
62.556953 -28.499672 -1.1999122 0
62.646145 -28.287056 -1.199797 0
5.1439886 -2.3019695 -0.098369144 0
5.1253619 -2.2730391 -0.097866654 0
5.1539416 -2.2650657 -0.09826681 0
5.1342411 -2.2358985 -0.097747706 0
5.1228642 -2.2105403 -0.09738946 0
5.1420074 -2.1983798 -0.097612709 0
5.1366744 -2.1757586 -0.097372442 0
5.138154 -2.156096 -0.097262911 0
5.1352048 -2.1346378 -0.097071059 0
5.140996 -2.1168578 -0.097045824 0
5.125504 -2.0904078 -0.09662053 0
5.1650772 -2.0863769 -0.097234108 0
5.2164183 -2.0867996 -0.098068349 0
5.2804303 -2.091897 -0.099139363 0
5.3266759 -2.0895829 -0.099875517 0
5.3541594 -2.0796773 -0.10025954 0
5.4415946 -2.0926692 -0.10176485 0
5.4464545 -2.0736034 -0.10172515 0
64.329559 -24.24526 -1.1999784 0
64.429436 -24.036507 -1.2003313 0
64.495903 -23.815273 -1.2000754 0
64.5924 -23.60511 -1.2003914 0
64.678467 -23.391048 -1.2005267 0
64.74881 -23.171301 -1.2003837 0
64.822937 -22.952948 -1.2003244 0
64.882896 -22.72965 -1.2000167 0
64.943459 -22.506687 -1.1997344 0
65.036705 -22.29504 -1.2000694 0
65.121902 -22.080524 -1.2002686 0
65.16626 -21.852232 -1.1997291 0
65.243828 -21.635168 -1.199815 0
65.338112 -21.423546 -1.2002212 0
65.392471 -21.198814 -1.1999073 0
65.45562 -20.977024 -1.1997688 0
65.538597 -20.761568 -1.2000071 0
65.61628 -20.544355 -1.2001613 0
65.68943 -20.325678 -1.2002462 0
65.744469 -20.101421 -1.2000135 0
65.844513 -19.890856 -1.2006156 0
65.87056 -19.657961 -1.1998821 0
65.952255 -19.441761 -1.200176 0
65.984077 -19.21092 -1.1995763 0
66.091202 -19.001968 -1.2003587 0
66.124458 -18.771729 -1.1998129 0
66.213409 -18.557316 -1.2002913 0
66.256523 -18.330029 -1.199952 0
66.307755 -18.105089 -1.1997737 0
66.38176 -17.886354 -1.2000208 0
66.46183 -17.669132 -1.2003907 0
66.499298 -17.440586 -1.2000045 0
66.548019 -17.215101 -1.1998353 0
66.585922 -16.986921 -1.1994851 0
66.687599 -16.774921 -1.2002969 0
66.703705 -16.541374 -1.1995817 0
66.814354 -16.331219 -1.2005802 0
66.838135 -16.099739 -1.2000308 0
66.894165 -15.876129 -1.2000743 0
66.95211 -15.652946 -1.2001656 0
66.971642 -15.420881 -1.1995821 0
67.033371 -15.198609 -1.1997683 0
67.116096 -14.980949 -1.2003433 0
67.155304 -14.753499 -1.2001531 0
67.203423 -14.528047 -1.2001357 0
67.253799 -14.30308 -1.2001722 0
67.314751 -14.080307 -1.2004106 0
67.372787 -13.856839 -1.2006103 0
67.393082 -13.62566 -1.2001511 0
67.446312 -13.401202 -1.2002922 0
67.471695 -13.17125 -1.1999513 0
67.524269 -12.946642 -1.2001076 0
67.551987 -12.71729 -1.1998357 0
67.598259 -12.491472 -1.1999069 0
67.655083 -12.267536 -1.2001787 0
67.693611 -12.040237 -1.2001393 0
67.710686 -11.809209 -1.1997333 0
67.782387 -11.587675 -1.2003087 0
67.81588 -11.359514 -1.2002205 0
67.849419 -11.131393 -1.2001468 0
67.898895 -10.905858 -1.2003684 0
67.902718 -10.673059 -1.1997967 0
67.950394 -10.447221 -1.2000134 0
67.978661 -10.218377 -1.1999007 0
68.022102 -9.991806 -1.2000695 0
68.071045 -9.765954 -1.2003485 0
68.085579 -9.5351734 -1.2000344 0
68.10331 -9.3049479 -1.1997901 0
68.132729 -9.0763731 -1.1997657 0
68.193413 -8.851862 -1.2003049 0
68.21019 -8.6215906 -1.2000846 0
68.227303 -8.3914433 -1.1998839 0
68.266815 -8.1640491 -1.2000908 0
68.311546 -7.9371786 -1.2004025 0
68.333763 -7.7076459 -1.200332 0
68.337769 -7.4761457 -1.1999553 0
68.346504 -7.2452888 -1.1996753 0
68.41069 -7.0202289 -1.2003822 0
68.418297 -6.7892785 -1.2001095 0
68.415176 -6.5574026 -1.1996623 0
68.449738 -6.3291817 -1.1998895 0
68.477928 -6.1003022 -1.2000185 0
68.499512 -5.8708038 -1.200045 0
68.497246 -5.6393294 -1.1996672 0
68.54071 -5.4116087 -1.200104 0
68.55809 -5.1817455 -1.2000973 0
68.569572 -4.9514565 -1.200001 0
68.574303 -4.720737 -1.1998 0
68.612411 -4.4922781 -1.2001966 0
68.617538 -4.2616153 -1.2000296 0
68.625824 -4.0311999 -1.1999314 0
68.66201 -3.8023641 -1.2003343 0
68.638718 -3.5702775 -1.1997112 0
68.666077 -3.3408926 -1.1999868 0
68.694839 -3.1114621 -1.2003005 0
68.670769 -2.879693 -1.1997044 0
68.683571 -2.6495731 -1.1997662 0
68.720352 -2.4202714 -1.2002602 0
68.692062 -2.1887038 -1.1996312 0
68.724739 -1.9591134 -1.2000804 0
68.734619 -1.7287742 -1.2001449 0
68.731033 -1.4981141 -1.1999878 0
68.702797 -1.2670573 -1.199414 0
68.7341 -1.0371166 -1.199893 0
68.725998 -0.80652708 -1.1996976 0
68.7323 -0.57613063 -1.1997671 0
68.7369 -0.34569636 -1.1998205 0
68.724846 -0.11521104 -1.1995965 0
68.759003 0.1152683 -1.2001927 0
68.745552 0.34573984 -1.1999714 0
68.730347 0.5761143 -1.199733 0
68.755272 0.80687064 -1.2002087 0
68.742233 1.0372394 -1.200035 0
68.731064 1.2675787 -1.1999074 0
68.744202 1.4984013 -1.2002178 0
68.758202 1.7293673 -1.2005566 0
68.728584 1.9592228 -1.2001474 0
68.728249 2.1898568 -1.200263 0
68.705551 2.4197502 -1.2000017 0
68.717453 2.6508801 -1.200358 0
68.681351 2.8801367 -1.1998892 0
68.697578 3.1115863 -1.2003484 0
68.658714 3.3405344 -1.1998583 0
68.643547 3.570529 -1.1997956 0
68.644562 3.801398 -1.2000294 0
68.646095 4.0323906 -1.2002858 0
68.587746 4.2597647 -1.1995084 0
68.606453 4.491888 -1.2000923 0
68.572098 4.7205853 -1.1997615 0
68.559105 4.9507008 -1.1998178 0
68.53627 5.1800966 -1.1997155 0
68.520935 5.4100475 -1.1997577 0
68.511055 5.6404662 -1.1999091 0
68.502586 5.8710675 -1.2000989 0
68.472702 6.0998363 -1.1999269 0
68.460548 6.3301806 -1.200079 0
68.418839 6.5577536 -1.1997265 0
68.40287 6.7877474 -1.1998389 0
68.374367 7.0165014 -1.1997448 0
68.37352 7.2481537 -1.2001497 0
68.311455 7.4732666 -1.1994933 0
68.309753 7.7049379 -1.1999103 0
68.289101 7.9345708 -1.200008 0
68.24437 8.1613646 -1.1996961 0
68.235191 8.3924131 -1.2000227 0
68.202438 8.6206112 -1.1999483 0
68.168861 8.8486748 -1.1998727 0
68.152565 9.0790148 -1.2001148 0
68.116638 9.3067694 -1.200025 0
68.117233 9.539607 -1.2005923 0
68.044884 9.7622004 -1.1998872 0
68.017708 9.9911604 -1.1999919 0
67.980164 10.218603 -1.1999272 0
67.942352 10.445984 -1.1998714 0
67.908211 10.673922 -1.1998937 0
67.894455 10.905145 -1.20029 0
67.842903 11.130324 -1.2000315 0
67.822525 11.360628 -1.2003381 0
67.75647 11.583244 -1.1998496 0
67.733849 11.813249 -1.2001437 0
67.668915 12.035844 -1.1997014 0
67.644127 12.265549 -1.1999843 0
67.611107 12.493846 -1.200135 0
67.560242 12.718844 -1.1999822 0
67.511635 12.94422 -1.1998831 0
67.468628 13.170651 -1.1998967 0
67.425941 13.397154 -1.1999296 0
67.412827 13.629652 -1.2005028 0
67.335632 13.849198 -1.1999483 0
67.306374 14.078556 -1.2002614 0
67.241333 14.300428 -1.1999497 0
67.195007 14.526228 -1.1999854 0
67.147888 14.751869 -1.2000204 0
67.084496 14.973896 -1.1997781 0
67.048569 15.202056 -1.2000405 0
66.976692 15.422044 -1.1996726 0
66.929535 15.647669 -1.1997609 0
66.872757 15.871049 -1.1996903 0
66.837837 16.099669 -1.2000254 0
66.786407 16.324387 -1.200078 0
66.730591 16.548042 -1.2000654 0
66.662491 16.768604 -1.199845 0
66.594818 16.989191 -1.1996454 0
66.57515 17.22212 -1.2003245 0
66.4953 17.439537 -1.1999323 0
66.439964 17.663319 -1.1999958 0
66.398438 17.890848 -1.2003224 0
66.312576 18.106405 -1.1998609 0
66.281357 18.336899 -1.2004018 0
66.220306 18.55925 -1.2004163 0
66.120239 18.770531 -1.1997364 0
66.085838 19.000425 -1.2002614 0
65.994476 19.213947 -1.1997652 0
65.926491 19.434166 -1.1997073 0
65.864525 19.656158 -1.1997721 0
65.814331 19.881737 -1.2000653 0
65.720062 20.09396 -1.199568 0
65.663765 20.317736 -1.1997772 0
65.574989 20.531429 -1.1994063 0
65.556488 20.767235 -1.2003345 0
65.461899 20.979036 -1.1998838 0
65.408646 21.204058 -1.200204 0
65.332558 21.421724 -1.2001191 0
65.246025 21.635895 -1.1998553 0
65.200951 21.863865 -1.2003678 0
65.093567 22.070919 -1.1997465 0
4.7581468 1.6311262 -0.087798208 0
4.6980977 1.6281643 -0.08679042 0
4.6480527 1.6282969 -0.085966282 0
4.6132708 1.6334983 -0.085423797 0
4.5422468 1.6255089 -0.084209099 0
4.4951429 1.6256741 -0.083436415 0
4.4636178 1.6312168 -0.082952313 0
4.4447956 1.6412518 -0.082704313 0
4.4654069 1.6658968 -0.083191298 0
4.4471798 1.6761039 -0.082955942 0
4.4324112 1.6875314 -0.082785539 0
4.4464064 1.7099504 -0.083153538 0
4.4612823 1.7328635 -0.083539926 0
4.4774437 1.7564405 -0.08395236 0
4.4428926 1.760098 -0.083414711 0
4.4338255 1.7737279 -0.083355665 0
4.4618545 1.8023177 -0.08399573 0
4.4695168 1.8228673 -0.084254563 0
4.4467158 1.8309809 -0.083939999 0
63.483913 26.389437 -1.20004 0
