# .PCD v0.7 - Point Cloud Data file format
VERSION 0.7
FIELDS x y z intensity
SIZE 4 4 4 4
TYPE F F F F
COUNT 1 1 1 1
WIDTH 1403
HEIGHT 1
VIEWPOINT 0 0 0 1 0 0 0
POINTS 1403
DATA ascii
-5.2741241 5.4266357 -1.1985484 0
-5.2802215 5.3965893 -1.1958156 0
-5.307642 5.3883538 -1.1979272 0
-5.338192 5.3831468 -1.200742 0
-5.3641243 5.3731456 -1.2025161 0
-5.3790741 5.3521104 -1.2018379 0
-5.3987179 5.3357549 -1.2022231 0
-5.4095931 5.3107672 -1.2006729 0
-5.4332762 5.2983608 -1.2019798 0
-5.4521079 5.2811775 -1.2022218 0
-5.4592619 5.2527442 -1.1999092 0
-5.4747229 5.2323847 -1.1994447 0
-5.506423 5.2274685 -1.2025433 0
-5.5121689 5.1978974 -1.1999853 0
-5.5248275 5.1749492 -1.1989571 0
-5.5518966 5.1654673 -1.2010663 0
-5.5800061 5.1568246 -1.2034001 0
-5.5657139 5.1091242 -1.1966168 0
-5.6054378 5.1110649 -1.2014662 0
-5.6321464 5.1009398 -1.2035184 0
-5.6618485 5.0933909 -1.2062094 0
-5.6487536 5.0474472 -1.1998075 0
-5.6696019 5.0319915 -1.2006454 0
-5.6899629 5.0160589 -1.2013891 0
-5.6742048 4.9684567 -1.1945379 0
-5.732018 4.9852252 -1.2031832 0
-5.7526307 4.9693742 -1.2040058 0
-5.7429705 4.9275022 -1.1985193 0
-5.769248 4.9165616 -1.2005564 0
-5.7956934 4.9056492 -1.20263 0
-5.8045712 4.8798537 -1.2010705 0
-5.816781 4.8569255 -1.2002206 0
-5.820282 4.8268209 -1.197597 0
-5.846108 4.815249 -1.1995823 0
-5.8785462 4.8089771 -1.2029232 0
-5.8709798 4.7700195 -1.1980956 0
-5.8897352 4.7525644 -1.1986645 0
-5.9164147 4.7414279 -1.2008522 0
-5.9276605 4.7178893 -1.1999172 0
-5.9345908 4.690989 -1.1981295 0
-5.9514136 4.6719508 -1.1983567 0
-5.9842401 4.6653767 -1.2018102 0
-5.9788976 4.6290655 -1.1976136 0
-5.9938049 4.6085477 -1.1974978 0
-6.0304122 4.6046052 -1.2017204 0
-6.0261302 4.5694327 -1.1978073 0
-6.0513411 4.5566759 -1.199775 0
-6.0774245 4.544467 -1.2019187 0
-6.0801706 4.5148153 -1.1994613 0
-6.0913835 4.4915357 -1.1986958 0
-6.0962844 4.4636741 -1.1967083 0
-6.1220641 4.4510965 -1.1988328 0
-6.1503143 4.4401913 -1.2014427 0
-6.1637111 4.4185019 -1.201159 0
-6.1584592 4.383553 -1.1972647 0
-6.1935019 4.377284 -1.2012174 0
-6.2051196 4.3543715 -1.2006323 0
-6.2198138 4.3336334 -1.2006574 0
-6.2254086 4.3065977 -1.1989433 0
-6.2343144 4.2819247 -1.1978868 0
-6.2804971 4.2827249 -1.2039948 0
-6.2750335 4.2482471 -1.2002101 0
-6.2758594 4.2181892 -1.1976562 0
-6.2835999 4.1928754 -1.1964439 0
-6.3220911 4.187993 -1.2010925 0
-6.3303986 4.1630249 -1.2000122 0
-6.3490438 4.1448607 -1.2009057 0
-6.3596745 4.1214566 -1.2002958 0
-6.3785086 4.1033602 -1.2012472 0
-6.37991 4.0740833 -1.1989319 0
-6.4059739 4.060555 -1.2012646 0
-6.426919 4.0436897 -1.2026433 0
-6.4216375 4.010376 -1.1991321 0
-6.4463935 3.9958558 -1.2012464 0
-6.4558878 3.9718406 -1.2005272 0
-6.4780216 3.955579 -1.2021703 0
-6.4831057 3.9289031 -1.2006624 0
-6.502615 3.9109774 -1.2018402 0
-6.4983706 3.8788149 -1.1986455 0
-6.5046663 3.8530524 -1.197417 0
-6.527658 3.8371649 -1.1992744 0
-6.5513935 3.8216195 -1.2012743 0
-6.5312395 3.780571 -1.1952479 0
-6.5679588 3.7724829 -1.1996462 0
-6.5745373 3.7470024 -1.1985464 0
-6.5779738 3.7197978 -1.1968925 0
-6.6198025 3.7142146 -1.2022308 0
-6.6217856 3.6861911 -1.2003397 0
-6.6091533 3.6501865 -1.1958245 0
-6.6477342 3.6424608 -1.2005887 0
-6.6614156 3.6209707 -1.2008603 0
-6.6765971 3.600276 -1.2014142 0
-6.6829276 3.5748196 -1.2003899 0
-6.6996965 3.5549512 -1.2012542 0
-6.729558 3.5419316 -1.2044723 0
-6.7087698 3.5023165 -1.1986431 0
-6.7134743 3.4761786 -1.1973946 0
-6.7287412 3.4555244 -1.1980444 0
-6.7289963 3.4271932 -1.1960372 0
-6.783051 3.4261312 -1.2035965 0
-6.7658195 3.3890035 -1.1985159 0
-6.7820902 3.3687565 -1.1993906 0
-6.8143592 3.356348 -1.2031004 0
-6.7810187 3.311722 -1.1952469 0
-6.8290386 3.3068626 -1.2017502 0
-6.841732 3.2847369 -1.202039 0
-6.8710899 3.2705295 -1.2052636 0
-6.8128915 3.2148552 -1.1931576 0
-6.8597918 3.2089095 -1.1994803 0
-6.8872528 3.1936548 -1.2024029 0
-6.8776398 3.1612229 -1.1988676 0
-6.9077716 3.1470621 -1.2022738 0
-6.9053559 3.118046 -1.2000271 0
-6.926239 3.0995607 -1.2018435 0
-6.9155402 3.0669844 -1.1981961 0
-6.9004951 3.0326664 -1.1938208 0
-6.9186373 3.0130029 -1.1952051 0
-6.9467192 2.9975643 -1.1983134 0
-6.9738932 2.9815943 -1.2012696 0
-7.0036287 2.9665728 -1.2046716 0
-6.9743361 2.9266253 -1.1979386 0
-6.9895887 2.9055028 -1.1988784 0
-7.0172844 2.8894606 -1.2019603 0
-6.9907923 2.851177 -1.1957786 0
-7.0251794 2.8377669 -1.2000263 0
-7.0170612 2.8071587 -1.1970252 0
-7.0712981 2.8013897 -1.2046682 0
-7.0670896 2.7723453 -1.202361 0
-7.083776 2.7515216 -1.2036237 0
-7.0955038 2.7287331 -1.204055 0
-7.0811052 2.6959779 -1.200071 0
-7.0822825 2.6692731 -1.198747 0
-7.100141 2.6488509 -1.2002598 0
-7.1176524 2.6282322 -1.2017237 0
-7.1033502 2.5959208 -1.1978327 0
-7.1213646 2.5754716 -1.1994076 0
-7.1349993 2.5533843 -1.2002554 0
-7.1263461 2.5233665 -1.1973698 0
-7.133801 2.4991207 -1.1972078 0
-7.1647925 2.4830389 -1.2010049 0
-7.1591916 2.4542425 -1.1986799 0
-7.1615472 2.4282477 -1.1977046 0
-7.1963239 2.4131677 -1.2021606 0
-7.1841745 2.382328 -1.1987901 0
-7.1991272 2.3605244 -1.1999577 0
-7.2028222 2.3350191 -1.1992619 0
-7.2162571 2.3126659 -1.200201 0
-7.2165327 2.2861021 -1.1989653 0
-7.211771 2.2580154 -1.1969097 0
-7.2325354 2.2379179 -1.1991038 0
-7.252316 2.2174222 -1.201144 0
-7.2461624 2.1890016 -1.1989025 0
-7.2378564 2.1600373 -1.1963233 0
-7.2406125 2.1344476 -1.1955892 0
-7.301302 2.125757 -1.2044268 0
-7.2686863 2.0898502 -1.1978838 0
-7.2871747 2.0687392 -1.1997809 0
-7.2945857 2.0444396 -1.1998658 0
-7.2829685 2.0148718 -1.1968371 0
-7.2887444 1.9901857 -1.1966829 0
-7.3386836 1.9774059 -1.2037867 0
-7.3198433 1.9460292 -1.1996193 0
-7.3035069 1.9154911 -1.1958827 0
-7.3313375 1.8965418 -1.1993918 0
-7.3567991 1.8768345 -1.2025211 0
-7.35567 1.8503015 -1.2013158 0
-7.3613672 1.8255135 -1.2012397 0
-7.368463 1.8010705 -1.2014055 0
-7.3791904 1.7774947 -1.2021762 0
-7.3667474 1.7483859 -1.1991873 0
-7.3751278 1.7242752 -1.1996036 0
-7.3883014 1.7012498 -1.2008117 0
-7.3932977 1.6763177 -1.2007036 0
-7.4007859 1.6519462 -1.2010134 0
-7.3986001 1.6254356 -1.1997677 0
-7.4228325 1.6046898 -1.202818 0
-7.4037375 1.574597 -1.1988615 0
-7.397223 1.5473065 -1.1969599 0
-7.4246473 1.5270785 -1.2005622 0
-7.4182076 1.4998478 -1.1987011 0
-7.4182601 1.473987 -1.1979042 0
-7.4515738 1.4546533 -1.2024894 0
-7.4390869 1.4263401 -1.1996958 0
-7.4656568 1.4054998 -1.203214 0
-7.4390583 1.3746828 -1.1981777 0
-7.4622808 1.353116 -1.2011806 0
-7.4610319 1.3270671 -1.2002566 0
-7.4427719 1.2980908 -1.1966122 0
-7.4753823 1.2779675 -1.2011596 0
-7.4888701 1.2544453 -1.2026442 0
-7.4944291 1.2295585 -1.2028681 0
-7.4806252 1.2015514 -1.1999992 0
-7.4839959 1.1763668 -1.1999005 0
-7.5172791 1.1557852 -1.2046087 0
-7.5099649 1.128899 -1.2028233 0
-7.4789557 1.0986084 -1.1972601 0
-7.5124059 1.0778033 -1.2020297 0
-7.4956045 1.0497564 -1.1987715 0
-7.4821477 1.0223053 -1.1960644 0
-7.4950323 0.99847883 -1.1975822 0
-7.4995365 0.97349936 -1.1977737 0
-7.5230594 0.9509154 -1.2010146 0
-7.5238128 0.92539239 -1.2006328 0
-7.5181937 0.89912325 -1.1992483 0
-7.5252881 0.87439013 -1.1999056 0
-7.5163836 0.84782404 -1.1980258 0
-7.5212736 0.82284683 -1.1983588 0
-7.5604796 0.80149311 -1.2041705 0
-7.5338116 0.77313155 -1.1995034 0
-7.5046611 0.74472201 -1.1944579 0
-7.5203094 0.72082072 -1.1965572 0
-7.5477629 0.69792151 -1.2005461 0
-7.5287304 0.6707111 -1.1971545 0
-7.5418925 0.64640391 -1.1988961 0
-7.5524158 0.62180519 -1.2002307 0
-7.56706 0.59747487 -1.2022328 0
-7.5323071 0.56932563 -1.1964015 0
-7.5378666 0.54433471 -1.1969879 0
-7.5735011 0.52138907 -1.2023621 0
-7.5439253 0.49394548 -1.1973971 0
-7.5798645 0.47078127 -1.2028441 0
-7.5608921 0.44416001 -1.1995903 0
-7.5796413 0.4197655 -1.202335 0
-7.5547056 0.39298192 -1.1981637 0
-7.5672884 0.36820042 -1.1999569 0
-7.5675483 0.34278443 -1.1998091 0
-7.5925536 0.31841218 -1.2035975 0
-7.5666547 0.29191533 -1.1993301 0
-7.5906525 0.2673564 -1.2029849 0
-7.5592051 0.24087556 -1.1978663 0
-7.5661578 0.21570602 -1.1988467 0
-7.5897799 0.19091399 -1.2024814 0
-7.6009202 0.16569565 -1.2041517 0
-7.56076 0.13946004 -1.1977086 0
-7.602675 0.1147356 -1.2042807 0
-7.5683994 0.088838279 -1.1987975 0
-7.5715442 0.063486591 -1.1992551 0
-7.5523629 0.038002905 -1.1961901 0
-7.5845981 0.012735025 -1.2012823 0
-7.5813713 2.011785e-05 -1.2007694 0
-9.7849703 -0.01642959 -1.2014432 0
-9.7791157 -0.049207751 -1.2007378 0
-9.7636433 -0.081867114 -1.1988651 0
-9.776392 -0.11475582 -1.2004708 0
-9.7866392 -0.14769484 -1.2017832 0
-9.7571535 -0.17997305 -1.1982298 0
-9.7851448 -0.21331048 -1.2017484 0
-9.7526674 -0.24531947 -1.197854 0
-9.8010883 -0.27942237 -1.2039094 0
-9.8077602 -0.31252623 -1.204851 0
-9.769536 -0.34410053 -1.2002902 0
-9.7684069 -0.3768571 -1.2003 0
-9.7527056 -0.40900344 -1.1985325 0
-9.765377 -0.44233868 -1.2002652 0
-9.7753611 -0.4756383 -1.2016816 0
-9.7797022 -0.50872219 -1.2024181 0
-9.8006191 -0.54276472 -1.2052069 0
-9.7591696 -0.57329655 -1.2003394 0
-9.7386541 -0.60486251 -1.1980587 0
-9.7812462 -0.64043611 -1.2035558 0
-9.735673 -0.67024136 -1.198218 0
-9.7550621 -0.7044459 -1.2008883 0
-9.7566624 -0.73745239 -1.2013828 0
-9.7451487 -0.76945096 -1.200276 0
-9.7193518 -0.80021328 -1.1974225 0
-9.7446556 -0.8351993 -1.2008781 0
-9.7268591 -0.86653554 -1.1990362 0
-9.7336893 -0.90004826 -1.2002435 0
-9.734251 -0.93302679 -1.2006917 0
-9.6936665 -0.96194708 -1.1960769 0
-9.7088652 -0.99633896 -1.1983576 0
-9.7264309 -1.0311074 -1.2009457 0
-9.6974955 -1.0609312 -1.1978055 0
-9.7539473 -1.100214 -1.205227 0
-9.7146606 -1.1287811 -1.2008336 0
-9.6969156 -1.1596832 -1.1991141 0
-9.6897469 -1.1917918 -1.1987149 0
-9.668479 -1.2220967 -1.1965841 0
-9.6782742 -1.2563168 -1.1983109 0
-9.6916361 -1.2911077 -1.2004945 0
-9.6920786 -1.3242539 -1.2010926 0
-9.6850023 -1.3563807 -1.2007725 0
-9.6772165 -1.3883883 -1.2003776 0
-9.6704664 -1.4205266 -1.2001243 0
-9.672224 -1.4539301 -1.2009406 0
-9.6738644 -1.4873612 -1.2017567 0
-9.6728659 -1.5204228 -1.2022592 0
-9.6312456 -1.5469881 -1.1977241 0
-9.6503143 -1.5832595 -1.2007489 0
-9.6251373 -1.6122872 -1.1982821 0
-9.6177893 -1.6442264 -1.1980468 0
-9.6386623 -1.6810752 -1.2013422 0
-9.6323614 -1.7132739 -1.2012662 0
-9.6317387 -1.7464982 -1.2019119 0
-9.5876513 -1.7717268 -1.197145 0
-9.6147051 -1.8100841 -1.201274 0
-9.5826397 -1.8373362 -1.1980307 0
-9.6073809 -1.8754976 -1.2019033 0
-9.6056213 -1.9086094 -1.202477 0
-9.6006451 -1.9411031 -1.202662 0
-9.5722055 -1.9687817 -1.1999196 0
-9.5707664 -2.0019553 -1.2005738 0
-9.5557213 -2.0322723 -1.1995345 0
-9.5471077 -2.0639219 -1.1993152 0
-9.5298176 -2.0936534 -1.1980182 0
-9.5386963 -2.129154 -1.2000251 0
-9.4987726 -2.153702 -1.1959041 0
-9.5183544 -2.1917214 -1.1992879 0
-9.5379887 -2.2299435 -1.2026972 0
-9.4886637 -2.2519908 -1.1974229 0
-9.5107651 -2.290947 -1.2011744 0
-9.5031939 -2.3228619 -1.2011951 0
-9.5032673 -2.356674 -1.2021964 0
-9.4764891 -2.3837883 -1.1998131 0
-9.4710598 -2.4162154 -1.2001446 0
-9.470294 -2.449868 -1.2010818 0
-9.4647274 -2.4823146 -1.2014246 0
-9.4214439 -2.5047536 -1.1969897 0
-9.4572659 -2.5482571 -1.2026196 0
-9.4298639 -2.5748167 -1.2002261 0
-9.416934 -2.6052444 -1.1996853 0
-9.3973007 -2.6337636 -1.1983024 0
-9.4042187 -2.6697419 -1.2003192 0
-9.3869829 -2.6988907 -1.1992675 0
-9.4017477 -2.7372971 -1.2023196 0
-9.3855286 -2.7667437 -1.201425 0
-9.3681755 -2.7958014 -1.2003969 0
-9.3521709 -2.8252082 -1.1995531 0
-9.3523321 -2.8595097 -1.2007967 0
-9.3487482 -2.8927245 -1.2015752 0
-9.3318901 -2.9218276 -1.2006608 0
-9.3100929 -2.9493139 -1.1991218 0
-9.314621 -2.9851494 -1.2009873 0
-9.3109875 -3.0184467 -1.201817 0
-9.311614 -3.0531886 -1.2032125 0
-9.2728691 -3.0749552 -1.1995314 0
-9.2578793 -3.1044765 -1.1989322 0
-9.2795916 -3.1464076 -1.2031034 0
-9.25488 -3.1726654 -1.2012719 0
-9.2476101 -3.2048626 -1.2017162 0
-9.2337818 -3.2347884 -1.201322 0
-9.2184 -3.2641413 -1.2007377 0
-9.2013407 -3.2928607 -1.199947 0
-9.1739492 -3.3177979 -1.1978189 0
-9.1659842 -3.3497107 -1.1982385 0
-9.1471415 -3.3776321 -1.1972491 0
-9.1706438 -3.421294 -1.2018199 0
-9.1383457 -3.4441919 -1.1990937 0
-9.1214733 -3.4728041 -1.198401 0
-9.1299915 -3.5111403 -1.2010601 0
-9.0950346 -3.5327461 -1.1980128 0
-9.0965147 -3.5684676 -1.199777 0
-9.0906191 -3.601371 -1.2005854 0
-9.0649633 -3.6264172 -1.198796 0
-9.0654745 -3.6619284 -1.2004806 0
-9.0571203 -3.6939237 -1.2010076 0
-9.0281715 -3.7174702 -1.1988149 0
-9.0026655 -3.7423189 -1.1970875 0
-9.014225 -3.782619 -1.2003042 0
-9.0233231 -3.822068 -1.2032152 0
-8.9738741 -3.8366592 -1.19833 0
-8.9709139 -3.8710203 -1.1996611 0
-8.9434776 -3.8948023 -1.1977317 0
-8.9128428 -3.9170637 -1.1953812 0
-8.9256573 -3.9584546 -1.1988732 0
-8.9204741 -3.9920008 -1.199968 0
-8.900301 -4.0188441 -1.1990601 0
-8.8985443 -4.0540237 -1.200648 0
-8.8938131 -4.0879321 -1.2018521 0
-8.8559923 -4.1065693 -1.198595 0
-8.8562794 -4.142837 -1.2005072 0
-8.8327103 -4.1679635 -1.1991998 0
-8.8266993 -4.2013683 -1.2002894 0
-8.831377 -4.2399716 -1.202852 0
-8.7978334 -4.2602224 -1.2002219 0
-8.7872543 -4.2915297 -1.2007349 0
-8.7753019 -4.3221922 -1.2010752 0
-8.7663193 -4.3543501 -1.2018372 0
-8.7281961 -4.3719592 -1.1986135 0
-8.710721 -4.3998008 -1.1982328 0
-8.6876755 -4.4247823 -1.1970967 0
-8.7035637 -4.4696884 -1.2013443 0
-8.6784229 -4.4936123 -1.1999469 0
-8.6635456 -4.5228081 -1.1999798 0
-8.6542587 -4.5549488 -1.200802 0
-8.6461182 -4.5877495 -1.2018001 0
-8.6319313 -4.6173773 -1.2019732 0
-8.6127853 -4.6443424 -1.2014687 0
-8.5920935 -4.6704364 -1.20076 0
-8.5674677 -4.6943316 -1.1995113 0
-8.5539122 -4.7242627 -1.1998243 0
-8.5365753 -4.7521091 -1.1996207 0
-8.5270863 -4.7843466 -1.2005347 0
-8.498456 -4.8058171 -1.1987658 0
-8.4781446 -4.8319182 -1.1981791 0
-8.4403658 -4.84795 -1.1951303 0
-8.4588194 -4.8963394 -1.2000612 0
-8.430337 -4.9176621 -1.1983527 0
-8.4384317 -4.9603782 -1.2018607 0
-8.4123697 -4.9830847 -1.2005217 0
-8.3748922 -4.9988928 -1.1975585 0
-8.3794613 -5.0398002 -1.2006212 0
-8.3680248 -5.0712051 -1.2014121 0
-8.3331356 -5.0883403 -1.1988457 0
-8.3254023 -5.1220179 -1.200197 0
-8.311758 -5.1521192 -1.2007135 0
-8.2940769 -5.1797328 -1.2006613 0
-8.2625303 -5.1986194 -1.198611 0
-8.2258358 -5.2141118 -1.1958174 0
-8.2337503 -5.2579088 -1.1995238 0
-8.2265472 -5.2922225 -1.2010528 0
-8.1753778 -5.2981424 -1.1961689 0
-8.1743631 -5.3364878 -1.1986316 0
-8.1680374 -5.3715019 -1.2003381 0
-8.1563177 -5.4030542 -1.2012713 0
-8.1338892 -5.4275231 -1.2006414 0
-8.1214418 -5.4586596 -1.2014987 0
-8.0954857 -5.4807076 -1.2003707 0
-8.0737362 -5.5055499 -1.199876 0
-8.0587587 -5.5350108 -1.2004014 0
-8.0246334 -5.5512619 -1.198084 0
-8.0281429 -5.5935798 -1.2014011 0
-7.9929118 -5.6089344 -1.1989363 0
-7.9909897 -5.647666 -1.2014816 0
-7.958344 -5.6647 -1.1994221 0
-7.9390059 -5.6911354 -1.1993767 0
-7.9108777 -5.7112222 -1.1980134 0
-7.9197226 -5.7580991 -1.2022698 0
-7.8792868 -5.7691813 -1.199061 0
-7.859684 -5.7954073 -1.1990281 0
-7.8490677 -5.8283052 -1.2003829 0
-7.8264742 -5.8523393 -1.1999217 0
-7.8016615 -5.8746715 -1.1991307 0
-7.7983742 -5.9132719 -1.201666 0
-7.7844305 -5.9439106 -1.2025815 0
-7.7389264 -5.9503455 -1.1986271 0
-7.7198606 -5.9769783 -1.1987712 0
-7.6950803 -5.9991655 -1.1980399 0
-7.6944704 -6.040277 -1.2010912 0
-7.6602921 -6.0550675 -1.1989183 0
-7.64329 -6.0833769 -1.1994429 0
-7.6161532 -6.1036019 -1.1983891 0
-7.6005569 -6.1330657 -1.1991638 0
-7.5940919 -6.1700039 -1.2014009 0
-7.5492511 -6.1757064 -1.197576 0
-7.5561647 -6.2237668 -1.2019763 0
-7.5352969 -6.2491012 -1.201983 0
-7.4989371 -6.2615008 -1.1995251 0
-7.473062 -6.2825398 -1.1987488 0
-7.4549932 -6.3101311 -1.1992375 0
-7.4419866 -6.342072 -1.200559 0
-7.4000535 -6.3492894 -1.1972218 0
-7.4091935 -6.4003854 -1.2021656 0
-7.3760281 -6.4150462 -1.2002674 0
-7.3486695 -6.4346547 -1.1993195 0
-7.3382177 -6.4690986 -1.2011467 0
-7.3288503 -6.5046387 -1.2031765 0
-7.2918105 -6.5156016 -1.2006754 0
-7.2591515 -6.5303226 -1.1988962 0
-7.261662 -6.5767651 -1.2029459 0
-7.2048335 -6.5694013 -1.1971738 0
-7.1721125 -6.5837402 -1.195398 0
-7.1788621 -6.6344252 -1.2002238 0
-7.1520772 -6.6542697 -1.199469 0
-7.1373172 -6.6853218 -1.2007461 0
-7.0895309 -6.6853271 -1.1964709 0
-7.0833449 -6.724504 -1.1992252 0
-7.0858378 -6.7721839 -1.2034847 0
-7.0587778 -6.7917519 -1.2027495 0
-7.0227304 -6.8025594 -1.2004869 0
-6.9917192 -6.8181057 -1.1990868 0
-6.9525423 -6.8255286 -1.196286 0
-6.9560561 -6.8749304 -1.2008499 0
-6.9217935 -6.8870969 -1.1989146 0
-6.9104571 -6.9220791 -1.2009642 0
-6.8741865 -6.9320765 -1.1986933 0
-6.8599963 -6.9643145 -1.2002839 0
-6.8371921 -6.9878726 -1.2003864 0
-6.8107648 -7.0077119 -1.199865 0
-6.7957134 -7.0392942 -1.2013645 0
-6.7525244 -7.0416527 -1.1978965 0
-6.743288 -7.0793824 -1.200462 0
-6.711791 -7.0937886 -1.1990821 0
-6.7122307 -7.142067 -1.203432 0
-6.676281 -7.1517138 -1.2012789 0
-6.6631379 -7.1857834 -1.2032424 0
-6.6234317 -7.1911721 -1.2004194 0
-6.5887985 -7.2018781 -1.1985121 0
-6.5665541 -7.2260623 -1.1988661 0
-6.5332923 -7.2380705 -1.1972173 0
-6.5447145 -7.2997832 -1.2037886 0
-6.4943314 -7.2926331 -1.1990122 0
-6.4751048 -7.3203144 -1.1999872 0
-6.449379 -7.3406787 -1.1997739 0
-6.4297009 -7.3679562 -1.2007021 0
-6.4090586 -7.3941994 -1.2014701 0
-6.3837152 -7.4150472 -1.2013731 0
-6.3327966 -7.4059772 -1.1964568 0
-6.3266673 -7.4492302 -1.2000108 0
-6.2977571 -7.4657788 -1.1992683 0
-6.2710299 -7.48487 -1.1989509 0
-6.258779 -7.5213318 -1.2014233 0
-6.2307477 -7.5389118 -1.2008878 0
-6.2077599 -7.5625906 -1.2013375 0
-6.1891017 -7.59162 -1.2026457 0
-6.1377711 -7.5804119 -1.1976033 0
-6.1250725 -7.6168051 -1.2001017 0
-6.0981054 -7.6355515 -1.1998273 0
-6.0727286 -7.6562796 -1.1998782 0
-6.0400734 -7.6677732 -1.198499 0
-6.0258303 -7.7026811 -1.2007906 0
-5.9852414 -7.7038822 -1.1978427 0
-5.9562349 -7.7198324 -1.1972109 0
-5.9370403 -7.7485328 -1.198568 0
-5.9213057 -7.7819023 -1.200652 0
-5.8927755 -7.7985277 -1.2001621 0
-5.8563719 -7.8046165 -1.1980706 0
-5.8263879 -7.8191309 -1.1972932 0
-5.8194008 -7.8646526 -1.2012693 0
-5.7914691 -7.8820372 -1.2009519 0
-5.7584524 -7.8924232 -1.1995859 0
-5.7337375 -7.9141421 -1.1999583 0
-5.7078114 -7.9342122 -1.2000929 0
-5.6897764 -7.965343 -1.2019094 0
-5.6550512 -7.973114 -1.2002144 0
-5.6350331 -8.0016088 -1.2016529 0
-5.5943499 -8.0006866 -1.1986909 0
-5.5772638 -8.0334721 -1.2007945 0
-5.5438933 -8.0428352 -1.1994089 0
-5.5102944 -8.0517311 -1.1979737 0
-5.4822636 -8.0686836 -1.1977543 0
-5.4764075 -8.1184874 -1.202415 0
-5.4345222 -8.1149511 -1.1991857 0
-5.4023514 -8.1257067 -1.1980919 0
-5.3765845 -8.1460581 -1.1984279 0
-5.3647513 -8.1877098 -1.2019025 0
-5.3181825 -8.1763058 -1.1976044 0
-5.3010626 -8.2100792 -1.1999412 0
-5.2708654 -8.2236872 -1.1993403 0
-5.2330904 -8.2253227 -1.1970134 0
-5.2050986 -8.2422132 -1.1969249 0
-5.1985626 -8.2933245 -1.2018094 0
-5.1660028 -8.3031139 -1.2007113 0
-5.1341019 -8.3138571 -1.1997688 0
-5.1106963 -8.3383636 -1.2008257 0
-5.0938077 -8.3736935 -1.2034473 0
-5.044641 -8.3558378 -1.1984435 0
-5.0216851 -8.381196 -1.1996591 0
-4.9882331 -8.3890333 -1.1983802 0
-4.9647908 -8.4136972 -1.1995188 0
-4.9400902 -8.4363356 -1.2003782 0
-4.9075718 -8.4456148 -1.1993505 0
-4.8741736 -8.4532566 -1.1981082 0
-4.8556161 -8.486701 -1.2005342 0
-4.8239102 -8.4972534 -1.1997323 0
-4.7999926 -8.5215445 -1.200883 0
-4.7701507 -8.5353642 -1.2005699 0
-4.7445416 -8.5567837 -1.2013384 0
-4.696352 -8.5372429 -1.1963775 0
-4.6794014 -8.574379 -1.1993763 0
-4.6583557 -8.6042957 -1.2013696 0
-4.6221852 -8.6062813 -1.1994762 0
-4.5915136 -8.6183701 -1.1990087 0
-4.5627584 -8.6340303 -1.1990525 0
-4.5378046 -8.656949 -1.2001157 0
-4.511456 -8.6773119 -1.2008349 0
-4.4770141 -8.682066 -1.1994088 0
-4.4388075 -8.6792898 -1.1969625 0
-4.422183 -8.71877 -1.2003556 0
-4.3880544 -8.7238617 -1.1990244 0
-4.3548679 -8.7306824 -1.1979483 0
-4.3285246 -8.7512054 -1.1987661 0
-4.3024578 -8.7723942 -1.1996859 0
-4.2773194 -8.7956085 -1.2008927 0
-4.2408361 -8.7954464 -1.1989224 0
-4.209589 -8.8059883 -1.1984288 0
-4.1875243 -8.835844 -1.2005745 0
-4.1554246 -8.8446169 -1.1998667 0
-4.1235166 -8.8537111 -1.199218 0
-4.1044416 -8.8905182 -1.2023327 0
-4.0726919 -8.9000368 -1.2017666 0
-4.0352864 -8.8970127 -1.1995246 0
-4.012712 -8.9266834 -1.2017043 0
-3.9734232 -8.9191294 -1.1988871 0
-3.944339 -8.934309 -1.1991432 0
-3.9052737 -8.9267101 -1.1963592 0
-3.8866081 -8.9657879 -1.1998433 0
-3.8537426 -8.9722891 -1.1989774 0
-3.8265982 -8.992115 -1.1999054 0
-3.7924411 -8.9954376 -1.1986454 0
-3.7772393 -9.0439682 -1.2034179 0
-3.7226539 -8.9979877 -1.195632 0
-3.7035353 -9.0374346 -1.1992168 0
-3.680105 -9.0667791 -1.2014666 0
-3.6386523 -9.0516214 -1.1978347 0
-3.6074402 -9.0616522 -1.1975548 0
-3.5895257 -9.1053734 -1.2017355 0
-3.554991 -9.1071453 -1.2003896 0
-3.5234809 -9.1165419 -1.2000642 0
-3.4972074 -9.1395731 -1.2015457 0
-3.4552712 -9.1214876 -1.1976383 0
-3.4299128 -9.1470051 -1.1994721 0
-3.3937783 -9.1437778 -1.1975499 0
-3.3705833 -9.1754713 -1.200214 0
-3.3290176 -9.1570597 -1.1963389 0
-3.3086505 -9.196949 -1.2000942 0
-3.2771802 -9.2062597 -1.1998687 0
-3.2502685 -9.2284775 -1.2013373 0
-3.2172773 -9.2334929 -1.2005793 0
-3.1823988 -9.2329063 -1.199109 0
-3.159282 -9.266571 -1.2020986 0
-3.1198382 -9.2523279 -1.1988872 0
-3.0854325 -9.2526398 -1.1975803 0
-3.0640354 -9.2921753 -1.2013612 0
-3.0287209 -9.28969 -1.1997203 0
-2.9966209 -9.2968874 -1.1993455 0
-2.9675083 -9.3133945 -1.2001847 0
-2.9393888 -9.333209 -1.2014613 0
-2.9026184 -9.3254652 -1.1992049 0
-2.8718324 -9.3367605 -1.1994123 0
-2.8472378 -9.3684673 -1.2022525 0
-2.8110731 -9.3621817 -1.2002295 0
-2.7759109 -9.3588877 -1.1986073 0
-2.7508786 -9.3898573 -1.2013857 0
-2.7178333 -9.3936796 -1.2007022 0
-2.6821091 -9.387991 -1.1988187 0
-2.6541183 -9.4093399 -1.2004019 0
-2.628309 -9.4388475 -1.2030354 0
-2.5948682 -9.4411335 -1.202211 0
-2.5498345 -9.4005079 -1.1959425 0
-2.5326076 -9.4624529 -1.2027363 0
-2.5034268 -9.4805841 -1.2039671 0
-2.4612103 -9.4489355 -1.1988933 0
-2.4321616 -9.467433 -1.2001989 0
-2.397382 -9.4635992 -1.1986872 0
-2.3646493 -9.4676228 -1.1981858 0
-2.3305008 -9.4657822 -1.1969572 0
-2.3066688 -9.5061741 -1.2010802 0
-2.2779748 -9.5272017 -1.2027652 0
-2.2392132 -9.5058937 -1.1991206 0
-2.2082756 -9.5174274 -1.1996348 0
-2.1834478 -9.5558281 -1.2035456 0
-2.1446831 -9.5332527 -1.1997898 0
-2.1127689 -9.5406656 -1.1998245 0
-2.0849428 -9.5668468 -1.2022312 0
-2.0475256 -9.5489283 -1.1991099 0
-2.0185058 -9.5699978 -1.2008992 0
-1.9876481 -9.5826902 -1.2016488 0
-1.954493 -9.5843239 -1.2010252 0
-1.9229664 -9.5939102 -1.2014117 0
-1.8896577 -9.5945587 -1.2006929 0
-1.8540927 -9.5833416 -1.1985044 0
-1.8267359 -9.6146879 -1.2016519 0
-1.7911147 -9.6026649 -1.1993921 0
-1.7642533 -9.6378136 -1.2030365 0
-1.7320276 -9.6442204 -1.2031046 0
-1.6958618 -9.6282806 -1.2004001 0
-1.6622142 -9.6260576 -1.1994214 0
-1.6318796 -9.6430941 -1.2008556 0
-1.5984664 -9.6420422 -1.2000505 0
-1.5655745 -9.6439285 -1.1996253 0
-1.5300951 -9.629385 -1.1971712 0
-1.5035415 -9.6713858 -1.2017596 0
-1.4698218 -9.667922 -1.2007099 0
-1.4367216 -9.6682377 -1.2001442 0
-1.4081243 -9.6993589 -1.2034146 0
-1.3714268 -9.674612 -1.1997669 0
-1.3414516 -9.6970081 -1.2019799 0
-1.30536 -9.6749773 -1.1986998 0
-1.2750072 -9.6952152 -1.2006707 0
-1.2434783 -9.7071209 -1.201622 0
-1.2086214 -9.6927595 -1.1993359 0
-1.17889 -9.7196236 -1.2021642 0
-1.1440952 -9.7048578 -1.1998568 0
-1.1121908 -9.7142363 -1.2005484 0
-1.0775937 -9.6997194 -1.1983011 0
-1.0464749 -9.7163563 -1.1999162 0
-1.0144693 -9.7253456 -1.2005996 0
-0.98033959 -9.7136631 -1.1987448 0
-0.94656986 -9.7046328 -1.197232 0
-0.91480809 -9.7160501 -1.1982554 0
-0.88496202 -9.7491941 -1.2019703 0
-0.85200369 -9.7490616 -1.2015951 0
-0.82033646 -9.7640553 -1.2030972 0
-0.78714466 -9.7611685 -1.2024096 0
-0.75357008 -9.7528458 -1.2010664 0
-0.7196092 -9.7383032 -1.1989716 0
-0.6875999 -9.749814 -1.2000982 0
-0.65381926 -9.7358704 -1.1981053 0
-0.62212688 -9.7529602 -1.1999451 0
-0.58841085 -9.7382317 -1.1978835 0
-0.55703247 -9.7625017 -1.2006323 0
-0.52246809 -9.7302437 -1.196443 0
-0.49142489 -9.7634001 -1.2003105 0
-0.45857152 -9.7625284 -1.2000077 0
-0.42497054 -9.7441435 -1.1975659 0
-0.39320534 -9.7680569 -1.2003361 0
-0.36082959 -9.7795343 -1.2015911 0
-0.32789326 -9.7763548 -1.2010586 0
-0.29506314 -9.7757435 -1.2008553 0
-0.26201886 -9.7667484 -1.1996356 0
-0.22994398 -9.7962284 -1.203155 0
-0.19630189 -9.7573833 -1.1982967 0
-0.16430323 -9.8007622 -1.2035496 0
-0.13141279 -9.7990656 -1.2032803 0
-0.098077461 -9.751708 -1.197418 0
-0.065618493 -9.787365 -1.2017626 0
-0.03268218 -9.7514992 -1.1973385 0
1.2981784e-05 -9.7843189 -1.2013615 0
0.032730605 -9.7582216 -1.1981639 0
0.065534785 -9.7710123 -1.1997546 0
0.098341607 -9.7753925 -1.2003262 0
0.13091902 -9.7603159 -1.1985221 0
0.1641932 -9.7926483 -1.2025533 0
0.19696745 -9.7891741 -1.2022009 0
0.22898068 -9.7540855 -1.1979793 0
0.26203105 -9.7662354 -1.1995726 0
0.29555884 -9.7913046 -1.2027668 0
0.32746032 -9.7626743 -1.199378 0
0.36168587 -9.8020372 -1.2043561 0
0.39290789 -9.7600231 -1.1993489 0
0.42665181 -9.7820969 -1.2022306 0
0.45796865 -9.7491417 -1.1983622 0
0.49076271 -9.7497292 -1.19863 0
0.52453822 -9.7683134 -1.2011242 0
0.55723602 -9.7656136 -1.2010152 0
0.59023321 -9.7679615 -1.2015406 0
0.62243944 -9.757453 -1.200498 0
0.65396953 -9.7377214 -1.1983334 0
0.68886185 -9.7673378 -1.2022555 0
0.71882254 -9.7273064 -1.1976179 0
0.75426662 -9.7615232 -1.2021352 0
0.7853294 -9.7383356 -1.1995972 0
0.81822199 -9.7385778 -1.1999582 0
0.85201126 -9.7488499 -1.2015692 0
0.88274246 -9.7244558 -1.1989206 0
0.91635001 -9.7321501 -1.2002412 0
0.94804794 -9.7195196 -1.1990688 0
0.98196268 -9.7294874 -1.2006979 0
1.0135438 -9.7162237 -1.1994737 0
1.0449255 -9.7017279 -1.19811 0
1.0791659 -9.7136364 -1.2000208 0
1.1110667 -9.7041893 -1.1993071 0
1.1445912 -9.7088451 -1.2003499 0
1.1760405 -9.6959152 -1.1992322 0
1.2094394 -9.699111 -1.2001222 0
1.2409388 -9.6870928 -1.1991433 0
1.2732898 -9.6819563 -1.1990292 0
1.3046926 -9.669838 -1.1980635 0
1.3397613 -9.6845999 -1.2004422 0
1.3719382 -9.6780348 -1.2001919 0
1.405551 -9.6814528 -1.2011933 0
1.434952 -9.6561537 -1.1986446 0
1.4676391 -9.6533918 -1.1989059 0
1.5042536 -9.6757984 -1.2023083 0
1.5285943 -9.6197758 -1.1959771 0
1.5697243 -9.6693287 -1.2027854 0
1.5952758 -9.6226377 -1.1976359 0
1.6311567 -9.6386671 -1.2003049 0
1.6658559 -9.6469946 -1.2020307 0
1.6925921 -9.6095676 -1.1980677 0
1.7229445 -9.5934973 -1.1967776 0
1.7591845 -9.6099787 -1.1995627 0
1.7969859 -9.6340008 -1.2033066 0
1.8223505 -9.5914669 -1.1987504 0
1.8570105 -9.5982857 -1.200374 0
1.8900645 -9.5964899 -1.2009351 0
1.9192113 -9.5750427 -1.1990497 0
1.9560617 -9.5918865 -1.2019734 0
1.9870292 -9.5795784 -1.2012593 0
2.0170808 -9.5631161 -1.2000363 0
2.0505424 -9.5628729 -1.2008617 0
2.0797875 -9.5430698 -1.1992439 0
2.1148298 -9.5498505 -1.2009803 0
2.1443992 -9.5318718 -1.1996167 0
2.1707888 -9.500309 -1.1965538 0
2.2081921 -9.5169516 -1.1995755 0
2.2411256 -9.5138988 -1.2001312 0
2.2756784 -9.5174856 -1.2015394 0
2.3029816 -9.4908686 -1.1991472 0
2.3389091 -9.4998255 -1.2012628 0
2.3648155 -9.4681816 -1.1982573 0
2.404021 -9.4897013 -1.2019942 0
2.4302645 -9.4599438 -1.1992503 0
2.4609973 -9.4480152 -1.1987774 0
2.4929261 -9.4407148 -1.1989049 0
2.5332971 -9.4649286 -1.2030518 0
2.5606849 -9.4404106 -1.2010199 0
2.5877826 -9.4152546 -1.1989167 0
2.6128778 -9.3833351 -1.1959609 0
2.6534436 -9.4068527 -1.2000854 0
2.685339 -9.3992023 -1.2002513 0
2.718019 -9.3942289 -1.2007732 0
2.7486575 -9.382184 -1.2004049 0
2.7770939 -9.3627853 -1.1991074 0
2.8063111 -9.3462324 -1.1981858 0
2.8424625 -9.3526659 -1.2002257 0
2.8732417 -9.3412533 -1.1999906 0
2.9029489 -9.3264399 -1.1993313 0
2.9395502 -9.3336344 -1.2015171 0
2.9752555 -9.3376236 -1.2033079 0
2.9951813 -9.2923374 -1.1987594 0
3.0278964 -9.2870779 -1.1993839 0
3.0537734 -9.2609711 -1.1973279 0
3.080873 -9.2388849 -1.1958011 0
3.1245577 -9.266243 -1.2006913 0
3.1564806 -9.2582731 -1.2010232 0
3.1866627 -9.2451973 -1.2007062 0
3.2126276 -9.2200699 -1.198835 0
3.2397108 -9.1984234 -1.1974261 0
3.2809768 -9.2168474 -1.2012498 0
3.3083155 -9.195941 -1.1999639 0
3.3478472 -9.2087774 -1.2030969 0
3.3663726 -9.1639338 -1.1987059 0
3.3962476 -9.1503563 -1.1984128 0
3.436703 -9.1650391 -1.2018381 0
3.4587338 -9.1305552 -1.1988301 0
3.4896872 -9.1198483 -1.1989537 0
3.5095346 -9.0803852 -1.1953059 0
3.5575716 -9.1136856 -1.2012528 0
3.5836174 -9.0903149 -1.1997494 0
3.6016541 -9.0470476 -1.1956259 0
3.648632 -9.0763779 -1.201112 0
3.6770377 -9.0591536 -1.2004575 0
3.7151327 -9.0656662 -1.2029643 0
3.7409527 -9.0421495 -1.2015015 0
3.7631509 -9.010169 -1.1989217 0
3.7966466 -9.0053453 -1.199967 0
3.822685 -8.9828529 -1.198671 0
3.8533976 -8.9714203 -1.1988627 0
3.8863192 -8.9650564 -1.1997467 0
3.9142394 -8.9471388 -1.1990985 0
3.9413822 -8.9275475 -1.1982371 0
3.9718606 -8.9155579 -1.1984086 0
4.0051212 -8.9097338 -1.1994239 0
4.0393 -8.9057989 -1.2007107 0
4.0519524 -8.8546534 -1.19564 0
4.0891027 -8.8572311 -1.1978326 0
4.1350384 -8.8783884 -1.202562 0
4.1521811 -8.8376522 -1.1989232 0
4.1717482 -8.802495 -1.1960447 0
4.2195897 -8.826849 -1.2012693 0
4.2539577 -8.8226004 -1.2026254 0
4.281342 -8.8038216 -1.2020155 0
4.3129163 -8.7936592 -1.2025957 0
4.3376217 -8.7695389 -1.2012792 0
4.3567548 -8.7344074 -1.1984609 0
4.3997397 -8.747036 -1.202211 0
4.4249949 -8.7242565 -1.2011125 0
4.4465408 -8.6943531 -1.1990415 0
4.4865174 -8.7004395 -1.2019485 0
4.5001144 -8.6554413 -1.1978099 0
4.5415058 -8.6639547 -1.2010884 0
4.5691457 -8.6460619 -1.200725 0
4.5983114 -8.631074 -1.2007779 0
4.6338902 -8.6280203 -1.2025077 0
4.6617665 -8.6105413 -1.2022433 0
4.671382 -8.5596304 -1.1973151 0
4.7064443 -8.5555353 -1.1989428 0
4.7440796 -8.5558968 -1.2012157 0
4.7695208 -8.5341835 -1.2004056 0
4.8067369 -8.5334654 -1.2025647 0
4.8294835 -8.5070181 -1.2011127 0
4.8702865 -8.512289 -1.2041558 0
4.8780403 -8.4599104 -1.1990532 0
4.9081583 -8.4465723 -1.1994884 0
4.943295 -8.4417572 -1.2011515 0
4.9693565 -8.4213839 -1.2006166 0
4.9954619 -8.4011402 -1.2001115 0
5.0277166 -8.3912125 -1.2010947 0
5.0567551 -8.3758526 -1.2013162 0
5.0818076 -8.3539162 -1.2006071 0
5.1099706 -8.3371286 -1.2006499 0
5.1347194 -8.3148079 -1.1999079 0
5.1572948 -8.2890692 -1.1986822 0
5.191184 -8.2815056 -1.2000985 0
5.2218518 -8.2686939 -1.2007724 0
5.2441816 -8.2427082 -1.1995454 0
5.2913589 -8.2556124 -1.2039984 0
5.3111057 -8.2255859 -1.2022096 0
5.3397331 -8.2093906 -1.2024524 0
5.3623576 -8.1840086 -1.2013613 0
5.3988695 -8.1797752 -1.2033904 0
5.4145384 -8.1439905 -1.2007898 0
5.437984 -8.1200733 -1.1999449 0
5.4489908 -8.0777969 -1.1963906 0
5.4994764 -8.0939703 -1.2015102 0
5.5239153 -8.0715885 -1.2009302 0
5.5407696 -8.0382576 -1.1987284 0
5.5777931 -8.0341892 -1.2009039 0
5.6003494 -8.009222 -1.1999719 0
5.6322117 -7.9975576 -1.2010467 0
5.6528311 -7.9699392 -1.1997386 0
5.693294 -7.9702229 -1.202648 0
5.7026491 -7.9269919 -1.1990031 0
5.7382412 -7.9203138 -1.2008964 0
5.7672915 -7.9044938 -1.2014228 0
5.790421 -7.8805671 -1.2007302 0
5.7944627 -7.8309064 -1.196117 0
5.8618298 -7.8666511 -1.204572 0
5.8731451 -7.8269267 -1.2014978 0
5.9005079 -7.8087182 -1.2017328 0
5.9157915 -7.7746124 -1.1995298 0
5.924511 -7.7321372 -1.1960344 0
5.9730029 -7.7415233 -1.2005773 0
6.0005345 -7.7235246 -1.2008994 0
6.0131683 -7.6864533 -1.1982633 0
6.0437441 -7.6723914 -1.1992234 0
6.0764804 -7.6609683 -1.2006155 0
6.0982027 -7.635632 -1.1998425 0
6.1201062 -7.6105881 -1.1991248 0
6.1427298 -7.5864944 -1.1985669 0
6.1651788 -7.5622349 -1.1979932 0
6.1913147 -7.5425158 -1.1981511 0
6.2228217 -7.5292811 -1.1993563 0
6.2436304 -7.5030866 -1.1985116 0
6.2864757 -7.5032649 -1.2019001 0
6.2954583 -7.4630136 -1.1988269 0
6.3151355 -7.4356127 -1.1978198 0
6.3496876 -7.4256907 -1.1996443 0
6.3669806 -7.3955688 -1.19822 0
6.4160004 -7.4021688 -1.2027678 0
6.4448175 -7.3852396 -1.2035214 0
6.44835 -7.3394685 -1.199579 0
6.4727249 -7.3175845 -1.1995424 0
6.5128021 -7.3133354 -1.2024188 0
6.5233879 -7.2759571 -1.1998625 0
6.5467229 -7.2529111 -1.199675 0
6.5847669 -7.2460656 -1.2021878 0
6.5997162 -7.2137728 -1.2004945 0
6.6108851 -7.1775117 -1.1981419 0
6.6524644 -7.1742349 -1.2013115 0
6.6655059 -7.1401334 -1.1993368 0
6.7068238 -7.1362762 -1.2024592 0
6.7149196 -7.0970573 -1.1996378 0
6.7328687 -7.0684061 -1.1986037 0
6.7601886 -7.0496078 -1.1992528 0
6.8011427 -7.0448804 -1.2023211 0
6.8199377 -7.0171123 -1.2014776 0
6.8416247 -6.9923658 -1.2011614 0
6.8493066 -6.9534249 -1.1984103 0
6.8828301 -6.9407558 -1.2001973 0
6.8993206 -6.9108872 -1.1990256 0
6.9222026 -6.8874674 -1.1989824 0
6.9484696 -6.8673964 -1.1995372 0
6.9639626 -6.8367043 -1.1982478 0
6.9976921 -6.823894 -1.2001081 0
7.0161114 -6.7961116 -1.1993523 0
7.0455732 -6.7790112 -1.2004966 0
7.0500927 -6.7379851 -1.1974105 0
7.0656118 -6.7076335 -1.1962199 0
7.1187663 -6.7128601 -1.2014018 0
7.1474452 -6.6947732 -1.2024469 0
7.1311116 -6.6347284 -1.1959499 0
7.1645298 -6.6211443 -1.1978246 0
7.1936717 -6.6034961 -1.1989884 0
7.216115 -6.5796528 -1.1990455 0
7.2476764 -6.5640631 -1.2006261 0
7.2675037 -6.5378013 -1.2002727 0
7.3062577 -6.5284762 -1.2030513 0
7.3012967 -6.4801497 -1.1986502 0
7.3237834 -6.4563394 -1.1987814 0
7.3520403 -6.4375715 -1.1998668 0
7.3651805 -6.4055777 -1.1984994 0
7.4041829 -6.3960228 -1.2013499 0
7.4119573 -6.3594685 -1.1991448 0
7.4243021 -6.3269672 -1.1977034 0
7.4501209 -6.3059731 -1.1984509 0
7.4777627 -6.2864575 -1.1995002 0
7.503643 -6.2653961 -1.2002753 0
7.5051131 -6.2240357 -1.1971656 0
7.5482583 -6.2172213 -1.2007159 0
7.5557055 -6.180953 -1.1985973 0
7.5897374 -6.1664324 -1.2007095 0
7.6099567 -6.1406178 -1.2006443 0
7.6225491 -6.1086946 -1.1993929 0
7.6606526 -6.0971632 -1.202165 0
7.6621695 -6.0565186 -1.1992097 0
7.6871195 -6.0344734 -1.1999413 0
7.7049985 -6.006865 -1.1995815 0
1.8089591 -1.4005499 -0.28090191 0
1.8310764 -1.4078797 -0.28360176 0
1.8163297 -1.3868762 -0.28059599 0
1.845787 -1.3995969 -0.28442016 0
1.8659588 -1.4050641 -0.28680095 0
1.8483794 -1.3821402 -0.2833851 0
1.8381821 -1.3649299 -0.28111851 0
1.8813411 -1.3872157 -0.28700599 0
1.8752477 -1.3730409 -0.28537253 0
1.8703585 -1.3598518 -0.28393307 0
1.8622718 -1.3444512 -0.28201959 0
1.8924904 -1.3566381 -0.28590539 0
1.8820517 -1.3396252 -0.28364825 0
1.8678918 -1.3201331 -0.28084552 0
1.9003115 -1.3335145 -0.2850461 0
1.8943843 -1.319898 -0.28349161 0
1.8882586 -1.3062476 -0.28191793 0
1.9027174 -1.3068391 -0.28342086 0
1.8883479 -1.2876731 -0.28063577 0
1.8948352 -1.282811 -0.2809591 0
1.8965662 -1.2747304 -0.28058046 0
1.9198651 -1.2810664 -0.28339031 0
1.9430165 -1.2871205 -0.28616908 0
1.9233783 -1.2648534 -0.28265056 0
1.9279553 -1.2586241 -0.28270143 0
1.9269912 -1.2488004 -0.28194451 0
1.9421009 -1.2493662 -0.28354079 0
1.9486653 -1.2443715 -0.28388846 0
1.9438487 -1.2321404 -0.28258333 0
1.9581589 -1.2320273 -0.28406152 0
1.9465407 -1.2156267 -0.28178331 0
1.9650947 -1.2180747 -0.28387639 0
1.9592996 -1.2054081 -0.28245381 0
1.9674362 -1.2013394 -0.28304452 0
1.95489 -1.1846987 -0.28066656 0
1.9770561 -1.189087 -0.28327501 0
1.9663935 -1.1737143 -0.28118181 0
2.0203245 -1.1967361 -0.28831822 0
1.9969226 -1.1738474 -0.2844153 0
2.0090997 -1.1719595 -0.28558838 0
1.9943171 -1.154392 -0.28293532 0
1.9976798 -1.1474138 -0.28286502 0
2.0153399 -1.1485882 -0.28481871 0
2.0066373 -1.1347322 -0.28304955 0
2.0012686 -1.1228575 -0.28175965 0
2.0261986 -1.1279297 -0.28473553 0
1.9835612 -1.0954994 -0.27822608 0
2.0170436 -1.1051821 -0.2824012 0
1.9985447 -1.0863496 -0.27929968 0
2.0262601 -1.0926298 -0.28265938 0
2.0202458 -1.0806594 -0.28131339 0
2.0296273 -1.0769413 -0.28211537 0
2.034297 -1.0706935 -0.28226388 0
2.0355623 -1.0626594 -0.28194347 0
2.0427742 -1.0577239 -0.2824496 0
2.0242887 -1.0395604 -0.27941015 0
2.0462933 -1.0422055 -0.28196353 0
2.0570586 -1.0390171 -0.28296527 0
2.0648463 -1.034276 -0.28355792 0
2.0474761 -1.0170025 -0.28070268 0
2.0516779 -1.0105277 -0.28081271 0
2.0669937 -1.009474 -0.28244415 0
2.0654774 -1.0001706 -0.28177714 0
8.8186388 -4.2338276 -1.2011155 0
8.8236313 -4.1998792 -1.1998707 0
8.8405037 -4.1716123 -1.2002563 0
8.857872 -4.1435533 -1.2007215 0
8.8494787 -4.1035204 -1.1977121 0
8.8797808 -4.0814538 -1.1999544 0
8.8791447 -4.0451574 -1.1980289 0
8.9151201 -4.0255075 -1.2010552 0
5.1079884 -2.2858591 -0.68711758 0
5.1447039 -2.2816172 -0.69102365 0
5.1323733 -2.2555866 -0.6883477 0
5.1448174 -2.2405043 -0.68900532 0
5.1342373 -2.2154479 -0.68658978 0
5.1323519 -2.194252 -0.68535 0
5.1307325 -2.1732419 -0.68415689 0
5.1555328 -2.1633887 -0.6864928 0
5.1238527 -2.1299188 -0.68131965 0
5.1326241 -2.1134107 -0.68154001 0
5.1420836 -2.0971699 -0.68185854 0
5.1675715 -2.0873847 -0.68430644 0
5.2103915 -2.0843887 -0.68904746 0
5.2698588 -2.0877092 -0.6959821 0
5.3195806 -2.0867994 -0.70162082 0
5.3526521 -2.079092 -0.70505935 0
5.4002976 -2.0767877 -0.71041417 0
5.4674225 -2.0815864 -0.71832234 0
9.1543541 -3.4501977 -1.2011931 0
9.1524086 -3.4144633 -1.1994289 0
9.1585798 -3.3818283 -1.198745 0
9.1975698 -3.3612263 -1.2023665 0
9.1922932 -3.3244045 -1.200213 0
9.1845913 -3.286839 -1.1977615 0
9.2242002 -3.2661676 -1.2014922 0
9.2247219 -3.2315869 -1.200142 0
9.2440538 -3.2036028 -1.2012531 0
9.2128601 -3.1582334 -1.1958166 0
9.2458763 -3.1349485 -1.1987311 0
9.2806587 -3.1120875 -1.2018811 0
9.271616 -3.0745125 -1.1993684 0
9.2691259 -3.0392296 -1.1977212 0
9.2882013 -3.0110323 -1.1988748 0
9.2940855 -2.9785411 -1.1983386 0
9.3234854 -2.9535294 -1.2008457 0
9.3148727 -2.9164724 -1.1984704 0
9.3285627 -2.8864512 -1.1989797 0
9.3324909 -2.8534164 -1.1982483 0
9.3409882 -2.8218029 -1.1981177 0
9.3742018 -2.7975726 -1.2011681 0
9.35917 -2.7589467 -1.19805 0
9.3806133 -2.7311165 -1.199616 0
9.403863 -2.7037168 -1.2014232 0
9.4003973 -2.6686301 -1.1998305 0
9.4133215 -2.6382267 -1.2003443 0
9.4082813 -2.602824 -1.1985822 0
9.443903 -2.5786228 -1.2020119 0
9.4199142 -2.538166 -1.1978688 0
9.4366922 -2.5087805 -1.198926 0
9.4548626 -2.4797006 -1.2001716 0
9.4768772 -2.451544 -1.2019159 0
9.4845781 -2.4196374 -1.2018569 0
9.4869299 -2.3863881 -1.2011343 0
9.4892159 -2.3531628 -1.2004181 0
9.5157194 -2.3258967 -1.2027776 0
9.4747982 -2.2822566 -1.1966312 0
9.5108013 -2.2572181 -1.2002157 0
9.5082273 -2.2229588 -1.1989436 0
9.506834 -2.1890423 -1.1978357 0
9.532876 -2.1614079 -1.2001971 0
9.5465946 -2.1308904 -1.201018 0
9.5425596 -2.0964262 -1.1996193 0
9.5568132 -2.0659935 -1.2005336 0
9.5469971 -2.0303903 -1.1984386 0
9.5500803 -1.9976019 -1.1979783 0
9.5865917 -1.971714 -1.2017223 0
9.5845556 -1.9378234 -1.2006458 0
9.5850267 -1.9044907 -1.1998981 0
9.5924101 -1.8725487 -1.2000297 0
9.5834198 -1.8374594 -1.1981276 0
9.5864363 -1.8047359 -1.1977415 0
9.6096754 -1.7757704 -1.1998944 0
9.6208992 -1.7445064 -1.2005588 0
9.6181488 -1.7107196 -1.1994931 0
9.6118488 -1.6763724 -1.1979996 0
9.6401911 -1.6480299 -1.2008368 0
9.6256332 -1.6123438 -1.1983432 0
9.6540661 -1.5838486 -1.2012151 0
9.6708174 -1.5533178 -1.2026447 0
9.6486425 -1.5165892 -1.199248 0
9.6634693 -1.4857366 -1.2004648 0
9.6763906 -1.4545302 -1.2014575 0
9.6551456 -1.41825 -1.1982225 0
9.6527719 -1.384855 -1.1973449 0
9.6831818 -1.3560995 -1.2005464 0
9.6869869 -1.323532 -1.200461 0
9.7044106 -1.2927831 -1.2020764 0
9.6878738 -1.2575368 -1.1994991 0
9.7052088 -1.2267132 -1.2011293 0
9.7062683 -1.1937976 -1.2007583 0
9.7225065 -1.1627175 -1.2022781 0
9.6921282 -1.1261369 -1.198048 0
9.7237978 -1.0967871 -1.2015014 0
9.708045 -1.0620592 -1.1991081 0
9.7166815 -1.0300479 -1.1997416 0
9.6998711 -0.99539 -1.1972471 0
9.7415791 -0.96667558 -1.2019883 0
9.7436972 -0.93390602 -1.2018565 0
9.74473 -0.90104312 -1.2016046 0
9.7168684 -0.86561948 -1.1978043 0
9.7281809 -0.83376127 -1.1988475 0
9.7419901 -0.80205107 -1.2002112 0
9.7275581 -0.76803607 -1.1981091 0
9.7570639 -0.73745674 -1.2014321 0
9.7642918 -0.70508635 -1.2020242 0
9.7326412 -0.67000669 -1.1978446 0
9.74125 -0.6377914 -1.1986343 0
9.7414494 -0.60501015 -1.1984023 0
9.7728748 -0.57407558 -1.2020248 0
9.7351761 -0.53911453 -1.1971591 0
9.7436934 -0.50682312 -1.1979907 0
9.7929335 -0.47646725 -1.2038416 0
9.7516146 -0.44168937 -1.1985735 0
9.765439 -0.40951148 -1.2000972 0
9.7572832 -0.37640202 -1.198933 0
9.7632685 -0.34385389 -1.1995201 0
9.7624893 -0.31105772 -1.1992894 0
9.7821875 -0.27885756 -1.2015877 0
9.7809906 -0.24600592 -1.2013326 0
9.7962742 -0.21352708 -1.2031151 0
9.7458849 -0.17973933 -1.1968459 0
9.7591667 -0.14725435 -1.1984096 0
9.7863436 -0.11484665 -1.2016928 0
9.7755785 -0.081941247 -1.2003305 0
9.7662811 -0.049117252 -1.1991619 0
9.7853994 -0.016404344 -1.2014958 0
9.7603636 0.016362375 -1.1984218 0
9.7467279 0.049018916 -1.1967611 0
9.778677 0.081967212 -1.2007109 0
9.765089 0.11459723 -1.199083 0
9.749918 0.14711478 -1.1972739 0
9.7833939 0.1804311 -1.2014523 0
9.7703781 0.21296264 -1.1999347 0
9.7483578 0.24518517 -1.1973245 0
9.7573948 0.2781508 -1.1985424 0
9.754529 0.3108041 -1.1983116 0
9.7671633 0.34399104 -1.1999986 0
9.7691593 0.37686017 -1.2003924 0
9.7955999 0.41077629 -1.2038038 0
9.7701588 0.44252932 -1.2008529 0
9.7738791 0.47554019 -1.2014992 0
9.7294111 0.50608021 -1.1962346 0
9.7705507 0.5410735 -1.2015091 0
9.7401047 0.57215059 -1.1979942 0
9.7863913 0.60780138 -1.2039312 0
9.7497206 0.63834602 -1.1996765 0
9.7325993 0.67000377 -1.1978394 0
9.72824 0.702483 -1.1975861 0
9.736495 0.73590207 -1.1988993 0
9.7758379 0.77184796 -1.2040557 0
9.7346439 0.80144632 -1.1993061 0
9.7270584 0.83366507 -1.1987092 0
9.7295504 0.86674923 -1.1993678 0
9.7435493 0.90093386 -1.2014589 0
9.7171402 0.93136066 -1.1985809 0
9.7303543 0.96556169 -1.2006034 0
9.7336855 0.99886 -1.2014208 0
9.7271872 1.0311615 -1.2010387 0
9.6906595 1.0601572 -1.1969607 0
9.7165022 1.0959642 -1.2005998 0
9.7081814 1.1280022 -1.2000324 0
9.7216396 1.1626137 -1.202171 0
9.702322 1.1933123 -1.2002702 0
9.6762915 1.2230581 -1.1975505 0
9.6665668 1.254771 -1.1968609 0
9.7009888 1.2923273 -1.2016525 0
9.6949949 1.3246261 -1.2014534 0
9.6952076 1.3577837 -1.2020373 0
9.6738005 1.387872 -1.1999534 0
9.6359901 1.4154361 -1.1958452 0
9.6728029 1.4539909 -1.201012 0
9.6449394 1.4828876 -1.1981629 0
9.6571598 1.5179279 -1.2003067 0
9.6562729 1.5509816 -1.2008359 0
9.6444111 1.5822645 -1.2000138 0
9.656003 1.617431 -1.2021241 0
9.6431761 1.6485403 -1.2012087 0
9.6324949 1.6799732 -1.200573 0
9.6079941 1.7089133 -1.1982266 0
9.6200905 1.7443596 -1.2004578 0
9.6099396 1.7758192 -1.1999273 0
9.6164017 1.8103771 -1.2014854 0
9.5998678 1.840613 -1.200184 0
9.595686 1.873188 -1.2004396 0
9.6003447 1.9075344 -1.2018157 0
9.5718517 1.9352551 -1.1990544 0
9.5928383 1.9729987 -1.2025054 0
9.5714359 2.0020688 -1.2006571 0
9.548934 2.0308022 -1.1986817 0
9.5566635 2.0659611 -1.2005148 0
9.5404768 2.0959687 -1.1993575 0
9.5316982 2.1275654 -1.199144 0
9.5510025 2.1655178 -1.2024792 0
9.5372257 2.1960404 -1.201665 0
9.5048704 2.2221739 -1.1985203 0
9.5016937 2.2550564 -1.1990664 0
9.4876251 2.2853465 -1.1982512 0
9.5099716 2.3244917 -1.202051 0
9.4750824 2.349658 -1.1986301 0
9.4784727 2.3842609 -1.2000636 0
9.4848051 2.4196954 -1.2018857 0
9.4521313 2.4451425 -1.1987774 0
9.4244633 2.4717276 -1.1963127 0
9.4414625 2.5100489 -1.1995322 0
9.4542646 2.5474215 -1.202237 0
9.4480124 2.5797451 -1.202535 0
9.4374828 2.6109025 -1.2023023 0
9.4151773 2.6387467 -1.2005811 0
9.4021502 2.6691277 -1.2000543 0
9.3858328 2.6985331 -1.1991197 0
9.3729601 2.7288885 -1.1986372 0
9.375576 2.7637827 -1.2001501 0
9.3734751 2.7973559 -1.201075 0
9.3720512 2.8311868 -1.2021021 0
9.3380518 2.8551166 -1.1989622 0
9.333621 2.8880165 -1.1996299 0
9.3245001 2.9194865 -1.1997089 0
9.3162632 2.9512417 -1.1999155 0
9.286561 2.9761298 -1.1973685 0
9.2608252 3.0021577 -1.1953413 0
9.3009052 3.04965 -1.2018276 0
9.2861872 3.0793443 -1.2012532 0
9.2799053 3.111835 -1.2017835 0
9.2680731 3.1424744 -1.2016089 0
4.7277908 1.6207199 -0.61366075 0
4.7146564 1.6339028 -0.61266357 0
4.6651859 1.634299 -0.60694361 0
4.5974836 1.6279082 -0.5988422 0
4.5271831 1.620118 -0.59038949 0
4.5269799 1.6371881 -0.59107554 0
4.4513288 1.6267257 -0.5819068 0
4.457407 1.6459085 -0.5834195 0
4.4494238 1.6599339 -0.58309978 0
4.4508286 1.6774791 -0.58401769 0
4.4394903 1.6902267 -0.58327025 0
4.4497776 1.711247 -0.58537233 0
4.4454165 1.7267009 -0.58555692 0
4.4456124 1.7439536 -0.58634961 0
4.4500074 1.7629166 -0.58770561 0
4.4571519 1.7830592 -0.5894354 0
4.4696589 1.8054703 -0.59188658 0
4.4449615 1.8128526 -0.5894177 0
4.4594793 1.8362364 -0.59215587 0
9.0101109 3.7453856 -1.1980761 0
9.0079622 3.779963 -1.199469 0
9.0140162 3.8180974 -1.2019728 0
8.9884806 3.8428757 -1.2002791 0
8.9817343 3.8756611 -1.2011068 0
8.9403791 3.8934247 -1.1973153 0
8.952364 3.9344044 -1.2006803 0
8.9363937 3.9631877 -1.2003138 0
8.8861532 3.9766135 -1.1953497 0
8.9299927 4.0322227 -1.2030588 0
8.8756657 4.0435724 -1.1975596 0
8.8869028 4.0847273 -1.2009169 0
8.8784742 4.1169658 -1.2016364 0
8.8307667 4.1308742 -1.1970472 0
8.8351622 4.1690917 -1.1995312 0
8.8387337 4.207068 -1.2019244 0
8.8072462 4.2283578 -1.1995637 0
8.7907085 4.2567434 -1.1992484 0
8.7701492 4.2831469 -1.198396 0
8.7923603 4.330565 -1.2034084 0
8.760314 4.3513384 -1.2010124 0
8.7330685 4.3743706 -1.199281 0
8.7227144 4.4058294 -1.199881 0
8.7232065 4.4428496 -1.201991 0
8.6889009 4.4621296 -1.1993186 0
8.686924 4.4979844 -1.2011206 0
8.6855431 4.5342627 -1.203025 0
8.6365299 4.5455885 -1.1983405 0
8.615427 4.5714345 -1.1975323 0
8.5850306 4.5922599 -1.1954406 0
8.5921574 4.6331897 -1.1985894 0
8.5738544 4.6604929 -1.1982093 0
8.5701571 4.695775 -1.1998861 0
8.5594416 4.7272868 -1.2005981 0
8.5435104 4.75594 -1.2005936 0
8.5006695 4.7694945 -1.1968136 0
8.4824533 4.7967381 -1.1965066 0
8.5137348 4.8521719 -1.203207 0
8.4738407 4.8671474 -1.1998686 0
8.4583015 4.8960099 -1.1999859 0
8.4602585 4.9350863 -1.2026042 0
8.4215574 4.950429 -1.1994555 0
8.4097996 4.9815321 -1.200153 0
8.4147596 5.0226588 -1.2032573 0
8.3756771 5.0374947 -1.2000772 0
8.364872 5.0692644 -1.2009575 0
8.3474932 5.0970769 -1.2009093 0
8.3246346 5.1215153 -1.2000843 0
8.2950754 5.141748 -1.1983017 0
8.2883587 5.1761308 -1.1998316 0
8.2836628 5.211885 -1.2016747 0
8.2492132 5.228899 -1.1992137 0
8.2467422 5.2661743 -1.2014145 0
8.2059345 5.2789311 -1.1980413 0
8.19561 5.311224 -1.1991272 0
8.1994495 5.3528337 -1.2023079 0
8.1595898 5.3659153 -1.1990947 0
8.1408587 5.3927822 -1.1989923 0
8.1359215 5.4288483 -1.2009393 0
8.1279202 5.4629827 -1.2024552 0
8.1157732 5.4944105 -1.2033767 0
8.0927086 5.5184555 -1.2026933 0
8.0572014 5.5339098 -1.2001672 0
8.0317087 5.5561247 -1.199138 0
8.0011368 5.5747318 -1.1973574 0
7.9885058 5.6058111 -1.1982733 0
7.9731493 5.6350255 -1.198797 0
7.9547224 5.6620903 -1.1988741 0
7.9472914 5.6970429 -1.2006261 0
7.9383531 5.7310257 -1.2021719 0
7.892179 5.7380414 -1.1980861 0
7.904664 5.7877302 -1.2029206 0
7.8714271 5.8040342 -1.2008172 0
7.843008 5.8237734 -1.1994538 0
7.8209343 5.8481646 -1.1990701 0
7.8069129 5.8785934 -1.1999354 0
7.7755165 5.8959074 -1.1981415 0
7.7571115 5.923018 -1.1983587 0
7.7399745 5.9511189 -1.198787 0
7.7222161 5.9787688 -1.1991345 0
7.703372 6.0055971 -1.1993283 0
7.6771083 6.0266147 -1.1983786 0
7.6705856 6.0631709 -1.2005268 0
7.6352935 6.0769796 -1.1981854 0
7.6184778 6.105432 -1.1987523 0
7.5971932 6.1303186 -1.1986306 0
7.5842361 6.161963 -1.1998391 0
7.5528736 6.1786366 -1.1981481 0
7.5520859 6.2203741 -1.2013248 0
7.5221038 6.2381263 -1.1998758 0
7.5096307 6.2703958 -1.2012329 0
7.5109148 6.3143282 -1.2048181 0
7.4553537 6.3104019 -1.1992928 0
7.4478612 6.347044 -1.201504 0
7.3790889 6.3312674 -1.1938273 0
7.4050946 6.3968101 -1.2014977 0
7.3738294 6.4130998 -1.1999069 0
7.3608036 6.4452448 -1.2012969 0
7.3360996 6.4671969 -1.2007973 0
7.3004584 6.4794054 -1.1985126 0
7.2834606 6.5081058 -1.1992975 0
7.2782559 6.5474739 -1.2020485 0
7.2550368 6.5707293 -1.2018454 0
7.2360201 6.5978026 -1.202353 0
7.2007694 6.6100116 -1.2001715 0
7.1725988 6.6286016 -1.1991737 0
7.14891 6.6512876 -1.1989348 0
7.1459355 6.6933589 -1.2021929 0
7.1118827 6.7063689 -1.2002401 0
