# .PCD v0.7 - Point Cloud Data file format
VERSION 0.7
FIELDS x y z intensity
SIZE 4 4 4 4
TYPE F F F F
COUNT 1 1 1 1
WIDTH 1419
HEIGHT 1
VIEWPOINT 0 0 0 1 0 0 0
POINTS 1419
DATA ascii
4.5977268 -6.0005383 -1.1973002 0
4.6356554 -6.0082064 -1.2019248 0
4.6637998 -6.0029607 -1.2039967 0
4.6666274 -5.9652104 -1.1995567 0
4.6842432 -5.9465365 -1.198953 0
4.6911592 -5.9144144 -1.1956409 0
4.7167978 -5.9059587 -1.197122 0
4.7487335 -5.9052329 -1.2001953 0
4.7654858 -5.8855486 -1.1994352 0
4.7912183 -5.8769293 -1.2009457 0
4.8054905 -5.8542476 -1.1995965 0
4.8373146 -5.8528914 -1.2026353 0
4.8576045 -5.8374734 -1.2028069 0
4.8685441 -5.8108835 -1.2006848 0
4.8790879 -5.7839632 -1.1984957 0
4.9062567 -5.7767601 -1.200405 0
4.9266496 -5.761508 -1.2006614 0
4.9525084 -5.7525883 -1.2022562 0
4.9621325 -5.7248344 -1.1999261 0
4.9807386 -5.7075233 -1.1997912 0
5.0036693 -5.6951427 -1.2007085 0
5.0270462 -5.683207 -1.2017388 0
5.0439153 -5.663898 -1.2012252 0
5.0605721 -5.6443839 -1.2006782 0
5.088038 -5.636879 -1.202704 0
5.1141143 -5.6277175 -1.2044009 0
5.0981431 -5.5724888 -1.1962327 0
5.1330142 -5.5729709 -1.2000239 0
5.1586933 -5.563303 -1.2016598 0
5.1589403 -5.5262904 -1.1973945 0
5.1833568 -5.5152583 -1.198763 0
5.2004995 -5.4964533 -1.1984588 0
5.2348371 -5.495719 -1.2021189 0
5.234509 -5.4586101 -1.197834 0
5.2509646 -5.4391475 -1.1974196 0
5.2812781 -5.4339681 -1.200171 0
5.2813101 -5.3976727 -1.1960588 0
5.3030324 -5.3836451 -1.1968836 0
5.3261108 -5.3709354 -1.1980214 0
5.3434453 -5.3524036 -1.1978772 0
5.3618646 -5.334959 -1.1979897 0
5.3818946 -5.3190994 -1.1984736 0
5.4084725 -5.309639 -1.200421 0
5.4354229 -5.300426 -1.2024515 0
5.4583416 -5.2871881 -1.2035933 0
5.4657364 -5.2589455 -1.2013291 0
5.4699936 -5.2278371 -1.1984056 0
5.49437 -5.2159982 -1.1999079 0
5.5244522 -5.2094526 -1.2026563 0
5.5353327 -5.184761 -1.2012339 0
5.5592608 -5.1722908 -1.2026564 0
5.5445809 -5.1240587 -1.1957573 0
5.5666237 -5.1099324 -1.1968094 0
5.5904064 -5.097332 -1.1982416 0
5.6131206 -5.0836816 -1.1994499 0
5.654367 -5.0866332 -1.2046126 0
5.6344309 -5.0346222 -1.1967626 0
5.6556497 -5.0195818 -1.197688 0
5.6922479 -5.0180464 -1.2018687 0
5.7102003 -4.9999485 -1.2021129 0
5.716764 -4.9719319 -1.1999786 0
5.730628 -4.9503407 -1.1993979 0
5.7564664 -4.9390554 -1.2013332 0
5.7687469 -4.9161081 -1.2004495 0
5.7682238 -4.8823724 -1.1969274 0
5.769352 -4.8502188 -1.1937803 0
5.8249021 -4.8636799 -1.2018937 0
5.8589697 -4.8588791 -1.205555 0
5.8564792 -4.8237653 -1.2017078 0
5.8532052 -4.7882209 -1.1977352 0
5.8803716 -4.7776241 -1.2000095 0
5.9041696 -4.7641859 -1.2015995 0
5.9291029 -4.7515707 -1.2034248 0
5.9344478 -4.7232656 -1.2012887 0
5.9375758 -4.6933231 -1.1987298 0
5.9620013 -4.6802368 -1.2004862 0
5.9706326 -4.6547427 -1.1990749 0
5.982914 -4.6321497 -1.1984156 0
5.9995217 -4.6129179 -1.1986375 0
6.0336928 -4.6070848 -1.2023717 0
6.0109625 -4.5579066 -1.19479 0
6.0399714 -4.548089 -1.1975183 0
6.0590143 -4.5306754 -1.1982754 0
6.0803113 -4.5148945 -1.1994867 0
6.1043396 -4.5010643 -1.201243 0
6.1105523 -4.4740963 -1.1995069 0
6.1262741 -4.4541326 -1.1996548 0
6.1534491 -4.4424295 -1.2020528 0
6.1622572 -4.4174347 -1.2008734 0
6.2049251 -4.4166021 -1.2062958 0
6.1953807 -4.3785872 -1.2015796 0
6.1985455 -4.3497338 -1.1993581 0
6.2081423 -4.3254766 -1.1984022 0
6.2235456 -4.305285 -1.1985823 0
6.2485714 -4.2916923 -1.200624 0
6.2730508 -4.2776227 -1.2025651 0
6.2679057 -4.2433972 -1.1988446 0
6.2789788 -4.2202616 -1.1982493 0
6.3324513 -4.2254486 -1.2057434 0
6.3051839 -4.1767693 -1.1978784 0
6.3116736 -4.1506872 -1.1964606 0
6.348917 -4.1447535 -1.2008795 0
6.3557611 -4.118896 -1.1995552 0
6.3906345 -4.1111369 -1.2035288 0
6.3822732 -4.0755687 -1.199374 0
6.4003243 -4.0569506 -1.2002032 0
6.4269171 -4.0436645 -1.2026408 0
6.4232421 -4.0113544 -1.1994298 0
6.4511366 -3.9987721 -1.2021282 0
6.4808545 -3.9871771 -1.205168 0
6.4533186 -3.9404714 -1.1975839 0
6.4856758 -3.9304371 -1.2011364 0
6.470448 -3.891607 -1.195893 0
6.5210567 -3.8923323 -1.2028279 0
6.5348616 -3.8709154 -1.2029737 0
6.5219059 -3.8337603 -1.1982157 0
6.5292869 -3.8087008 -1.1972189 0
2.0856557 -1.2072626 -0.38168433 0
2.0948503 -1.203226 -0.38262656 0
6.5823331 -3.7514219 -1.1999657 0
6.6091738 -3.7374182 -1.2025677 0
6.5904388 -3.6977162 -1.1968962 0
6.6220865 -3.6863356 -1.2003924 0
6.6418018 -3.6681952 -1.20173 0
6.6397552 -3.6380663 -1.199146 0
6.6371803 -3.6077743 -1.1964896 0
6.6801052 -3.6021447 -1.2020438 0
6.6733184 -3.5696568 -1.1986622 0
6.7055082 -3.558012 -1.2022946 0
6.7086291 -3.5308933 -1.2007247 0
6.7135715 -3.5048003 -1.1994994 0
6.7134008 -3.4761181 -1.1973798 0
6.7436361 -3.463151 -1.2006948 0
6.7391238 -3.4323289 -1.1978357 0
6.7621269 -3.4155397 -1.1998821 0
6.7656684 -3.3889055 -1.1984876 0
6.7871175 -3.3712313 -1.200278 0
6.7989445 -3.3487332 -1.2003773 0
6.8253579 -3.3333538 -1.2030607 0
6.8397593 -3.3120313 -1.2036351 0
6.8339944 -3.2809997 -1.200678 0
6.8543105 -3.2625206 -1.2023188 0
6.8735213 -3.2434425 -1.2037742 0
6.8588762 -3.2084591 -1.1993188 0
6.8672743 -3.1843684 -1.1989136 0
6.8924441 -3.1680052 -1.2014467 0
6.9019303 -3.1443787 -1.2012558 0
6.8922977 -3.1121278 -1.1977564 0
5.155786 -2.3072491 -0.89463288 0
5.1308866 -2.2754891 -0.88898343 0
5.1505575 -2.2635782 -0.89107168 0
5.1278005 -2.2330937 -0.88583428 0
5.1365938 -2.2164648 -0.88606453 0
5.1261549 -2.1916025 -0.88299137 0
5.1330795 -2.1742361 -0.88292348 0
5.130743 -2.1529863 -0.88127506 0
5.1509976 -2.1412027 -0.88351595 0
5.1470437 -2.119348 -0.88161397 0
5.1600609 -2.1045017 -0.88263005 0
5.1693845 -2.0881169 -0.88302237 0
5.2178769 -2.0873833 -0.89010525 0
5.2463312 -2.0783885 -0.89376545 0
5.3106632 -2.0833013 -0.90353 0
5.3867021 -2.0923178 -0.91526824 0
5.4104424 -2.080689 -0.91811144 0
5.4474125 -2.0739682 -0.92319983 0
7.1024723 -2.676861 -1.2021632 0
7.0966992 -2.6475456 -1.1996769 0
7.1049247 -2.6235111 -1.1995736 0
7.1173253 -2.6010067 -1.2001882 0
7.1143265 -2.5729051 -1.1982211 0
7.1367435 -2.5539873 -1.2005477 0
7.1245575 -2.5227118 -1.1970681 0
7.1184311 -2.4937153 -1.1946273 0
7.1474009 -2.4769905 -1.1980885 0
7.1713529 -2.4583902 -1.2007151 0
7.1751671 -2.4328444 -1.1999812 0
7.172689 -2.405221 -1.1982113 0
7.1927838 -2.3851616 -1.2002256 0
7.203505 -2.3619387 -1.2006863 0
7.2393231 -2.3468308 -1.2053382 0
7.2050323 -2.3090475 -1.1983331 0
7.2138281 -2.285224 -1.1985149 0
7.2320161 -2.264333 -1.2002686 0
7.2753644 -2.2511492 -1.2062036 0
7.2412901 -2.21403 -1.1993169 0
7.2714281 -2.1966131 -1.2030818 0
7.26088 -2.1668875 -1.2001278 0
7.2865524 -2.147969 -1.203174 0
7.2973046 -2.1245723 -1.2037663 0
7.2801147 -2.0931151 -1.1997663 0
7.2947645 -2.070873 -1.2010297 0
7.2969732 -2.0450878 -1.2002577 0
7.3004212 -2.0196793 -1.1997042 0
7.2955222 -1.9920155 -1.1977948 0
7.3100343 -1.9696655 -1.1990864 0
7.3288379 -1.9483995 -1.2010926 0
7.3076468 -1.9165561 -1.1965598 0
7.340673 -1.8989359 -1.2009182 0
7.3514266 -1.8754431 -1.201642 0
7.3064165 -1.8378912 -1.1932708 0
7.3458614 -1.8216476 -1.1987088 0
7.3410068 -1.7943387 -1.1969281 0
7.3762364 -1.7767625 -1.2016941 0
7.3583589 -1.7463744 -1.1978209 0
7.3870783 -1.7270486 -1.2015467 0
7.4132757 -1.7069799 -1.2048701 0
7.4086299 -1.6797733 -1.2031929 0
7.4019575 -1.6521871 -1.201203 0
7.3799925 -1.621327 -1.1967494 0
7.4164314 -1.6032854 -1.2017801 0
7.4367032 -1.5815874 -1.2041988 0
7.4043608 -1.5487791 -1.1981143 0
7.4346499 -1.5291152 -1.202179 0
7.4241009 -1.5010188 -1.1996527 0
7.4232821 -1.4749644 -1.1987146 0
7.4277935 -1.4499906 -1.1986513 0
7.4459581 -1.4276371 -1.2008034 0
7.4509854 -1.4027174 -1.2008489 0
7.4492502 -1.3765457 -1.1998186 0
7.4593086 -1.3525567 -1.2007016 0
7.4454637 -1.3242778 -1.1977516 0
7.4547439 -1.3001585 -1.1985365 0
7.4578114 -1.2749432 -1.1983356 0
7.4806676 -1.2530509 -1.2013265 0
7.4982166 -1.2301594 -1.2034755 0
7.4742808 -1.2005122 -1.198981 0
7.4861784 -1.1766895 -1.2002499 0
7.4828844 -1.1504766 -1.1990966 0
7.5043364 -1.1280326 -1.2019213 0
7.491447 -1.1004229 -1.1992593 0
7.4955163 -1.0753598 -1.1993269 0
7.5039682 -1.0509074 -1.2001086 0
7.5078292 -1.0257939 -1.2001693 0
7.5310087 -1.0032512 -1.2033302 0
7.495008 -0.97289133 -1.19705 0
7.5045381 -0.9485541 -1.1980574 0
7.5089021 -0.92353821 -1.1982529 0
7.5235314 -0.89974135 -1.2000993 0
7.5004044 -0.87147856 -1.1959375 0
7.5349541 -0.84989846 -1.2009853 0
7.5299582 -0.82377672 -1.1997421 0
7.5400171 -0.79930359 -1.200911 0
7.5419474 -0.77394629 -1.2007984 0
7.5471954 -0.74892265 -1.2012274 0
7.5190506 -0.72067994 -1.1963565 0
7.542407 -0.69740605 -1.199694 0
7.5243587 -0.6703015 -1.1964591 0
7.5529981 -0.64733553 -1.2006611 0
7.5701785 -0.62324744 -1.2030534 0
7.5465951 -0.5958389 -1.1989812 0
7.5359778 -0.569583 -1.1969843 0
7.5623956 -0.54608583 -1.2008828 0
7.5610394 -0.52051103 -1.2003835 0
7.5823689 -0.49644238 -1.2034987 0
7.5561213 -0.46928647 -1.1990762 0
7.568409 -0.44458145 -1.2007828 0
7.5868177 -0.42014277 -1.2034732 0
7.5264392 -0.39149153 -1.1936806 0
7.5315156 -0.36643982 -1.1942842 0
7.5646687 -0.3426339 -1.1993524 0
7.5665956 -0.31730348 -1.1994824 0
7.6004581 -0.29319921 -1.2046878 0
7.5725594 -0.26669899 -1.2001173 0
7.55198 -0.24062528 -1.1967213 0
7.6076746 -0.21686944 -1.2054249 0
7.5659795 -0.19029522 -1.1987106 0
7.5729289 -0.16506535 -1.1997172 0
7.5615654 -0.13945483 -1.1978362 0
7.5836058 -0.11442769 -1.2012601 0
7.5869651 -0.08903607 -1.2017381 0
7.6021671 -0.063723192 -1.2041055 0
7.5863185 -0.038153633 -1.2015682 0
7.570353 -0.012691018 -1.199026 0
7.5818653 0.012710317 -1.2008494 0
7.5702772 0.038072959 -1.1990274 0
7.5901136 0.063622154 -1.2021964 0
7.5821033 0.088979013 -1.2009681 0
7.5766191 0.11432227 -1.2001534 0
7.5993533 0.14015174 -1.2038223 0
7.5867801 0.16536726 -1.2019116 0
7.6024361 0.19121216 -1.2044866 0
7.5754237 0.21595009 -1.2003149 0
7.5773587 0.24143392 -1.200743 0
7.5596905 0.26624575 -1.1980779 0
7.6110115 0.29360634 -1.2063606 0
7.5788069 0.31781554 -1.2014183 0
7.569633 0.34285873 -1.2001394 0
7.5605707 0.36785343 -1.1988914 0
7.5956159 0.39508981 -1.204652 0
7.5818543 0.4198679 -1.2026858 0
7.5511703 0.44356883 -1.1980478 0
7.5641642 0.46978599 -1.2003524 0
7.5605392 0.49501312 -1.2000339 0
7.5602274 0.52045512 -1.2002546 0
7.5616789 0.5460341 -1.2007689 0
7.5861812 0.57337743 -1.2049583 0
7.5498753 0.59609789 -1.1995023 0
7.5588799 0.62231719 -1.2012577 0
7.5526571 0.64730632 -1.2006069 0
7.5700307 0.67437017 -1.2037214 0
7.5335331 0.69658554 -1.1982825 0
7.5695586 0.72552097 -1.2043929 0
7.5217962 0.74640226 -1.1971848 0
7.5277939 0.77249384 -1.198545 0
7.5302038 0.79826331 -1.1993481 0
7.5457511 0.82550448 -1.2022583 0
7.5244951 0.84871876 -1.1993183 0
7.5198169 0.87373412 -1.1990328 0
7.5419478 0.9019438 -1.203037 0
7.5336561 0.92658275 -1.2022032 0
7.5164242 0.95005649 -1.199955 0
7.4616737 0.96856433 -1.1917261 0
7.5140481 1.0009918 -1.2006202 0
7.4894323 1.0232804 -1.1972286 0
7.498198 1.0500993 -1.1991857 0
7.5189466 1.0787214 -1.2030758 0
7.4731436 1.0977343 -1.1963292 0
7.4876227 1.1255202 -1.1992444 0
7.494072 1.1521966 -1.2008893 0
7.4655814 1.173452 -1.1969476 0
7.4996576 1.2045881 -1.2030518 0
7.4907374 1.2289324 -1.2022752 0
7.4486661 1.2476906 -1.1961873 0
7.4613748 1.2755524 -1.1989082 0
7.4497271 1.2992835 -1.1977298 0
7.4766407 1.329823 -1.202767 0
7.4357595 1.3482866 -1.196911 0
7.4466949 1.3760736 -1.1994071 0
7.4364557 1.399982 -1.1985072 0
7.4645615 1.431204 -1.2038035 0
7.4132991 1.4471611 -1.1963122 0
7.4047294 1.471278 -1.1957186 0
7.4231963 1.5008358 -1.1995065 0
7.4313655 1.5284398 -1.201648 0
7.393436 1.546494 -1.1963465 0
7.3868556 1.5709862 -1.1961273 0
7.3888407 1.5973208 -1.1973091 0
7.3958359 1.6248077 -1.1993186 0
7.3626862 1.6434213 -1.1948298 0
7.3773746 1.6726868 -1.1981169 0
7.3780389 1.6988662 -1.1991432 0
7.3840179 1.726333 -1.2010489 0
7.3784795 1.7511497 -1.2010963 0
7.371892 1.7757159 -1.2009864 0
7.3729472 1.8021458 -1.2021359 0
7.3775406 1.8295035 -1.2038782 0
7.3367591 1.8455238 -1.1982263 0
7.3278484 1.869428 -1.197788 0
7.3310332 1.8964424 -1.1993412 0
7.3521791 1.9282355 -1.2038515 0
7.3005676 1.9408838 -1.1964594 0
7.3089433 1.9693716 -1.1989075 0
7.3535132 2.0078497 -1.2073159 0
7.3197522 2.0250273 -1.2028809 0
7.2767844 2.0394297 -1.1969368 0
7.2816658 2.0671544 -1.198873 0
7.2516294 2.0849254 -1.1950719 0
7.2870398 2.1215837 -1.2020731 0
7.2476683 2.1365066 -1.1967534 0
7.2638888 2.1677854 -1.2006251 0
7.2641902 2.1944265 -1.2018843 0
7.2511277 2.2170379 -1.2009461 0
7.2278247 2.2364392 -1.1983218 0
7.2393198 2.2666199 -1.2014809 0
7.1884394 2.2771814 -1.1942968 0
7.2049184 2.309011 -1.1983142 0
7.2026815 2.3349524 -1.1992375 0
7.2491364 2.3769007 -1.2082922 0
7.1778989 2.3802259 -1.1977419 0
7.2166967 2.4199784 -1.2055629 0
7.1765652 2.4333186 -1.2002151 0
4.765007 1.6334779 -0.79781538 0
4.7061777 1.6309645 -0.78887659 0
4.635077 1.6237513 -0.77786648 0
4.59761 1.6279529 -0.77249038 0
4.5414338 1.6252179 -0.76396292 0
4.4944825 1.6254351 -0.75697726 0
4.4402924 1.6226925 -0.74876249 0
4.4592185 1.6465776 -0.75288075 0
4.448966 1.6597631 -0.75208503 0
4.4436131 1.6747597 -0.75212514 0
4.4204288 1.6829693 -0.74915183 0
4.4702792 1.7191314 -0.75857288 0
4.4433317 1.7258912 -0.75497776 0
4.4346671 1.7396599 -0.75449234 0
4.43889 1.7585123 -0.75620967 0
4.4697371 1.788094 -0.76248187 0
4.4385386 1.7928996 -0.75818092 0
4.4572382 1.8178594 -0.76241201 0
4.4574108 1.8353846 -0.7634899 0
6.9966087 2.9083991 -1.2000811 0
6.9880381 2.9323528 -1.2002907 0
6.9695139 2.9521008 -1.1988024 0
6.9584217 2.9749577 -1.1986033 0
6.9592028 3.0029292 -1.2004654 0
6.9462352 3.0249996 -1.1999713 0
6.9478493 3.0534558 -1.2020119 0
6.917038 3.0676267 -1.198454 0
6.8915524 3.0840163 -1.1958233 0
6.8952713 3.1134706 -1.1982732 0
6.8998299 3.1434216 -1.2008902 0
6.9121828 3.177078 -1.2048874 0
6.8717237 3.1864316 -1.1996903 0
6.8547955 3.2065504 -1.1986052 0
6.8556118 3.2349916 -1.2006378 0
6.8398499 3.2556376 -1.1997823 0
6.8198442 3.2742064 -1.198192 0
6.8512187 3.3175805 -1.2056518 0
6.8101492 3.3259263 -1.2003801 0
6.815681 3.3569767 -1.2033323 0
6.7839189 3.3696425 -1.1997125 0
6.7637458 3.3879423 -1.1981471 0
6.7737985 3.4214349 -1.2019531 0
6.7484345 3.4370708 -1.1994905 0
6.7237363 3.4529314 -1.1971515 0
6.7179484 3.4784729 -1.1981909 0
6.7047024 3.5001702 -1.1979147 0
6.6886311 3.5203681 -1.1971455 0
6.7001171 3.5551515 -1.2013279 0
6.695457 3.5814991 -1.2026387 0
6.6891465 3.6070201 -1.2036707 0
6.6401129 3.6093683 -1.1970183 0
6.6236839 3.6292603 -1.1962434 0
6.6437521 3.6692724 -1.2020829 0
6.6312466 3.6914349 -1.2020528 0
6.6040969 3.7053792 -1.1993766 0
6.5817137 3.7218897 -1.1975712 0
6.6052084 3.7644591 -1.2041359 0
6.5669336 3.7718711 -1.1994572 0
6.5677366 3.8016739 -1.2019252 0
6.5516601 3.8217518 -1.2013214 0
6.5120416 3.8279617 -1.1964035 0
6.5152946 3.8593247 -1.1993716 0
6.5064387 3.8836071 -1.2001317 0
6.4961834 3.9070857 -1.2006496 0
6.4724984 3.9224515 -1.198696 0
6.4634719 3.9466712 -1.1994683 0
6.4441748 3.9646111 -1.1983472 0
6.4531512 4.000021 -1.2025036 0
6.4378929 4.0205035 -1.2021655 0
6.4181385 4.0381413 -1.2009981 0
6.4055276 4.0602484 -1.2011789 0
6.3786845 4.073277 -1.1986995 0
6.3704438 4.0981479 -1.1997263 0
6.3577623 4.1201935 -1.1999329 0
6.3435874 4.1412745 -1.1998714 0
6.322062 4.1575189 -1.1984298 0
6.3188992 4.1858544 -1.2004839 0
6.3125167 4.2121468 -1.2019477 0
6.2885208 4.226675 -1.2000703 0
6.2740726 4.2475724 -1.2000241 0
6.2443314 4.258039 -1.1970595 0
6.2395034 4.2854643 -1.1988816 0
6.2265358 4.307353 -1.1991582 0
6.2298226 4.3405824 -1.2025872 0
6.194346 4.346787 -1.1985455 0
6.2100959 4.3889871 -1.2044334 0
6.1847911 4.4022713 -1.2023816 0
6.1488514 4.407825 -1.1982609 0
6.1209044 4.4189343 -1.1956954 0
6.1169472 4.4473519 -1.1978284 0
6.1264834 4.4857607 -1.2026342 0
6.0905066 4.4908638 -1.1985209 0
6.0994773 4.5291262 -1.2032677 0
6.0701222 4.538981 -1.2004721 0
6.0620518 4.5647159 -1.2018962 0
6.044137 4.5830617 -1.2013841 0
6.0358157 4.608706 -1.2027947 0
6.0052857 4.6173496 -1.199789 0
5.9833927 4.6325202 -1.1985115 0
5.9820881 4.6636734 -1.2013755 0
5.9502454 4.6710081 -1.198119 0
5.9455285 4.6996093 -1.2003353 0
5.9337325 4.7226963 -1.2011439 0
5.9064379 4.7334065 -1.1988245 0
5.9011722 4.7617669 -1.2009895 0
5.8768721 4.7747812 -1.1992954 0
5.8636584 4.796772 -1.1998742 0
5.8385 4.8089566 -1.1980187 0
5.8276668 4.8329191 -1.1991138 0
5.8033118 4.8456526 -1.1974388 0
5.8091102 4.8836432 -1.2020071 0
5.7880926 4.8991895 -1.2010503 0
5.7395368 4.8912153 -1.194371 0
5.7471213 4.9310374 -1.1993829 0
5.7338724 4.9531431 -1.2000769 0
5.7119694 4.967762 -1.1989721 0
5.7160254 5.0050492 -1.2033392 0
5.6778178 5.0053253 -1.1988219 0
5.6629591 5.0260687 -1.1992359 0
5.6523499 5.0506339 -1.2005686 0
5.6368928 5.0709138 -1.2008899 0
5.6193848 5.0893545 -1.2007885 0
5.602005 5.1079078 -1.2007276 0
5.576508 5.1190062 -1.1989346 0
5.5580072 5.1364665 -1.1986527 0
5.5512824 5.1648679 -1.2009304 0
5.5179482 5.1684775 -1.1974611 0
5.5014668 5.187778 -1.1976525 0
5.5111723 5.2319493 -1.2035773 0
5.4928198 5.2496529 -1.2034065 0
5.470191 5.2632318 -1.2023082 0
5.4502783 5.2793775 -1.2018152 0
5.4348321 5.29985 -1.2023209 0
5.4194875 5.3204527 -1.2028658 0
5.3857131 5.3228736 -1.1993239 0
5.3580184 5.3311319 -1.1971303 0
5.3591537 5.3681383 -1.2013986 0
5.3332276 5.3781123 -1.1996222 0
5.31394 5.3947191 -1.1993455 0
5.2839456 5.4003663 -1.1966556 0
5.2793832 5.4320183 -1.1997403 0
5.2579603 5.446394 -1.199015 0
5.2468362 5.4714651 -1.2006549 0
5.2340479 5.4948907 -1.2019377 0
5.2086291 5.5050459 -1.2003323 0
5.1836548 5.5155754 -1.1988319 0
5.1691175 5.5371923 -1.1997567 0
5.1633348 5.5683088 -1.2027409 0
5.1414914 5.5821748 -1.2020057 0
5.114285 5.5901332 -1.2000203 0
5.1022677 5.6146812 -1.2016109 0
5.0729728 5.6201892 -1.1991428 0
5.0476356 5.6299553 -1.1976089 0
5.056891 5.6784682 -1.2043153 0
5.0076532 5.661283 -1.1971029 0
4.9989934 5.6898203 -1.1995864 0
4.983819 5.7110529 -1.2005332 0
4.9585929 5.7207513 -1.1990703 0
4.9371982 5.7348046 -1.1985395 0
4.9261732 5.7609515 -1.2005454 0
4.8865962 5.7536111 -1.1955947 0
4.891891 5.7991405 -1.2016406 0
4.8691511 5.8116078 -1.2008344 0
4.8449273 5.8222389 -1.1996679 0
4.8295693 5.8435202 -1.2007097 0
4.7974415 5.8444419 -1.1975873 0
4.7840242 5.8681049 -1.1991425 0
4.7705197 5.8917656 -1.2007023 0
4.7695785 5.9311547 -1.2054638 0
4.7173338 5.9066296 -1.197258 0
4.7065864 5.9338646 -1.1995729 0
4.6935143 5.9583063 -1.201326 0
4.6685891 5.9677181 -1.200061 0
4.6497622 5.9848919 -1.2003727 0
4.6184955 5.9859653 -1.1974754 0
4.6027713 6.007122 -1.1986139 0
4.597713 6.042376 -1.2025657 0
4.5756145 6.0553575 -1.2020892 0
4.5340924 6.0424199 -1.1964964 0
4.5196652 6.0654488 -1.1980489 0
4.5073247 6.0914087 -1.2001848 0
4.4887552 6.1090441 -1.2006874 0
4.4734697 6.1312165 -1.2020907 0
4.4470901 6.1381788 -1.2005256 0
4.4199934 6.144031 -1.198765 0
4.4031296 6.1640801 -1.1997898 0
4.3856111 6.1832824 -1.2006584 0
4.3718867 6.2079368 -1.2025927 0
4.3418736 6.2094393 -1.200057 0
4.3338246 6.2423911 -1.2036103 0
4.2986336 6.2362318 -1.1996372 0
4.2836041 6.2592363 -1.2012928 0
4.2564588 6.264533 -1.1995636 0
4.2388344 6.283814 -1.2005275 0
4.2216887 6.303884 -1.2016509 0
4.2040129 6.3232427 -1.2026474 0
4.168427 6.3155432 -1.1985182 0
4.166595 6.3590407 -1.2041149 0
4.1200299 6.3341994 -1.1967887 0
4.1224661 6.3846779 -1.2037078 0
4.0884976 6.3789015 -1.2000276 0
4.0783906 6.4103389 -1.2033627 0
4.0457468 6.4063563 -1.2000618 0
4.0079103 6.393826 -1.1951907 0
3.9849181 6.4047651 -1.1947314 0
3.9832821 6.4502501 -1.2007179 0
3.9681773 6.474246 -1.2027014 0
3.9447076 6.484653 -1.202171 0
3.9070289 6.4714818 -1.197294 0
3.8942673 6.499496 -1.2000545 0
3.8702462 6.5088034 -1.1993704 0
3.852433 6.5285749 -1.2006267 0
3.8152223 6.5153265 -1.1958312 0
3.7961302 6.5328555 -1.1967056 0
3.7826107 6.5601234 -1.1993707 0
3.7578764 6.568018 -1.1985039 0
3.7487919 6.603406 -1.2026609 0
3.7246139 6.6123571 -1.2020099 0
3.6964688 6.6141543 -1.2000769 0
3.6679077 6.6150322 -1.1979983 0
3.6653171 6.6629391 -1.2044419 0
3.6288924 6.6494198 -1.1997919 0
3.6206384 6.6875196 -1.2044693 0
3.57497 6.6563759 -1.1966946 0
3.5548122 6.6724162 -1.1974288 0
3.5440145 6.7062359 -1.2013589 0
3.5282214 6.7308841 -1.2036486 0
3.4916255 6.7157321 -1.1988387 0
3.4682364 6.7257471 -1.198544 0
3.4463701 6.7387128 -1.1987886 0
3.4308326 6.7641797 -1.2012661 0
3.4029813 6.7653999 -1.1994498 0
3.3812342 6.7786865 -1.1997887 0
3.3552148 6.7833686 -1.1986195 0
3.3341324 6.7980051 -1.1992238 0
3.303319 6.7926898 -1.1963255 0
3.2826953 6.8082271 -1.1971169 0
3.2650568 6.8300862 -1.1990288 0
3.2494271 6.8563743 -1.2017243 0
3.2225027 6.858891 -1.200265 0
3.20083 6.8725386 -1.2007685 0
3.1715958 6.8698587 -1.1984355 0
3.1513104 6.886498 -1.1994884 0
3.1287172 6.8981571 -1.1996852 0
3.1035304 6.904068 -1.1988968 0
3.0810392 6.9159484 -1.1991593 0
3.0606949 6.9327202 -1.2002813 0
3.0403054 6.9495072 -1.201416 0
3.0182092 6.9624791 -1.2019024 0
2.9960897 6.9754496 -1.2024006 0
2.9570041 6.948606 -1.1960577 0
2.9374115 6.967308 -1.1975749 0
2.9168875 6.9839478 -1.1987473 0
2.8993974 7.0080504 -1.2012089 0
2.872488 7.0094442 -1.1997904 0
2.8611701 7.0490918 -1.2049279 0
2.8275266 7.0337863 -1.2006845 0
2.7974415 7.0269341 -1.197907 0
2.7740319 7.036695 -1.1979787 0
2.7559214 7.060041 -1.2003734 0
2.7251792 7.0509853 -1.1972735 0
2.7128015 7.0895572 -1.2022718 0
2.6783676 7.0705018 -1.1975107 0
2.6618028 7.098527 -1.200739 0
2.6362817 7.1028147 -1.1999625 0
2.6096091 7.1038733 -1.1986563 0
2.589716 7.1234193 -1.2004826 0
2.5780523 7.1660686 -1.2062067 0
2.5428221 7.14324 -1.2009223 0
2.5184567 7.1505861 -1.2007309 0
2.4982915 7.1699629 -1.2025714 0
2.471694 7.1709194 -1.2013351 0
2.4369695 7.1478763 -1.1960992 0
2.4199324 7.1765938 -1.1995401 0
2.3888118 7.1635404 -1.196013 0
2.3719621 7.1932883 -1.199645 0
2.3478792 7.2013483 -1.1996696 0
2.3195662 7.1962895 -1.1975245 0
2.2987823 7.2145619 -1.199276 0
2.2687013 7.2035618 -1.1961763 0
2.2566845 7.2501559 -1.2026502 0
2.2221503 7.2244778 -1.1971481 0
2.2064631 7.2600117 -1.2018037 0
2.1759501 7.2468562 -1.1984116 0
2.1542301 7.2628422 -1.1998539 0
2.1256511 7.2556329 -1.1974789 0
2.1016018 7.26372 -1.1976439 0
2.0773113 7.2709885 -1.1976871 0
2.0588498 7.2989292 -1.2011459 0
2.0359778 7.3115783 -1.2020973 0
2.0111949 7.3174286 -1.2019438 0
1.9758946 7.2844796 -1.1954367 0
1.9551272 7.3047652 -1.1976832 0
1.9333138 7.3214626 -1.1993514 0
1.911559 7.3386664 -1.201113 0
1.8817197 7.3247023 -1.1977881 0
1.855719 7.3253183 -1.1968647 0
1.8355088 7.348958 -1.1997149 0
1.8145934 7.3702393 -1.2021891 0
1.7854005 7.3578534 -1.1991856 0
1.7572743 7.3493834 -1.1968381 0
1.7342918 7.3623166 -1.1979907 0
1.7114805 7.376205 -1.1993101 0
1.6838226 7.3691349 -1.1972358 0
1.6613877 7.3848815 -1.1988825 0
1.6374644 7.3942318 -1.1995023 0
1.6106541 7.3904595 -1.1980076 0
1.5904534 7.4172106 -1.2014729 0
1.5596906 7.3945985 -1.1969563 0
1.5410476 7.4294763 -1.2017589 0
1.5160613 7.434268 -1.2017049 0
1.4915006 7.4411731 -1.202006 0
1.4684771 7.4559498 -1.2035909 0
1.4424621 7.4556193 -1.2027501 0
1.4196842 7.4721379 -1.2046402 0
1.3854305 7.4275699 -1.1966994 0
1.3616683 7.4384494 -1.19771 0
1.335483 7.4360795 -1.1966007 0
1.3103791 7.4395814 -1.1964505 0
1.2937402 7.4920669 -1.2041869 0
1.262301 7.4590621 -1.1981952 0
1.2394496 7.4763088 -1.2002913 0
1.2180835 7.5032601 -1.2039559 0
1.1878272 7.4752541 -1.1988163 0
1.1661017 7.5007062 -1.2022643 0
1.1379342 7.4847593 -1.19909 0
1.1091112 7.4634886 -1.1950798 0
1.0862759 7.4822817 -1.1974992 0
1.0633596 7.5012355 -1.1999552 0
1.037609 7.5004621 -1.1992682 0
1.0102347 7.4874387 -1.1966376 0
0.99000907 7.5279212 -1.2025702 0
0.96236932 7.512506 -1.1995854 0
0.9402231 7.5401273 -1.2034858 0
0.91190445 7.5182338 -1.1994967 0
0.8865031 7.5196462 -1.199241 0
0.86269659 7.5348949 -1.2012049 0
0.83769637 7.5401549 -1.2015889 0
0.81498897 7.5668569 -1.2054019 0
0.78370094 7.5128608 -1.196375 0
0.75824136 7.5128102 -1.1959554 0
0.73565096 7.5419955 -1.200202 0
0.71290678 7.5714688 -1.2045051 0
0.685112 7.5473223 -1.2002915 0
0.65966123 7.5479503 -1.2000329 0
0.63290256 7.5328836 -1.1972934 0
0.60870028 7.5480776 -1.1993773 0
0.5833199 7.5491748 -1.1992341 0
0.55724466 7.5407896 -1.1975986 0
0.53446043 7.5780883 -1.2032307 0
0.50759298 7.5581493 -1.199788 0
0.48256671 7.5647879 -1.2005782 0
0.45674166 7.5587664 -1.1993728 0
0.43106735 7.5544963 -1.1984591 0
0.4073399 7.5857658 -1.2031964 0
0.38071892 7.5635457 -1.1994628 0
0.35577339 7.5736299 -1.2008661 0
0.33003458 7.5668964 -1.1996163 0
0.30445194 7.5627341 -1.1987878 0
0.28003895 7.5893264 -1.2028475 0
0.2549679 7.6014352 -1.2046243 0
0.22814526 7.5580206 -1.1976162 0
0.20353331 7.5859494 -1.2019269 0
0.17796752 7.5810342 -1.2010469 0
0.15266663 7.5874481 -1.2019751 0
0.12687084 7.5667062 -1.1986152 0
0.10153475 7.5696497 -1.1990207 0
0.076274768 7.5818958 -1.2009133 0
0.050897308 7.588614 -1.2019436 0
0.025499932 7.6024866 -1.2041205 0
1.0072211e-05 7.5913849 -1.2023554 0
-0.025366548 7.5687075 -1.1987704 0
-0.050778888 7.5739551 -1.1996218 0
-0.076206215 7.5770802 -1.2001505 0
-0.10168715 7.5825119 -1.201058 0
-0.12713961 7.5839357 -1.2013444 0
-0.15231763 7.5711012 -1.1993855 0
-0.17728017 7.5526094 -1.1965435 0
-0.20377742 7.5957994 -1.2034875 0
-0.22905843 7.5889401 -1.2025156 0
-0.25448623 7.5876765 -1.2024438 0
-0.27870232 7.5536466 -1.1971923 0
-0.3050676 7.5785275 -1.2012912 0
-0.33104137 7.5904422 -1.203349 0
-0.35523522 7.5626016 -1.1991173 0
-0.38295373 7.6083455 -1.2065673 0
-0.40566725 7.5549908 -1.1983149 0
-0.43134278 7.5596757 -1.1992807 0
-0.4571799 7.5663524 -1.2005763 0
-0.48210591 7.5578799 -1.1994816 0
-0.50773937 7.5606289 -1.2001814 0
-0.53308076 7.5588112 -1.2001698 0
-0.5595082 7.5716944 -1.2025065 0
-0.58429784 7.5620918 -1.2012858 0
-0.60673451 7.5239511 -1.1955434 0
-0.63484257 7.5562139 -1.2010014 0
-0.66012561 7.5534945 -1.2009141 0
-0.68489289 7.5451307 -1.1999428 0
-0.71051842 7.5463181 -1.2005037 0
-0.73733759 7.5594954 -1.2029865 0
-0.76021874 7.5326033 -1.1991059 0
-0.78586704 7.5338192 -1.1997122 0
-0.81085277 7.5286417 -1.1993139 0
-0.83665079 7.5309253 -1.2001178 0
-0.86055535 7.5163693 -1.1982512 0
-0.88614172 7.5167522 -1.1987791 0
-0.91286373 7.52631 -1.2007848 0
-0.93831062 7.5249534 -1.2010635 0
-0.96166259 7.5071473 -1.1987294 0
-0.98792511 7.512229 -1.200063 0
-1.0119694 7.5004458 -1.1987159 0
-1.0402068 7.5193872 -1.2022938 0
-1.0645704 7.5099201 -1.201344 0
-1.0897061 7.5060487 -1.2013024 0
-1.1117787 7.481576 -1.1979755 0
-1.1379703 7.4851308 -1.1991489 0
-1.1637936 7.4859905 -1.199905 0
-1.1893101 7.484715 -1.200333 0
-1.2176985 7.5010147 -1.2035949 0
-1.2409703 7.4856043 -1.2017832 0
-1.2629217 7.4628501 -1.1988032 0
-1.2910711 7.4767284 -1.2017211 0
-1.3163053 7.4733424 -1.2018795 0
-1.3366951 7.4429421 -1.1977044 0
-1.3640082 7.4513426 -1.1997855 0
-1.3900243 7.4523082 -1.2006845 0
-1.414719 7.4461122 -1.2004437 0
-1.4405929 7.4460645 -1.201208 0
-1.4625925 7.4261756 -1.1987839 0
-1.4890243 7.4289203 -1.2000262 0
-1.5117372 7.4131646 -1.1982931 0
-1.5378553 7.414185 -1.1992847 0
-1.5638484 7.4144077 -1.2001622 0
-1.586957 7.401 -1.1988463 0
-1.6148484 7.4097986 -1.201142 0
-1.6363702 7.3893833 -1.1987151 0
-1.6676439 7.4127827 -1.2034113 0
-1.6900054 7.3962836 -1.201646 0
-1.709303 7.3669095 -1.197798 0
-1.7412883 7.3921061 -1.2028372 0
-1.7616416 7.3677349 -1.199826 0
-1.7919979 7.3851275 -1.20363 0
-1.8065646 7.3377128 -1.1968827 0
-1.8332949 7.3401766 -1.1982805 0
-1.8573196 7.331718 -1.1979095 0
-1.8832377 7.3306918 -1.1987667 0
-1.9097531 7.3318133 -1.1999905 0
-1.9339602 7.3239894 -1.1997645 0
-1.958719 7.3182626 -1.1998954 0
-1.9824635 7.3087735 -1.1994227 0
-2.0059671 7.2984838 -1.1988311 0
-2.0306659 7.2925768 -1.1989723 0
-2.0570025 7.2924547 -1.2000794 0
-2.0761149 7.2668738 -1.1970085 0
-2.1072688 7.2833791 -1.2008843 0
-2.133178 7.2813964 -1.20173 0
-2.1509409 7.2518229 -1.1980326 0
-2.1765559 7.2489433 -1.1987557 0
-2.1950266 7.2224507 -1.195585 0
-2.2224748 7.2256012 -1.1973333 0
-2.2545555 7.2433839 -1.2015258 0
-2.2744989 7.2220368 -1.1992431 0
-2.303057 7.2280436 -1.201516 0
-2.3162885 7.1861854 -1.1958421 0
-2.3548884 7.2229123 -1.203261 0
-2.3715894 7.1922221 -1.1994662 0
-2.3996487 7.1961012 -1.2014482 0
-2.4206147 7.1786804 -1.199888 0
-2.4340014 7.1392322 -1.1946516 0
-2.4770262 7.1864505 -1.2039359 0
-2.492455 7.1532741 -1.1997712 0
-2.5151784 7.1413393 -1.199177 0
-2.5356572 7.1231723 -1.1975474 0
-2.5574436 7.1088433 -1.1965733 0
-2.5775368 7.0899773 -1.1948456 0
-2.6139853 7.1158442 -1.2006751 0
-2.6407924 7.1150255 -1.2020242 0
-2.659564 7.0926137 -1.1997375 0
-2.6804774 7.076128 -1.1984625 0
-2.7121968 7.0880332 -1.2020122 0
-2.7287073 7.0601697 -1.1988318 0
-2.7616496 7.0747705 -1.2028764 0
-2.77228 7.0323057 -1.1972302 0
-2.7987893 7.0303741 -1.1984922 0
-2.8400223 7.0649252 -1.2059987 0
-2.8434687 7.0055342 -1.1974812 0
-2.8696859 7.0026598 -1.1986277 0
-2.9018903 7.0141287 -1.2022494 0
-2.9053402 6.9563518 -1.1940092 0
-2.9471555 6.9904718 -1.201555 0
-2.965255 6.9680462 -1.1994025 0
-2.9892843 6.9596562 -1.1996768 0
-3.010154 6.9439478 -1.198702 0
-3.0329509 6.9327464 -1.1985171 0
-3.0588789 6.9286566 -1.1995763 0
-3.0746443 6.9016438 -1.1966776 0
-3.1069095 6.9116344 -1.2002093 0
-3.1226172 6.884757 -1.1973534 0
-3.1505606 6.8849077 -1.1992099 0
-3.1646049 6.854764 -1.1958009 0
-3.1902049 6.8497729 -1.1967894 0
-3.225152 6.8645773 -1.2012585 0
-3.2462511 6.84972 -1.2005565 0
-3.2781959 6.8576183 -1.2038605 0
-3.3000069 6.8441768 -1.2034365 0
-3.3184786 6.8239093 -1.2018224 0
-3.3420396 6.8141727 -1.2020743 0
-3.3603852 6.7938671 -1.2004731 0
-3.387249 6.7907901 -1.2019293 0
-3.4063354 6.7721133 -1.2006383 0
-3.4348638 6.772172 -1.2026838 0
-3.4446509 6.735395 -1.1981968 0
-3.4747579 6.7384377 -1.2008039 0
-3.4982896 6.7285933 -1.201133 0
-3.5242047 6.7232652 -1.2022843 0
-3.5414729 6.7014694 -1.2005033 0
-3.5620923 6.6861238 -1.1998872 0
-3.581166 6.6679549 -1.1987746 0
-3.6172566 6.6813159 -1.2033503 0
-3.6205082 6.6340981 -1.1970257 0
-3.6365471 6.6106815 -1.1949936 0
-3.6744049 6.6267915 -1.2001261 0
-3.6940207 6.6098146 -1.1992879 0
-3.7192576 6.6028886 -1.200287 0
-3.7318511 6.573606 -1.1972317 0
-3.7760122 6.5997567 -1.2042935 0
-3.7842426 6.562994 -1.1998937 0
-3.8081057 6.5535045 -1.2004863 0
-3.8297002 6.5400906 -1.2003746 0
-3.8414552 6.5100107 -1.1972108 0
-3.8682549 6.5054936 -1.1987586 0
-3.8801558 6.4759831 -1.1957113 0
-3.9177725 6.489316 -1.2005916 0
-3.9381969 6.473989 -1.2001921 0
-3.9466417 6.4391479 -1.1961794 0
-3.9824934 6.4490113 -1.2004853 0
-3.9982414 6.4262171 -1.1987309 0
-4.0227857 6.4175949 -1.1996318 0
-4.0510054 6.4147201 -1.2016265 0
-4.0703316 6.3977098 -1.2009898 0
-4.0861869 6.3753328 -1.1993543 0
-4.1267486 6.3913474 -1.2049631 0
-4.1126118 6.3228312 -1.1946387 0
-4.1655898 6.3575435 -1.2038293 0
-4.1654634 6.31109 -1.1976709 0
-4.1898031 6.3019066 -1.1985873 0
-4.2018862 6.2743502 -1.1960191 0
-4.2408814 6.2868848 -1.201112 0
-4.2602825 6.2701964 -1.2006459 0
-4.2711272 6.2410402 -1.1977984 0
-4.3063569 6.2474718 -1.2017971 0
-4.3159299 6.216651 -1.1986451 0
-4.3448229 6.2136922 -1.2008767 0
-4.359158 6.1898975 -1.199096 0
-4.3892994 6.1885176 -1.2016727 0
-4.4025059 6.1632423 -1.1996243 0
-4.4185996 6.142128 -1.1983914 0
-4.4360442 6.1229668 -1.1975482 0
-4.4467001 6.0945611 -1.1949017 0
-4.481741 6.0995312 -1.1988155 0
-4.4944844 6.0740895 -1.1967701 0
-4.5248795 6.0724797 -1.1994354 0
-4.53409 6.04245 -1.1964998 0
-4.562952 6.0386329 -1.1987667 0
-4.5916758 6.0344753 -1.2009908 0
-4.5958533 5.9981265 -1.1968166 0
-4.6293383 6.000051 -1.2002909 0
-4.6442719 5.9778581 -1.1989595 0
-4.6677222 5.9666424 -1.1998421 0
-4.6876073 5.95084 -1.1998183 0
-4.7013755 5.9273267 -1.1982487 0
-4.7290516 5.9213338 -1.2002358 0
-4.7453098 5.9010077 -1.199334 0
-4.7672706 5.887785 -1.1998885 0
-4.7882156 5.8732777 -1.200197 0
-4.8085175 5.8579669 -1.200356 0
-4.8207407 5.8328695 -1.1985186 0
-4.8293204 5.803515 -1.1958072 0
-4.8628869 5.804162 -1.1992934 0
-4.8858562 5.7920175 -1.2001621 0
-4.8939781 5.7623343 -1.1974046 0
-4.9075322 5.739182 -1.1960061 0
-4.9502063 5.7499452 -1.201701 0
-4.948987 5.7096992 -1.196751 0
-4.9876781 5.7155061 -1.2014664 0
-4.9879165 5.6772432 -1.196932 0
-5.0093498 5.6632309 -1.197512 0
-5.0303626 5.6487093 -1.198001 0
-5.0655122 5.6499243 -1.2018539 0
-5.0707989 5.6178107 -1.1986326 0
-5.0967298 5.6086168 -1.2003102 0
-5.1117668 5.58741 -1.199433 0
-5.116159 5.5547004 -1.1960868 0
-5.1566777 5.5611591 -1.2011938 0
-5.1711206 5.5393677 -1.200225 0
-5.1824965 5.5143723 -1.1985674 0
-5.215611 5.512454 -1.2019446 0
-5.2209105 5.4811277 -1.1989242 0
-5.2621651 5.4874797 -1.2041661 0
-5.2739291 5.4629641 -1.2026598 0
-5.2738957 5.4264007 -1.1984965 0
-5.30093 5.4177537 -1.2005054 0
-5.3209906 5.4019051 -1.20094 0
-5.3291736 5.3740525 -1.1987134 0
-5.3379302 5.3469076 -1.1966439 0
-5.393754 5.3667169 -1.2051178 0
-5.3809085 5.3181529 -1.1982571 0
-5.388423 5.2899837 -1.1959741 0
-5.4317131 5.2968364 -1.2016339 0
-5.4410391 5.2704558 -1.1997811 0
-5.4434896 5.2375684 -1.1964425 0
-5.4938607 5.2506752 -1.2036376 0
-5.5080557 5.2290187 -1.2028998 0
-5.4969149 5.1835127 -1.1966645 0
-5.5262847 5.1763139 -1.1992732 0
-5.5481296 5.161962 -1.2002512 0
-5.5636711 5.1417284 -1.1998773 0
-5.5830011 5.1249933 -1.2003335 0
-5.6009498 5.1069722 -1.2005042 0
-5.6178918 5.0880299 -1.2004725 0
-5.6194754 5.0552721 -1.1971822 0
-5.6553001 5.053297 -1.201198 0
-5.6706901 5.0329576 -1.200876 0
-5.67484 5.002727 -1.1981959 0
-5.7022982 4.9930563 -1.2004521 0
-5.7232318 4.9775839 -1.201339 0
-5.7199788 4.9411683 -1.1971719 0
-5.7590375 4.941288 -1.2018725 0
-5.7567549 4.9059148 -1.1979567 0
-5.7675629 4.8818388 -1.196793 0
-5.7948399 4.8716726 -1.199057 0
-5.828505 4.8667145 -1.2026397 0
-5.8223853 4.8285656 -1.1980299 0
-5.855444 4.8229389 -1.201498 0
-5.8553319 4.7899861 -1.1981728 0
-5.8719049 4.770771 -1.1982843 0
-5.8906827 4.7533288 -1.1988573 0
-5.9154844 4.7406821 -1.2006632 0
-5.9341707 4.7230706 -1.2012352 0
-5.9358172 4.6919589 -1.1983773 0
-5.9631524 4.6811662 -1.2007204 0
-5.9782443 4.6607022 -1.200606 0
-5.9787841 4.6289778 -1.1975908 0
-6.0376925 4.6422925 -1.206266 0
-6.0135655 4.591742 -1.1983632 0
-6.0479946 4.5860119 -1.2021533 0
-6.0585303 4.5620894 -1.2012004 0
-6.0721345 4.5405111 -1.2008725 0
-6.0718379 4.5086279 -1.1978176 0
-6.0743198 4.4789538 -1.195338 0
-6.114924 4.4773221 -1.2003673 0
-6.1285553 4.4558163 -1.2001038 0
-6.1270332 4.4233837 -1.1968949 0
-6.1505008 4.4090323 -1.1985847 0
-6.1923447 4.4076724 -1.2038524 0
-6.1892881 4.3743057 -1.2004001 0
-6.1958089 4.3478379 -1.1988307 0
-6.212194 4.3283243 -1.1991864 0
-6.2292037 4.3092237 -1.1996742 0
-6.2543006 4.2956519 -1.201727 0
-6.2721901 4.27706 -1.2024022 0
-6.2508926 4.2319036 -1.1955926 0
-6.2928662 4.22962 -1.2009016 0
-6.3033366 4.2060452 -1.2002019 0
-6.3106747 4.1804304 -1.1989236 0
-6.32022 4.1563315 -1.1980828 0
-6.3375978 4.1373882 -1.1987406 0
-6.3633671 4.1238494 -1.2009927 0
-6.3997617 4.1170325 -1.2052498 0
-6.3808641 4.0746927 -1.1991112 0
-6.3729672 4.0396333 -1.1950752 0
-6.4307833 4.0461211 -1.2033664 0
-6.4220982 4.0106635 -1.199218 0
-6.459744 4.0041313 -1.2037342 0
-6.4455829 3.9655011 -1.198611 0
-6.4507151 3.9389052 -1.1971027 0
-6.4711547 3.9216604 -1.198449 0
-6.4852691 3.9005446 -1.1986343 0
-6.4912834 3.8745844 -1.1973381 0
-6.528367 3.8670917 -1.20178 0
-6.5152369 3.8298633 -1.1969924 0
-6.5302181 3.8092673 -1.1973915 0
-6.582334 3.8101468 -1.2045984 0
-6.5849915 3.7822659 -1.2027572 0
-6.5851383 3.7530441 -1.200479 0
-6.6117153 3.7388785 -1.2030319 0
-6.6025929 3.7045586 -1.1991054 0
-6.6223578 3.6865096 -1.2004434 0
-6.6464138 3.6707654 -1.2025663 0
-6.6626325 3.6506243 -1.2032794 0
-6.6455488 3.6123459 -1.198 0
-6.6748648 3.5993419 -1.2011025 0
-6.6791744 3.5728121 -1.1997157 0
-6.7022605 3.5563114 -1.2017139 0
-6.7026453 3.5277667 -1.1996554 0
-6.7091312 3.5025051 -1.1987077 0
-6.7151241 3.4770331 -1.1976888 0
-6.7252851 3.4537497 -1.1974291 0
-6.7409935 3.4333036 -1.1981696 0
-6.7635736 3.4162931 -1.2001404 0
-6.7865334 3.399379 -1.2021853 0
-6.7808609 3.3681459 -1.1991732 0
-6.8039708 3.3512313 -1.2012663 0
-6.8128719 3.3272786 -1.2008616 0
-6.8335128 3.3090291 -1.2025374 0
-6.8495564 3.2884934 -1.2034137 0
-6.8343616 3.2530475 -1.1988211 0
-6.8252597 3.2206912 -1.1953236 0
-6.8613415 3.2096345 -1.1997513 0
-6.8619118 3.1819038 -1.1979789 0
-6.8813834 3.1629436 -1.1995201 0
-6.8776269 3.1333287 -1.1970273 0
-6.8812141 3.1071453 -1.1958318 0
-6.8944778 3.0853472 -1.1963323 0
-6.9462719 3.0806136 -1.2035207 0
-6.9357247 3.0481496 -1.1999158 0
-6.9657011 3.0334988 -1.2033354 0
-6.9685659 3.0069916 -1.2020819 0
-6.9630828 2.9769723 -1.1994076 0
-6.9783421 2.955862 -1.2003222 0
-6.9940181 2.9348841 -1.2013192 0
-7.020659 2.9184182 -1.2042077 0
-7.0115867 2.8871145 -1.2009845 0
-7.0182662 2.8623822 -1.200478 0
-7.0319695 2.8405097 -1.2011862 0
-7.0404205 2.8165035 -1.2010099 0
-7.0409193 2.7893548 -1.1994928 0
-7.0514359 2.7662046 -1.1996977 0
-7.0463352 2.7369785 -1.1972619 0
-7.049623 2.7110887 -1.1962693 0
-7.0877028 2.6984897 -1.2011892 0
-7.0730371 2.6657887 -1.1971822 0
-7.1024094 2.6496973 -1.2006433 0
-7.09411 2.619539 -1.1977489 0
-7.0910525 2.5914268 -1.1957589 0
-7.1201582 2.5750353 -1.1992043 0
-7.1369085 2.5540676 -1.2005765 0
-7.1330523 2.5257409 -1.1984965 0
-7.1469517 2.5037277 -1.1994147 0
-7.1578293 2.4806256 -1.1998377 0
-7.1543336 2.4525771 -1.1978666 0
-7.1866093 2.4367454 -1.2018958 0
-7.2024794 2.4152319 -1.203189 0
-7.187057 2.3832839 -1.1992711 0
-7.2148581 2.3656824 -1.2025797 0
-7.2270198 2.3428636 -1.2032908 0
-7.2079883 2.3100159 -1.1988257 0
-7.2106481 2.2842379 -1.1979877 0
-7.240356 2.2669654 -1.2016538 0
-7.2105918 2.2311282 -1.1954658 0
-7.2551231 2.2182806 -1.2016089 0
-7.254849 2.1916258 -1.2003397 0
-7.2727404 2.1704481 -1.2020891 0
-7.2566605 2.1391783 -1.1982391 0
-7.2921443 2.1230907 -1.2029161 0
-7.2922072 2.0966129 -1.2017602 0
-7.2990627 2.072114 -1.2017382 0
-7.2986932 2.0455909 -1.2005415 0
-7.3055191 2.0211105 -1.2005428 0
-7.2999315 1.9932402 -1.1985196 0
-7.3177795 1.9717734 -1.2003578 0
-7.3127656 1.9441475 -1.1984594 0
-7.3427439 1.9257818 -1.2023075 0
-7.3373041 1.8980852 -1.2003679 0
-7.3335986 1.8709158 -1.1987288 0
-7.365725 1.8528308 -1.2029579 0
-7.3281922 1.8172866 -1.1958262 0
-7.3753018 1.8027421 -1.2025206 0
-7.3734951 1.7761228 -1.2012483 0
-7.390049 1.7539161 -1.2029803 0
-7.3773284 1.7247899 -1.1999615 0
-7.3796358 1.6992545 -1.1994034 0
-7.388515 1.6752334 -1.199927 0
-7.371758 1.6454668 -1.1963028 0
-7.3983016 1.6253699 -1.1997192 0
-7.3979549 1.5993117 -1.1987867 0
-7.4158387 1.5771707 -1.200821 0
-7.445612 1.5574284 -1.2047899 0
-7.4250255 1.5271562 -1.2006234 0
-7.4164319 1.4994887 -1.1984142 0
-7.4475193 1.4798006 -1.202629 0
-7.4316397 1.4507618 -1.1992725 0
-7.4325986 1.425096 -1.1986495 0
-7.4585938 1.4041703 -1.2020757 0
-7.4672213 1.3798871 -1.2027138 0
-7.4524136 1.3513268 -1.1995922 0
-7.4665813 1.3280543 -1.2011493 0
-7.4563131 1.3004526 -1.1987892 0
-7.4696336 1.2769847 -1.2002358 0
-7.4789867 1.2527899 -1.2010571 0
-7.4593573 1.2238044 -1.197239 0
-7.4971423 1.2042046 -1.2026489 0
-7.4734974 1.1747166 -1.1982173 0
-7.49439 1.1522659 -1.2009408 0
-7.483377 1.1249024 -1.1985649 0
-7.4909739 1.1003737 -1.1991841 0
-7.5066018 1.0769706 -1.2011011 0
-7.5394425 1.0558959 -1.2057825 0
-7.4989338 1.0245988 -1.1987478 0
-7.495101 0.99848795 -1.1975932 0
-7.5141864 0.97540098 -1.2001134 0
-7.5165033 0.95008677 -1.199968 0
-7.5337601 0.92661589 -1.2022202 0
-7.5175405 0.89904511 -1.1991441 0
-7.5234084 0.87417167 -1.1996058 0
-7.5206985 0.84831071 -1.1987135 0
-7.5259032 0.82335329 -1.1990963 0
-7.5171862 0.79690349 -1.197275 0
-7.5327716 0.7730248 -1.1993377 0
-7.5359616 0.74782807 -1.1994398 0
-7.5418744 0.72288775 -1.1999884 0
-7.5042982 0.69390243 -1.1936327 0
-7.565105 0.67395157 -1.2029384 0
-7.5464878 0.64679778 -1.1996264 0
-7.5540552 0.62194014 -1.2004912 0
-7.5619946 0.59707493 -1.2014281 0
-7.5612335 0.57151204 -1.2009959 0
-7.5713134 0.54675001 -1.202299 0
-7.5783758 0.5217247 -1.2031361 0
-7.5549245 0.49466562 -1.1991428 0
-7.5494843 0.46889436 -1.1980231 0
-7.5691476 0.44464499 -1.2009002 0
-7.5646353 0.41893446 -1.1999546 0
-7.5778503 0.39418587 -1.2018344 0
-7.5622702 0.36795625 -1.1991612 0
-7.5574813 0.34232843 -1.198213 0
-7.5637236 0.31720313 -1.1990273 0
-7.6020083 0.29327923 -1.2049338 0
-7.5688763 0.26658937 -1.1995338 0
-7.5603099 0.24091077 -1.1980414 0
-7.5869384 0.21629848 -1.2021394 0
-7.5563049 0.19007196 -1.1971779 0
-7.5965338 0.16560002 -1.2034568 0
-7.561368 0.13947125 -1.1978049 0
-7.567615 0.11420649 -1.1987271 0
-7.5800819 0.088975407 -1.200648 0
-7.5585237 0.063377418 -1.1971929 0
-7.5909705 0.038197175 -1.2023051 0
-7.583014 0.012732365 -1.2010313 0
-7.5446076 2.0020294e-05 -1.1949466 0
-9.7732592 -0.016409928 -1.2000053 0
-9.7985611 -0.049305599 -1.2031255 0
-9.7745867 -0.081958875 -1.2002088 0
-9.7759399 -0.11475051 -1.2004154 0
-9.7744112 -0.14751032 -1.2002816 0
-9.7553539 -0.17993985 -1.1980088 0
-9.8056841 -0.21375822 -1.2042708 0
-9.7720423 -0.24580683 -1.2002337 0
-9.7626123 -0.27832547 -1.1991833 0
-9.7651205 -0.31116751 -1.1996129 0
-9.7340736 -0.34285152 -1.1959333 0
-9.7695017 -0.37689936 -1.2004346 0
-9.7734261 -0.40987238 -1.2010789 0
-9.7804108 -0.44301966 -1.202113 0
-9.7412014 -0.47397619 -1.1974823 0
-9.7477369 -0.5070594 -1.198488 0
-9.7628202 -0.54067141 -1.2005587 0
-9.7410698 -0.5722332 -1.1981131 0
-9.7202873 -0.6037218 -1.1957992 0
-9.7631578 -0.63925171 -1.2013301 0
-9.7497845 -0.67121285 -1.1999547 0
-9.7335548 -0.70289278 -1.1982406 0
-9.7299442 -0.73543292 -1.1980929 0
-9.7511816 -0.76992732 -1.201019 0
-9.7358665 -0.80157298 -1.199457 0
-9.7473402 -0.83542943 -1.2012089 0
-9.718708 -0.86580938 -1.1980315 0
-9.7295637 -0.89966673 -1.1997347 0
-9.7209053 -0.93174756 -1.1990455 0
-9.741993 -0.96674269 -1.2020397 0
-9.7289 -0.99839503 -1.2008305 0
-9.731204 -1.0316135 -1.201535 0
-9.7203827 -1.0634351 -1.2006325 0
-9.7168941 -1.0960345 -1.2006487 0
-9.6957407 -1.1265827 -1.1984948 0
-9.7121954 -1.1615105 -1.2010034 0
-9.7073975 -1.1939627 -1.2008984 0
-9.7042046 -1.2266123 -1.2010055 0
-9.6755409 -1.255962 -1.1979725 0
-9.6838474 -1.2900701 -1.1995298 0
-9.6876383 -1.3236471 -1.2005422 0
-9.693655 -1.3575925 -1.2018452 0
-9.6662989 -1.3868219 -1.1990234 0
-9.6606779 -1.4190886 -1.1989095 0
-9.6609573 -1.4522364 -1.1995417 0
-9.6765881 -1.48778 -1.2020952 0
-9.6636734 -1.518978 -1.2011167 0
-9.6214924 -1.5454215 -1.1965111 0
-9.6465311 -1.5826387 -1.200278 0
-9.6471987 -1.6159827 -1.2010286 0
-9.6529016 -1.6502292 -1.2024206 0
-9.6293278 -1.6794472 -1.2001787 0
-9.6108875 -1.7094544 -1.1985881 0
-9.6214104 -1.7446254 -1.2006232 0
-9.5930939 -1.7727327 -1.1978246 0
-9.6051674 -1.8082886 -1.2000824 0
-9.6017895 -1.8410078 -1.2004248 0
-9.6044483 -1.8749251 -1.2015364 0
-9.578805 -1.903281 -1.1991199 0
-9.5617876 -1.9332466 -1.1977943 0
-9.5561848 -1.9654864 -1.1979113 0
-9.5719576 -2.0022044 -1.2007233 0
-9.5670605 -2.0346837 -1.2009579 0
-9.5636749 -2.0675035 -1.2013963 0
-9.5578814 -2.0998189 -1.2015462 0
-9.5397444 -2.1293879 -1.2001569 0
-9.5219984 -2.1589682 -1.1988283 0
-9.5083961 -2.1894286 -1.1980332 0
-9.5197868 -2.225688 -1.2004019 0
-9.4891624 -2.2521091 -1.1974857 0
-9.4952164 -2.2872016 -1.1992108 0
-9.4932051 -2.3204203 -1.1999325 0
-9.4978924 -2.3553412 -1.2015165 0
-9.4949446 -2.3884311 -1.2021499 0
-9.4688721 -2.4156573 -1.1998675 0
-9.4617815 -2.4476657 -1.2000021 0
-9.4556904 -2.4799445 -1.2002774 0
-9.4266768 -2.5061448 -1.1976545 0
-9.4585409 -2.5486007 -1.2027816 0
-9.4204035 -2.5722334 -1.1990218 0
-9.4199591 -2.6060815 -1.2000707 0
-9.3936644 -2.6327443 -1.1978387 0
-9.4068899 -2.6705 -1.2006601 0
-9.3914232 -2.7001672 -1.1998348 0
-9.3805332 -2.7311203 -1.1996065 0
-9.3810053 -2.7654104 -1.2008461 0
-9.361762 -2.7938871 -1.1995751 0
-9.3540268 -2.8257689 -1.1997912 0
-9.3376122 -2.8550091 -1.1989068 0
-9.3198519 -2.8837831 -1.1978612 0
-9.3170767 -2.9171894 -1.1987548 0
-9.3113298 -2.9497058 -1.1992811 0
-9.3026237 -2.9813046 -1.1994405 0
-9.3151217 -3.0197868 -1.2023507 0
-9.2724857 -3.0403585 -1.1981564 0
-9.2705345 -3.0741811 -1.1992294 0
-9.2742376 -3.1099617 -1.2010505 0
-9.2613258 -3.1402142 -1.2007352 0
-9.2474298 -3.1701114 -1.2003049 0
-9.2418365 -3.2028618 -1.200966 0
-9.2425709 -3.2378674 -1.2024653 0
-9.2161112 -3.2633309 -1.2004397 0
-9.1934853 -3.2900493 -1.1989226 0
-9.1752005 -3.3182502 -1.1979822 0
-9.1545582 -3.3455353 -1.1967449 0
-9.1816177 -3.3903627 -1.2017615 0
-9.1824293 -3.4256907 -1.2033643 0
-9.1640024 -3.4538617 -1.2024603 0
-9.1128454 -3.4695194 -1.1972674 0
-9.123971 -3.5088251 -1.2002679 0
-9.0903797 -3.5309381 -1.1973997 0
-9.1144028 -3.5754848 -1.2021364 0
-9.0703945 -3.5933585 -1.1979142 0
-9.0689545 -3.6280138 -1.1993239 0
-9.0666018 -3.6623836 -1.2006298 0
-9.0644903 -3.6969295 -1.2019849 0
-9.0427504 -3.7234733 -1.2007508 0
-9.009284 -3.74507 -1.1979675 0
-9.0114222 -3.7814426 -1.1999309 0
-8.9916067 -3.8086338 -1.1989861 0
-9.0024862 -3.848892 -1.2021508 0
-8.9554787 -3.8643601 -1.197597 0
-8.9628592 -3.9032428 -1.2003273 0
-8.9500399 -3.9334116 -1.2003701 0
-8.9231949 -3.9573627 -1.1985424 0
-8.8834057 -3.9754121 -1.1949816 0
-8.8960228 -4.0169125 -1.1984838 0
-8.9112072 -4.0597925 -1.2023565 0
-8.9000959 -4.0908203 -1.2027012 0
-8.869997 -4.1130633 -1.2004905 0
-8.8565702 -4.1429734 -1.2005466 0
-8.835866 -4.1694527 -1.1996282 0
-8.8334417 -4.2045779 -1.2012063 0
-8.8091936 -4.2293215 -1.1998305 0
-8.8021049 -4.262291 -1.2008047 0
-8.7862425 -4.2910357 -1.2005967 0
-8.766736 -4.3179731 -1.1999028 0
-8.7469702 -4.3447394 -1.1991844 0
-8.7512817 -4.383523 -1.2017838 0
-8.7183352 -4.4036465 -1.1992801 0
-8.7210398 -4.4417748 -1.201694 0
-8.6949739 -4.4652772 -1.2001585 0
-8.6812286 -4.4950647 -1.2003348 0
-8.6427402 -4.5119467 -1.1970981 0
-8.6387825 -4.546803 -1.1986547 0
-8.6260786 -4.577116 -1.1990145 0
-8.6295862 -4.6161227 -1.2016467 0
-8.57477 -4.6238432 -1.1961657 0
-8.6097155 -4.6800156 -1.2032226 0
-8.5836353 -4.7031903 -1.201775 0
-8.5507469 -4.7225146 -1.1993804 0
-8.5323935 -4.7497811 -1.199033 0
-8.5263329 -4.7839231 -1.2004286 0
-8.512208 -4.8135934 -1.2007054 0
-8.4908037 -4.8391333 -1.1999682 0
-8.4513979 -4.8542867 -1.1966925 0
-8.4824934 -4.9100432 -1.2034199 0
-8.4321051 -4.918694 -1.1986041 0
-8.4464512 -4.9650922 -1.2030029 0
-8.3846931 -4.9666905 -1.1965719 0
-8.3879519 -5.0066876 -1.1994259 0
-8.3749533 -5.0370893 -1.1999754 0
-8.3738003 -5.0747051 -1.2022413 0
-8.3288832 -5.0857434 -1.1982338 0
-8.3242922 -5.121335 -1.200037 0
-8.3203793 -5.1574626 -1.2019589 0
-8.2816296 -5.1719589 -1.1988595 0
-8.2626009 -5.1986637 -1.1986213 0
-8.27104 -5.2427649 -1.2023888 0
-8.2187929 -5.2483573 -1.1973448 0
-8.2041922 -5.2778411 -1.197789 0
-8.1959925 -5.3115025 -1.1991851 0
-8.17132 -5.3345008 -1.1981853 0
-8.1652012 -5.3696365 -1.1999214 0
-8.1595821 -5.4052167 -1.2017521 0
-8.1253223 -5.4218068 -1.1993768 0
-8.1150255 -5.4543471 -1.2005496 0
-8.0911522 -5.4777741 -1.1997281 0
-8.0888653 -5.5158663 -1.2021244 0
-8.0691614 -5.5421557 -1.2019509 0
-8.0397949 -5.5617499 -1.2003475 0
-8.0456228 -5.6057587 -1.2040169 0
-7.9962177 -5.6112547 -1.1994323 0
-7.9875007 -5.6452003 -1.2009571 0
-7.9560328 -5.6630545 -1.1990738 0
-7.9642868 -5.7092581 -1.203196 0
-7.9493051 -5.7389646 -1.2038329 0
-7.8905578 -5.7368946 -1.1978424 0
-7.8762727 -5.766974 -1.1986023 0
-7.8527584 -5.7903013 -1.1979717 0
-7.8341165 -5.817203 -1.1980964 0
-7.8322029 -5.8566232 -1.2008001 0
-7.8130403 -5.8832397 -1.2008796 0
-7.789578 -5.9066019 -1.2003105 0
-7.7753887 -5.937006 -1.2011846 0
-7.7458019 -5.9556322 -1.199692 0
-7.7397499 -5.9923773 -1.2018597 0
-7.7168612 -6.0161462 -1.2014309 0
-7.6916399 -6.0380549 -1.2006494 0
-7.6603518 -6.0551147 -1.1989278 0
-7.654088 -6.0919714 -1.2011374 0
-7.6350079 -6.1187124 -1.2013558 0
-7.6239252 -6.1519222 -1.2028507 0
-7.5960836 -6.1716218 -1.2017159 0
-7.5500765 -6.1763816 -1.1977069 0
-7.5529122 -6.2210884 -1.2014589 0
-7.5257988 -6.2412243 -1.2004679 0
