# .PCD v0.7 - Point Cloud Data file format
VERSION 0.7
FIELDS x y z intensity
SIZE 4 4 4 4
TYPE F F F F
COUNT 1 1 1 1
WIDTH 1421
HEIGHT 1
VIEWPOINT 0 0 0 1 0 0 0
POINTS 1421
DATA ascii
2.6580942 -7.0886364 -1.199066 0
2.674365 -7.0599356 -1.1957213 0
2.7051835 -7.0696483 -1.1988956 0
2.7312326 -7.066648 -1.1999331 0
2.7545605 -7.0565543 -1.1997806 0
2.7733281 -7.0349102 -1.1976748 0
2.8001904 -7.0338397 -1.1990842 0
2.8299413 -7.039793 -1.2017099 0
2.8483105 -7.0174098 -1.1995124 0
2.8732171 -7.0112238 -1.2000949 0
2.9050579 -7.0217328 -1.2035542 0
2.9270289 -7.0082293 -1.202915 0
2.9460998 -6.987916 -1.201117 0
2.9662457 -6.9703226 -1.1997957 0
2.9901412 -6.9615998 -1.2000133 0
3.0152164 -6.955575 -1.2007105 0
3.0422909 -6.9540453 -1.2022005 0
3.0565777 -6.9233942 -1.1986666 0
3.0762873 -6.905282 -1.1973097 0
3.1074848 -6.9128652 -1.2004244 0
3.1242206 -6.8882432 -1.1979611 0
3.144839 -6.8723559 -1.1970251 0
3.1774025 -6.8824363 -1.2006297 0
3.202225 -6.8755341 -1.2012918 0
3.2247431 -6.8636599 -1.2010995 0
3.2483184 -6.8540349 -1.2013143 0
3.2856476 -6.8731599 -1.2065904 0
3.2923617 -6.8282747 -1.2006419 0
3.3256464 -6.8386025 -1.2044117 0
3.3344891 -6.7987318 -1.199352 0
3.35326 -6.7794166 -1.1979212 0
3.3917782 -6.7998252 -1.2035301 0
3.4018698 -6.7631903 -1.1990579 0
3.432349 -6.7671695 -1.201797 0
3.4457054 -6.7374129 -1.1985574 0
3.4732878 -6.7355428 -1.2002896 0
3.4928257 -6.7180405 -1.1992508 0
3.5246902 -6.7241478 -1.202444 0
3.5483866 -6.714509 -1.2028409 0
3.5626972 -6.6872168 -1.2000849 0
3.5807228 -6.6670876 -1.1986203 0
3.6151748 -6.6774282 -1.2026517 0
3.6372886 -6.664804 -1.2025678 0
3.64747 -6.6304955 -1.1985772 0
3.6751077 -6.6280179 -1.2003499 0
3.6932776 -6.6084437 -1.1990409 0
3.7216544 -6.6071033 -1.2010549 0
3.7408466 -6.5894108 -1.200112 0
3.7599123 -6.5715766 -1.1991532 0
3.7965584 -6.5843129 -1.2037932 0
3.8198786 -6.5737247 -1.2041922 0
3.8271103 -6.5356278 -1.1995573 0
3.8594732 -6.5405054 -1.2028208 0
3.8765986 -6.5194864 -1.2013389 0
3.8781123 -6.4725332 -1.1950761 0
3.9253137 -6.5017686 -1.2028973 0
3.9393771 -6.4758902 -1.2005465 0
3.95227 -6.4482927 -1.1978801 0
3.9703698 -6.4293413 -1.1968257 0
4.0185146 -6.4587631 -1.2048039 0
4.0323195 -6.4327664 -1.2024698 0
4.047339 -6.4088769 -1.200534 0
4.0746322 -6.4044318 -1.2022537 0
4.0977173 -6.3932858 -1.2027336 0
4.1074023 -6.3613477 -1.1993093 0
4.1115632 -6.3211827 -1.1943293 0
4.1528754 -6.3381023 -1.2001501 0
4.1745853 -6.3248739 -1.2002889 0
4.1935353 -6.3074841 -1.1996502 0
4.2302589 -6.3166809 -1.2040902 0
4.243382 -6.290556 -1.2018156 0
4.2531338 -6.2596397 -1.1986266 0
4.2690811 -6.2380147 -1.1972198 0
4.2945538 -6.2303133 -1.1984986 0
4.320847 -6.2236986 -1.2000061 0
4.3389602 -6.2052732 -1.1992518 0
4.3696685 -6.2047873 -1.2019826 0
4.3731399 -6.1656995 -1.1972443 0
4.4042687 -6.1656756 -1.2001002 0
4.4151044 -6.1372347 -1.197439 0
4.4379692 -6.1255898 -1.1980634 0
4.447238 -6.0952644 -1.1950419 0
4.4991379 -6.1231742 -1.2034646 0
4.509933 -6.0949335 -1.2008793 0
4.5254068 -6.073154 -1.1995709 0
4.5685706 -6.0883679 -1.2055947 0
4.5673852 -6.0444665 -1.1999272 0
4.597281 -6.0418086 -1.2024527 0
4.6027308 -6.0070691 -1.1986034 0
4.6349282 -6.0072637 -1.2017362 0
4.6461368 -5.9802256 -1.1994368 0
4.6697183 -5.969161 -1.2003511 0
4.6794972 -5.9405122 -1.1977383 0
4.7013292 -5.9272361 -1.198233 0
4.7267728 -5.9184484 -1.1996536 0
4.7481256 -5.9044771 -1.2000417 0
4.7727375 -5.8945045 -1.2012604 0
4.7911105 -5.8767972 -1.2009188 0
4.7866921 -5.8313465 -1.1949039 0
4.8204288 -5.8324604 -1.1984372 0
4.8323765 -5.8071561 -1.1965601 0
4.880794 -5.8255043 -1.2037059 0
4.8968215 -5.8049855 -1.2028519 0
4.9047532 -5.7749896 -1.2000372 0
4.9212561 -5.7552009 -1.199347 0
4.9208426 -5.715807 -1.1945691 0
4.9643288 -5.7273684 -1.2004572 0
4.9774675 -5.7037749 -1.1990032 0
4.994143 -5.6842999 -1.1984226 0
5.0152955 -5.6699224 -1.1989298 0
5.0390286 -5.6584101 -1.2000613 0
5.0492125 -5.6317139 -1.197983 0
5.0735817 -5.6208634 -1.1992868 0
5.100862 -5.6131344 -1.20128 0
5.1202188 -5.5966187 -1.2014126 0
5.148396 -5.5896711 -1.20362 0
5.1395984 -5.5427108 -1.1972119 0
5.1665359 -5.5344267 -1.1991575 0
5.1988559 -5.5317502 -1.2023475 0
5.2115703 -5.5081544 -1.2010101 0
5.2429914 -5.5042796 -1.2039914 0
5.2569227 -5.4819837 -1.202963 0
5.2748928 -5.463933 -1.2028762 0
5.2917161 -5.4447079 -1.202543 0
5.3022585 -5.4190826 -1.2008029 0
5.3046589 -5.3852968 -1.1972507 0
5.3372321 -5.3821502 -1.2005229 0
5.3533521 -5.3623271 -1.200098 0
5.3671041 -5.3401723 -1.1991603 0
5.3981471 -5.3351622 -1.2020928 0
5.4108138 -5.3119373 -1.2009406 0
5.4224629 -5.2877879 -1.1995845 0
5.443378 -5.2726932 -1.2002937 0
5.4576955 -5.2512093 -1.1995618 0
5.4792428 -5.2366767 -1.2004319 0
5.4977036 -5.2191629 -1.2006359 0
5.5210443 -5.2062387 -1.2019144 0
5.531898 -5.1815438 -1.2004884 0
5.5469241 -5.1608129 -1.1999875 0
5.5639639 -5.1419716 -1.1999373 0
5.5951748 -5.1361408 -1.2029479 0
5.5812922 -5.0890217 -1.196288 0
5.6212511 -5.0910449 -1.2011874 0
5.6529303 -5.085341 -1.2043066 0
5.6527281 -5.050972 -1.2006489 0
5.6362748 -5.0023861 -1.193585 0
5.6904168 -5.0164318 -1.2014821 0
5.7044601 -4.9949226 -1.2009045 0
5.7231946 -4.9775248 -1.2013283 0
5.7321734 -4.9516754 -1.1997215 0
5.7500486 -4.9335489 -1.1999938 0
5.7527041 -4.9024363 -1.197111 0
5.7998333 -4.9091272 -1.2034866 0
5.7886086 -4.8664074 -1.1977649 0
5.8289456 -4.8670564 -1.202728 0
5.811379 -4.8194118 -1.1957625 0
5.8504272 -4.8187809 -1.200466 0
5.8636441 -4.7967601 -1.1998712 0
5.8902125 -4.7856197 -1.2020178 0
5.9044847 -4.7644401 -1.2016636 0
5.9115882 -4.737534 -1.1998699 0
5.9226928 -4.7139096 -1.198909 0
5.9360266 -4.6920986 -1.1984169 0
5.9611735 -4.6795869 -1.2003194 0
5.9663348 -4.651392 -1.1982118 0
6.0007615 -4.645968 -1.2019906 0
5.9954944 -4.6098213 -1.1978328 0
6.0284514 -4.6030827 -1.2013272 0
6.0258245 -4.5691757 -1.1977441 0
6.037076 -4.5459089 -1.1969444 0
6.0694494 -4.5384784 -1.2003391 0
6.0783248 -4.5134192 -1.1990948 0
6.099978 -4.497848 -1.2003847 0
6.1122131 -4.4753122 -1.1998329 0
6.1191826 -4.448977 -1.1982661 0
6.1376009 -4.4309883 -1.198957 0
6.1407809 -4.4020395 -1.1966882 0
6.2045269 -4.4163189 -1.2062184 0
6.1789727 -4.3669906 -1.1983972 0
6.1871867 -4.341763 -1.1971602 0
6.2032146 -4.3220429 -1.1974509 0
6.226243 -4.3071508 -1.1991018 0
6.2492566 -4.2921629 -1.2007556 0
6.2557535 -4.2658277 -1.1992491 0
6.2692833 -4.2443299 -1.1991081 0
6.2839518 -4.2236042 -1.1991984 0
6.2966309 -4.2015462 -1.1989229 0
6.3119068 -4.1812224 -1.1991554 0
6.3222919 -4.15767 -1.1984735 0
6.3564577 -4.1496763 -1.2023058 0
6.3678241 -4.1267138 -1.2018319 0
6.3592248 -4.0909309 -1.1976135 0
6.3693862 -4.0673394 -1.1969522 0
6.3847809 -4.0470982 -1.1972885 0
6.4047704 -4.0297303 -1.1984966 0
6.4140515 -4.0056148 -1.1977135 0
6.4523973 -3.9995537 -1.2023631 0
6.4516945 -3.9692373 -1.1997455 0
6.4390731 -3.9317729 -1.1949403 0
6.4967189 -3.9371295 -1.2031816 0
2.0525281 -1.2344792 -0.37935615 0
2.0979526 -1.2522402 -0.3869735 0
6.5231142 -3.8639569 -1.2008111 0
6.5510907 -3.8509159 -1.2035776 0
6.5355701 -3.8123662 -1.1983711 0
6.5347624 -3.7825871 -1.1958908 0
6.573843 -3.7758396 -1.2007191 0
6.5510988 -3.7336209 -1.1942717 0
6.5775676 -3.7195451 -1.1968168 0
6.6047969 -3.7057722 -1.1995038 0
6.6398625 -3.6962311 -1.2036147 0
6.6291552 -3.6612105 -1.1994418 0
6.6487198 -3.6429782 -1.200765 0
6.6795225 -3.6307902 -1.2041227 0
6.6517892 -3.5868759 -1.1969485 0
6.6771421 -3.5717022 -1.1993489 0
6.7057748 -3.5581534 -1.2023423 0
6.6955194 -3.5239935 -1.1983783 0
6.7191262 -3.5077002 -1.2004918 0
6.7274981 -3.4834175 -1.1998942 0
6.7198672 -3.4509447 -1.1964628 0
6.7465019 -3.4360867 -1.1991471 0
6.7680907 -3.4185519 -1.2009403 0
6.7729969 -3.392576 -1.1997857 0
6.786458 -3.3709037 -1.2001615 0
6.7805934 -3.3396947 -1.1971375 0
6.8046575 -3.3232441 -1.199412 0
6.8219409 -3.3034031 -1.2004994 0
6.8140187 -3.2714095 -1.1971685 0
6.8381114 -3.2548101 -1.1994773 0
6.8525271 -3.233536 -1.2000976 0
6.8848853 -3.2206259 -1.2038666 0
6.8751812 -3.188035 -1.200294 0
6.8974071 -3.1702864 -1.2023118 0
6.8959603 -3.141659 -1.2002168 0
6.9208527 -3.1250215 -1.2027189 0
5.1512871 -2.3052359 -0.89385217 0
5.1348372 -2.2772412 -0.88966793 0
5.1490793 -2.2629287 -0.89081597 0
5.1537657 -2.2444012 -0.89031982 0
5.1416745 -2.218657 -0.88694102 0
5.1246815 -2.1909726 -0.88273752 0
5.1454959 -2.1794951 -0.88505918 0
5.1203475 -2.1486239 -0.87948936 0
5.1531711 -2.1421061 -0.88388872 0
5.1639214 -2.1262975 -0.88450485 0
5.1333003 -2.0935876 -0.87805271 0
5.1691003 -2.0880022 -0.88297385 0
5.1779547 -2.0714126 -0.88329506 0
5.2596364 -2.0836594 -0.89603209 0
5.31915 -2.0866306 -0.90497392 0
5.3494759 -2.0778582 -0.908943 0
5.4187369 -2.0838788 -0.91951901 0
5.45121 -2.0754139 -0.92384338 0
7.0925484 -2.6731207 -1.2004834 0
7.0815082 -2.6418784 -1.1971089 0
7.1206374 -2.629313 -1.2022265 0
7.1183019 -2.6013634 -1.2003528 0
7.1168485 -2.5738173 -1.1986458 0
7.1597981 -2.5622375 -1.2044259 0
7.1408153 -2.5284684 -1.1997998 0
7.1193342 -2.4940314 -1.1947788 0
7.1651435 -2.4831393 -1.2010626 0
7.1684446 -2.4573932 -1.2002281 0
7.1880217 -2.4372029 -1.202131 0
7.1949072 -2.4126716 -1.2019229 0
7.192194 -2.3849661 -1.2001271 0
7.1853323 -2.3559802 -1.1976573 0
7.2239699 -2.3418536 -1.2027819 0
7.2169266 -2.3128593 -1.2003114 0
7.2116742 -2.2845418 -1.1981572 0
7.2289424 -2.2633708 -1.1997585 0
7.2214375 -2.234463 -1.1972629 0
7.2394872 -2.2134788 -1.1990182 0
7.2672601 -2.195354 -1.2023922 0
7.2435226 -2.1617074 -1.1972588 0
7.2545614 -2.1385386 -1.1978915 0
7.3019443 -2.1259229 -1.2045318 0
7.2671704 -2.0893936 -1.1976331 0
7.2911892 -2.0698578 -1.200441 0
7.2814517 -2.0407376 -1.1977046 0
7.2851529 -2.0154552 -1.1971951 0
7.2973175 -1.9925058 -1.1980896 0
7.3139834 -1.9707296 -1.1997342 0
7.3384504 -1.9509552 -1.202668 0
7.3422003 -1.9256184 -1.2022176 0
7.3560514 -1.9029143 -1.2034341 0
7.3431787 -1.8733389 -1.2002939 0
7.3390293 -1.8460948 -1.1985972 0
7.3280978 -1.8172426 -1.1958101 0
7.3521199 -1.797055 -1.19874 0
7.390039 -1.7800872 -1.2039428 0
7.3644023 -1.7478088 -1.1988047 0
7.3757801 -1.7244072 -1.1997089 0
7.3905272 -1.7017418 -1.2011728 0
7.387485 -1.6749792 -1.1997589 0
7.3726335 -1.6456417 -1.1964442 0
7.4121733 -1.628397 -1.2019681 0
7.3776174 -1.5948946 -1.1954905 0
7.3975816 -1.5732673 -1.1978641 0
7.4217472 -1.5524157 -1.2009275 0
7.4237223 -1.5268676 -1.200412 0
7.4500833 -1.5062718 -1.2038512 0
7.4398136 -1.478249 -1.2013841 0
7.4166617 -1.4478176 -1.1968549 0
7.4515619 -1.4287115 -1.2017071 0
7.444149 -1.4014304 -1.1997471 0
7.4441261 -1.3755988 -1.1989933 0
7.4827466 -1.3568065 -1.2044743 0
7.464108 -1.3275939 -1.2007508 0
7.4585981 -1.3008307 -1.1991562 0
7.4961238 -1.2814928 -1.2044917 0
7.4713197 -1.2514851 -1.1998252 0
7.4802322 -1.2272089 -1.2005891 0
7.4594755 -1.1981341 -1.196606 0
7.4817786 -1.175998 -1.1995444 0
7.4900494 -1.1515782 -1.2002448 0
7.5095806 -1.1288209 -1.2027613 0
7.522131 -1.1049302 -1.2041713 0
7.4913869 -1.0747674 -1.1986661 0
7.4974322 -1.049992 -1.1990633 0
7.4857717 -1.0227803 -1.1966432 0
7.5251689 -1.0024732 -1.2023971 0
7.5374484 -0.97840029 -1.2038282 0
7.5485306 -0.95411462 -1.2050805 0
7.5231609 -0.92529196 -1.2005284 0
7.5419307 -0.90194172 -1.2030343 0
7.525846 -0.87443465 -1.1999941 0
7.5368481 -0.85011208 -1.2012873 0
7.5535235 -0.8263548 -1.2034967 0
7.5470958 -0.80005401 -1.2020384 0
7.5367789 -0.77341586 -1.1999755 0
7.5343614 -0.74764913 -1.1991848 0
7.5363536 -0.72233838 -1.1991096 0
7.5611968 -0.69914347 -1.2026827 0
7.556263 -0.67314368 -1.2015321 0
7.5624323 -0.64814413 -1.2021608 0
7.5334992 -0.62022763 -1.1972241 0
7.5368752 -0.59507143 -1.1974369 0
7.5417819 -0.57002163 -1.1979061 0
7.5431266 -0.54469442 -1.1978228 0
7.5823364 -0.52197713 -1.2037646 0
7.5646696 -0.49528357 -1.2006894 0
7.5464277 -0.46868443 -1.1975379 0
7.5333271 -0.44252068 -1.1952168 0
7.5479398 -0.41798979 -1.1973062 0
7.572711 -0.3938984 -1.2010192 0
7.5587559 -0.36776516 -1.1986037 0
7.5835743 -0.34349021 -1.2023498 0
7.5722308 -0.31753978 -1.2003758 0
7.5490527 -0.29121619 -1.19654 0
7.5644641 -0.2664139 -1.1988344 0
7.5763216 -0.24140085 -1.2005786 0
7.6046472 -0.21678314 -1.2049452 0
7.568718 -0.19036411 -1.1991445 0
7.5557413 -0.16469072 -1.1969943 0
7.5670633 -0.13955623 -1.1987071 0
7.5718293 -0.11425 -1.1993947 0
7.5760646 -0.088908151 -1.2000116 0
7.6096683 -0.063786067 -1.2052935 0
7.5533257 -0.037987705 -1.1963426 0
7.5734735 -0.012696249 -1.1995202 0
7.5649538 0.012681967 -1.1981708 0
7.5891681 0.038167965 -1.2020196 0
7.5920253 0.06363818 -1.2024992 0
7.5757246 0.088904157 -1.1999577 0
7.5700378 0.11422297 -1.1991109 0
7.5618968 0.13946094 -1.1978886 0
7.5674224 0.16494532 -1.1988448 0
7.5689387 0.19036967 -1.1991794 0
7.5864711 0.21626501 -1.2020652 0
7.5671086 0.24110731 -1.1991186 0
7.563817 0.2663911 -1.1987319 0
7.5700521 0.29202625 -1.1998684 0
7.5871806 0.3181667 -1.2027457 0
7.5651617 0.34265622 -1.1994305 0
7.582489 0.36891988 -1.2023671 0
7.5647621 0.39348492 -1.1997585 0
7.5571866 0.41850185 -1.1987729 0
7.5827217 0.4454222 -1.2030536 0
7.5533419 0.46911386 -1.1986351 0
7.5522428 0.49446994 -1.198717 0
7.5816517 0.52193004 -1.203656 0
7.5677276 0.54647088 -1.2017294 0
7.5647335 0.57175636 -1.2015517 0
7.5531502 0.59635639 -1.2000226 0
7.553431 0.62186861 -1.2003918 0
7.5107679 0.64371622 -1.193948 0
7.5633178 0.67377216 -1.202654 0
7.5499296 0.69810158 -1.2008905 0
7.5205398 0.72082263 -1.1965934 0
7.5335469 0.74756831 -1.1990551 0
7.5532017 0.77510118 -1.2025902 0
7.5384827 0.79914093 -1.2006667 0
7.5243983 0.82316846 -1.1988562 0
7.5224075 0.84848326 -1.1989856 0
7.5199771 0.87375277 -1.1990584 0
7.5258613 0.90002 -1.2004709 0
7.5126925 0.92400438 -1.1988578 0
7.5075469 0.94893438 -1.1985377 0
7.5036635 0.97401482 -1.1984324 0
7.5031447 0.99953926 -1.198878 0
7.5143375 1.0266832 -1.2012097 0
7.5083742 1.0515244 -1.2008133 0
7.5191131 1.0787452 -1.2031025 0
7.4897575 1.1001748 -1.1989888 0
7.4800839 1.124387 -1.198037 0
7.5225096 1.1565689 -1.2054464 0
7.5021181 1.1791949 -1.2028055 0
7.4816165 1.2016903 -1.2001578 0
7.4713244 1.2257475 -1.1991593 0
7.4825788 1.253371 -1.2016333 0
7.4530978 1.2741374 -1.1975783 0
7.4673162 1.3023512 -1.2005578 0
7.4457464 1.3243281 -1.1977971 0
7.470149 1.3545223 -1.2024466 0
7.4492917 1.3765534 -1.1998254 0
7.4386783 1.4004004 -1.1988654 0
7.4449315 1.4274403 -1.2006378 0
7.4496112 1.4542497 -1.2021722 0
7.4573998 1.4817433 -1.2042239 0
7.4095335 1.4980735 -1.1972988 0
7.3962097 1.5212091 -1.1959633 0
7.4074454 1.5494243 -1.1986133 0
7.4174914 1.5775015 -1.201088 0
7.4077568 1.6014102 -1.2003744 0
7.3961229 1.6248708 -1.1993653 0
7.3935919 1.6503198 -1.1998453 0
7.3928461 1.6761947 -1.2006296 0
7.3648314 1.6958251 -1.1969966 0
7.3961024 1.7291584 -1.2030145 0
7.3549819 1.7455729 -1.1972712 0
7.368371 1.7748679 -1.2004128 0
7.35779 1.7984411 -1.1996646 0
7.3840661 1.8311218 -1.2049431 0
7.3530488 1.8496213 -1.2008867 0
7.3345752 1.8711442 -1.1988876 0
7.3487983 1.9010379 -1.2022475 0
7.3343191 1.9235514 -1.2009271 0
7.3125892 1.9440798 -1.1984296 0
7.2991586 1.9667351 -1.1973025 0
7.3313074 2.0017867 -1.2036701 0
7.3195934 2.0249832 -1.2028548 0
7.2762332 2.0392752 -1.1968461 0
7.2899251 2.069499 -1.2002329 0
7.2683139 2.0897224 -1.1978215 0
7.2662187 2.1155217 -1.1986384 0
7.2594066 2.139967 -1.1986916 0
7.2566581 2.1656275 -1.19943 0
7.2712913 2.1965718 -1.2030592 0
7.2522864 2.2173922 -1.2011381 0
7.1969209 2.226877 -1.1931982 0
7.2187676 2.260185 -1.1980699 0
7.2079577 2.2833645 -1.1975397 0
7.2105489 2.3108153 -1.1992507 0
7.2082529 2.3367584 -1.200165 0
7.2030354 2.3617847 -1.2006081 0
7.1918693 2.3848584 -1.2000729 0
7.1928759 2.4119904 -1.2015836 0
7.1827211 2.4354057 -1.2012445 0
4.7486496 1.6278706 -0.79507661 0
4.6969843 1.6277785 -0.78733557 0
4.6443076 1.626985 -0.77941567 0
4.593854 1.626623 -0.77185929 0
4.542069 1.6254451 -0.7640698 0
4.4787335 1.6197397 -0.75432479 0
4.4561777 1.6284977 -0.75144124 0
4.4365926 1.6382227 -0.74906063 0
4.4457726 1.658572 -0.75154525 0
4.4412117 1.6738546 -0.7517187 0
4.4308081 1.686921 -0.75091088 0
4.4738259 1.7204952 -0.75917464 0
4.4576302 1.731445 -0.75740719 0
4.4729166 1.7546647 -0.76099992 0
4.4732976 1.7721431 -0.76207131 0
4.4642258 1.7858893 -0.76154172 0
4.4413772 1.7940463 -0.7586658 0
4.4449844 1.8128619 -0.76031601 0
4.4471197 1.8311472 -0.76172715 0
6.9927149 2.9067805 -1.1994133 0
6.9866924 2.9317882 -1.2000595 0
6.9639635 2.9497499 -1.1978476 0
6.9613152 2.9761946 -1.1991017 0
6.9555931 3.0013716 -1.1998427 0
6.9477453 3.0256574 -1.2002321 0
6.9466734 3.0529392 -1.2018086 0
6.9259362 3.071573 -1.1999959 0
6.9189625 3.0962825 -1.2005795 0
6.8922906 3.1121247 -1.1977552 0
6.8734875 3.1314209 -1.1963054 0
6.8735833 3.1593361 -1.198159 0
6.8745461 3.1877403 -1.2001832 0
6.8555999 3.2069266 -1.1987458 0
6.8428011 3.2289467 -1.1983942 0
6.8445759 3.2578871 -1.2006112 0
6.8200631 3.2743115 -1.1982304 0
6.8171415 3.301079 -1.1996549 0
6.8223176 3.3318691 -1.2025249 0
6.7934046 3.3460047 -1.1993992 0
6.7788887 3.3671441 -1.198823 0
6.7588468 3.3854885 -1.1972792 0
6.748003 3.4084058 -1.1973759 0
6.7489004 3.4373081 -1.1995734 0
6.7445407 3.4636154 -1.2008559 0
6.7619729 3.5012679 -1.206043 0
6.7074552 3.5016072 -1.1984066 0
6.7095237 3.5313644 -1.2008849 0
6.7009797 3.5556092 -1.2014827 0
6.684236 3.5754967 -1.2006232 0
6.6595368 3.5910535 -1.1983426 0
6.6697555 3.6254809 -1.2023619 0
6.6329937 3.6343615 -1.1979249 0
6.6235209 3.6580987 -1.1984223 0
6.6417108 3.6972599 -1.2039497 0
6.6097536 3.7085533 -1.2004039 0
6.6006503 3.7325983 -1.2010168 0
6.587368 3.7542918 -1.2008836 0
6.5533938 3.7640941 -1.1969841 0
6.5725126 3.8044381 -1.2027992 0
6.5309744 3.8096852 -1.1975284 0
6.5337925 3.8407474 -1.2003995 0
6.5219207 3.86325 -1.2005914 0
6.4888425 3.8731041 -1.1968859 0
6.5052319 3.9125276 -1.2023219 0
6.4891968 3.9325709 -1.2017885 0
6.4773107 3.9551213 -1.2020364 0
6.465591 3.9777865 -1.2023296 0
6.4572124 4.0025382 -1.2032604 0
6.4102902 4.0032659 -1.1970111 0
6.4159045 4.0367355 -1.2005801 0
6.4014454 4.0576611 -1.2004135 0
6.3886552 4.0796442 -1.2005732 0
6.3898325 4.110621 -1.2033777 0
6.3368406 4.1066351 -1.1959842 0
6.3527942 4.147285 -1.2016129 0
6.3319941 4.1640506 -1.2003126 0
6.3171182 4.1846747 -1.2001456 0
6.2843976 4.1933837 -1.1965936 0
6.2697182 4.2140379 -1.1964822 0
6.2876515 4.2567654 -1.2026213 0
6.2639561 4.271421 -1.2008216 0
6.2558684 4.2967043 -1.2020261 0
6.2036104 4.2914944 -1.194743 0
6.2108097 4.3273349 -1.198917 0
6.2058949 4.3548913 -1.20078 0
6.1767831 4.3654432 -1.1979725 0
6.1718006 4.3930249 -1.1998562 0
6.1786671 4.4291987 -1.2040713 0
6.1302929 4.4257126 -1.1975293 0
6.1204319 4.4498854 -1.1985108 0
6.0932431 4.4614224 -1.1961091 0
6.0984454 4.4967179 -1.2000831 0
6.0940986 4.5251322 -1.2022066 0
6.0639229 4.5343456 -1.199246 0
6.0599704 4.5631485 -1.2014834 0
6.0472226 4.5854015 -1.2019974 0
6.0193686 4.5961475 -1.1995173 0
5.9992628 4.6127191 -1.1985857 0
5.9711976 4.6230788 -1.1960688 0
5.9798913 4.6619606 -1.2009343 0
5.9579453 4.677053 -1.1996695 0
5.936244 4.6922703 -1.1984609 0
5.9275532 4.7177782 -1.199893 0
5.9196105 4.7439632 -1.2014982 0
5.913413 4.7716446 -1.2034807 0
5.8738723 4.7723436 -1.1986831 0
5.8491182 4.7848773 -1.1968988 0
5.8505006 4.818841 -1.2004811 0
5.8250852 4.8307781 -1.1985826 0
5.8151054 4.8554997 -1.1998723 0
5.8060417 4.8810635 -1.2013721 0
5.7892609 4.9001784 -1.2012926 0
5.7612877 4.9097514 -1.1988972 0
5.7675076 4.9485288 -1.2036375 0
5.7574425 4.9735041 -1.2050101 0
5.6989818 4.9564662 -1.1962459 0
5.6974473 4.9887819 -1.1994281 0
5.6912351 5.0171533 -1.2016548 0
5.6749015 5.0366683 -1.2017651 0
5.6372023 5.0370984 -1.1973512 0
5.6596341 5.0913715 -1.2057347 0
5.5921779 5.0647144 -1.1949748 0
5.6001534 5.1062193 -1.2003307 0
5.5918708 5.1331081 -1.2022375 0
5.5616918 5.1398716 -1.1994474 0
5.5373988 5.1519508 -1.1979269 0
5.5280967 5.1779833 -1.1996635 0
5.5160575 5.2015362 -1.2008288 0
5.49369 5.215353 -1.1997594 0
5.4811931 5.2385406 -1.2008592 0
5.4669113 5.260076 -1.2015873 0
5.4548488 5.2838049 -1.2028232 0
5.431881 5.2969718 -1.2016679 0
5.4106073 5.3117347 -1.2008948 0
5.3918157 5.3289046 -1.2006829 0
5.3711448 5.344193 -1.2000631 0
5.3713346 5.3803396 -1.2041292 0
5.3308678 5.3757324 -1.1990913 0
5.3247147 5.4056573 -1.2017772 0
5.3039093 5.4207702 -1.2011769 0
5.2873778 5.4402437 -1.201557 0
5.2506132 5.4387836 -1.1973395 0
5.252615 5.4774914 -1.2019771 0
5.2302895 5.4909449 -1.2010746 0
5.2090244 5.5054636 -1.2004234 0
5.171453 5.5025921 -1.1960099 0
5.1621189 5.5296955 -1.1981323 0
5.1636124 5.5686083 -1.2028056 0
5.1202574 5.5591207 -1.1970415 0
5.0990243 5.5734525 -1.1964395 0
5.1006517 5.6129031 -1.2012304 0
5.0828991 5.631186 -1.2014892 0
5.0353961 5.6163034 -1.1947049 0
5.0419483 5.6616888 -1.2007567 0
5.0245523 5.6803875 -1.2011427 0
5.0054183 5.6971335 -1.2011282 0
4.9964004 5.7254705 -1.2035639 0
4.9604659 5.7229118 -1.1995232 0
4.9460769 5.7451177 -1.2006949 0
4.919601 5.7532654 -1.1989436 0
4.9176955 5.7902284 -1.2032038 0
4.8812571 5.7865343 -1.1990286 0
4.85746 5.7976537 -1.1979512 0
4.841557 5.8181887 -1.1988333 0
4.8293376 5.8432398 -1.2006521 0
4.8027792 5.850944 -1.1989195 0
4.789537 5.874867 -1.2005243 0
4.7753186 5.8976922 -1.2019101 0
4.7417431 5.8965402 -1.1984286 0
4.7330031 5.926249 -1.2012348 0
4.6981616 5.9232426 -1.1974256 0
4.6968298 5.9625149 -1.2021747 0
4.6786556 5.9805856 -1.2026485 0
4.6395707 5.9717746 -1.1977419 0
4.6105375 5.9756513 -1.1954123 0
4.6040187 6.00875 -1.1989387 0
4.5884175 6.0301595 -1.2001343 0
4.560216 6.0349789 -1.1980437 0
4.5447216 6.0565853 -1.1993012 0
4.5398116 6.0924854 -1.2033893 0
4.4989715 6.0801196 -1.1979605 0
4.4795833 6.096561 -1.1982341 0
4.4586678 6.11093 -1.1981132 0
4.4465733 6.1374655 -1.200386 0
4.4185309 6.1419983 -1.1983684 0
4.3980565 6.1569786 -1.1984074 0
4.3804188 6.175962 -1.199237 0
4.346386 6.1717267 -1.1955782 0
4.3388391 6.2050991 -1.1992182 0
4.3175349 6.2189274 -1.1990862 0
4.3042059 6.2443161 -1.2011921 0
4.261447 6.22686 -1.195079 0
4.2618251 6.2724309 -1.201076 0
4.2286806 6.2687621 -1.1976519 0
4.2128935 6.290751 -1.1991475 0
4.1872859 6.2980838 -1.1978624 0
4.1627259 6.3069057 -1.1968789 0
4.1614251 6.35115 -1.2026209 0
4.1284485 6.3471422 -1.1992341 0
4.0919771 6.3374577 -1.1948054 0
4.0805469 6.3664961 -1.1976939 0
4.070364 6.3977232 -1.2009944 0
4.0501008 6.4132504 -1.2013533 0
4.0206757 6.4141908 -1.1989974 0
3.9969511 6.4241052 -1.198339 0
3.9836521 6.4508495 -1.2008295 0
3.9724011 6.4811373 -1.2039815 0
3.9397173 6.4764495 -1.2006502 0
3.9120524 6.4798026 -1.1988335 0
3.9025106 6.5132542 -1.2025948 0
3.8819983 6.5285673 -1.2030122 0
3.8426759 6.5120401 -1.1975859 0
3.8230107 6.5286269 -1.1982723 0
3.8054428 6.548882 -1.1996415 0
3.7772455 6.5508189 -1.1976696 0
3.7583342 6.5688186 -1.1986499 0
3.7393916 6.5868473 -1.1996452 0
3.7103798 6.5870872 -1.1974164 0
3.7006874 6.6217027 -1.2014465 0
3.6698821 6.6185932 -1.1986431 0
3.6521752 6.6390491 -1.2001233 0
3.6306477 6.6526356 -1.2003721 0
3.6113532 6.6703696 -1.2013805 0
3.5917389 6.6875987 -1.2023079 0
3.5694737 6.6999364 -1.2023675 0
3.5560014 6.7289186 -1.2054223 0
3.505316 6.6871872 -1.1958344 0
3.4861622 6.705224 -1.196963 0
3.468657 6.7265625 -1.1986893 0
3.4460249 6.7380376 -1.1986685 0
3.4184692 6.7398043 -1.1969371 0
3.4051037 6.7696195 -1.2001978 0
3.3731411 6.7624612 -1.1969169 0
3.3653078 6.8037739 -1.2022252 0
3.3405766 6.8111439 -1.2015415 0
3.3161092 6.8189912 -1.2009578 0
3.2931886 6.8299894 -1.2009434 0
3.2662988 6.8326845 -1.1994849 0
3.2439687 6.8448567 -1.1997057 0
3.2161853 6.8454452 -1.197912 0
3.1923637 6.8543606 -1.1975925 0
3.1691213 6.8644986 -1.1975005 0
3.1606658 6.9069419 -1.2030493 0
3.1181118 6.8747749 -1.1956187 0
3.1125553 6.9241452 -1.2023832 0
3.070163 6.8915348 -1.1949261 0
3.0658252 6.9443407 -1.2022932 0
3.0449066 6.9600244 -1.2032342 0
3.0104516 6.9445839 -1.1988132 0
2.9921589 6.9662976 -1.2008229 0
2.9681835 6.9748764 -1.2005795 0
2.9400768 6.97363 -1.1986616 0
2.9185939 6.9880333 -1.1994485 0
2.90344 7.0178218 -1.2028838 0
2.8755202 7.0168438 -1.2010568 0
2.8463154 7.0124946 -1.1986723 0
2.8326402 7.0465074 -1.2028559 0
2.8010325 7.035955 -1.1994448 0
2.7816133 7.0559268 -1.2012528 0
2.74454 7.0308843 -1.1954161 0
2.7320077 7.0686536 -1.2002735 0
2.6976881 7.0500603 -1.1955738 0
2.6739247 7.058773 -1.1955243 0
2.6589444 7.0909038 -1.1994495 0
2.6351833 7.0998554 -1.1994625 0
2.6141522 7.1162405 -1.2007432 0
2.585938 7.1130271 -1.1987312 0
2.5599318 7.1157002 -1.1977285 0
2.5446999 7.1485152 -1.201809 0
2.5098302 7.1260934 -1.1966181 0
2.4947624 7.1598353 -1.2008728 0
2.4684527 7.1615152 -1.1997596 0
2.4447885 7.1708097 -1.1999367 0
2.4202671 7.1775866 -1.1997062 0
2.3999937 7.1970716 -1.2016113 0
2.3736031 7.1982646 -1.200475 0
2.3518896 7.2136493 -1.2017188 0
2.3230648 7.2071438 -1.1993308 0
2.304297 7.2318687 -1.2021528 0
2.2759738 7.2266526 -1.2000105 0
2.2551327 7.2451701 -1.2018232 0
2.2278297 7.2429423 -1.2002078 0
2.2022612 7.2461863 -1.1995151 0
2.1822181 7.2677317 -1.2018638 0
2.1620078 7.2890639 -1.204186 0
2.1354196 7.2889767 -1.2029819 0
2.1052876 7.2764587 -1.1997442 0
2.0797963 7.2796865 -1.1991199 0
2.0596805 7.3018742 -1.2016305 0
2.0342302 7.3053026 -1.2010655 0
2.0015142 7.2822065 -1.1961582 0
1.9801377 7.3001223 -1.1980039 0
1.9617887 7.3296537 -1.201764 0
1.9322952 7.317605 -1.1987195 0
1.9090108 7.3288836 -1.1995119 0
1.8787074 7.3129768 -1.1958706 0
1.8614328 7.3478732 -1.2005498 0
1.8374547 7.3567491 -1.2009867 0
1.8028449 7.3225207 -1.1944056 0
1.7867012 7.363214 -1.2000593 0
1.7620152 7.3692112 -1.200067 0
1.7319877 7.3525352 -1.1963991 0
1.7086965 7.3642068 -1.1973592 0
1.6816205 7.3594971 -1.1956701 0
1.6603587 7.3803082 -1.1981399 0
1.6425562 7.4172244 -1.2032323 0
1.619893 7.4328513 -1.2048794 0
1.5897282 7.4138288 -1.2009251 0
1.5652101 7.4207664 -1.201192 0
1.5395081 7.4220548 -1.2005583 0
1.5136728 7.4225554 -1.1998117 0
1.4872016 7.4197245 -1.1985413 0
1.4669209 7.4480481 -1.2023153 0
1.4430968 7.4589005 -1.2032793 0
1.4165839 7.4558206 -1.2020096 0
1.3895391 7.4495974 -1.2002484 0
1.3604349 7.4317112 -1.196625 0
1.3395358 7.4586463 -1.2002321 0
1.3162714 7.4730339 -1.2018304 0
1.2904404 7.4729581 -1.2011156 0
1.2628859 7.4625182 -1.1987504 0
1.2375293 7.4647255 -1.1984317 0
1.2157676 7.4889946 -1.2016668 0
1.1849819 7.4573479 -1.1959447 0
1.1608042 7.4666309 -1.1968025 0
1.1413372 7.5071421 -1.2026757 0
1.1122227 7.484426 -1.1984324 0
1.0872291 7.4888477 -1.19855 0
1.0623829 7.4943461 -1.1988531 0
1.036907 7.4953876 -1.1984569 0
1.0145514 7.5194321 -1.2017508 0
0.98674661 7.5031137 -1.1986073 0
0.96151972 7.5058742 -1.1985265 0
0.93887836 7.5293436 -1.2017647 0
0.91142809 7.514307 -1.1988702 0
0.88557523 7.5117755 -1.1979859 0
0.85994488 7.5108614 -1.1973735 0
0.83671033 7.5312791 -1.2001746 0
0.81165767 7.5359268 -1.2004747 0
0.78533578 7.528533 -1.1988708 0
0.76109493 7.5410848 -1.2004564 0
0.73564076 7.5418916 -1.2001854 0
0.71023732 7.5431175 -1.1999949 0
0.68506002 7.5467491 -1.2002004 0
0.65945542 7.5455952 -1.1996585 0
0.63331544 7.5377975 -1.1980745 0
0.6084919 7.5454936 -1.1989667 0
0.58229947 7.5359688 -1.1971362 0
0.55775464 7.5476909 -1.1986946 0
0.53415382 7.5737405 -1.2025405 0
0.50887394 7.5772223 -1.2028157 0
0.48161912 7.5499334 -1.1982207 0
0.45631537 7.5517116 -1.1982534 0
0.4323889 7.5776563 -1.2021333 0
0.40654543 7.5709701 -1.2008497 0
0.38033631 7.5559449 -1.1982574 0
0.35543764 7.5664825 -1.1997329 0
0.32989222 7.5636325 -1.1990988 0
0.30370143 7.5440912 -1.1958326 0
0.27964056 7.5785294 -1.2011362 0
0.25398836 7.5722318 -1.1999964 0
0.22857149 7.5721407 -1.1998538 0
0.20333011 7.5783758 -1.200727 0
0.17767152 7.5684257 -1.1990494 0
0.15204816 7.5567102 -1.1971058 0
0.12677953 7.5612593 -1.1977524 0
0.1015968 7.574276 -1.1997535 0
0.076496243 7.6039104 -1.2044003 0
0.050813276 7.5760856 -1.1999593 0
0.02541556 7.577332 -1.2001364 0
1.0058988e-05 7.581419 -1.2007769 0
-0.025419857 7.5846138 -1.2012898 0
-0.05094789 7.5991626 -1.2036144 0
-0.076284476 7.5848608 -1.2013829 0
-0.10147724 7.5668602 -1.1985788 0
-0.12725593 7.5908747 -1.2024436 0
-0.15251206 7.5807657 -1.2009164 0
-0.17727487 7.5523829 -1.1965077 0
-0.20337506 7.580801 -1.2011111 0
-0.22888063 7.5830488 -1.2015821 0
-0.25415805 7.5778918 -1.2008932 0
-0.27980641 7.5835705 -1.2019351 0
-0.3054274 7.5874658 -1.202708 0
-0.33163598 7.6040769 -1.2055105 0
-0.35581031 7.5748448 -1.2010586 0
-0.38028383 7.5553012 -1.1981552 0
-0.40800524 7.5985322 -1.2052212 0
-0.43200359 7.5712566 -1.2011179 0
-0.45655033 7.555933 -1.198923 0
-0.48159716 7.5499043 -1.1982158 0
-0.50826335 7.5684309 -1.2014199 0
-0.53471363 7.5819645 -1.2038461 0
-0.55790913 7.5500546 -1.1990697 0
-0.58358854 7.5529122 -1.1998276 0
-0.60887313 7.5504713 -1.1997573 0
-0.63467687 7.5542421 -1.2006879 0
-0.65871185 7.5373178 -1.1983422 0
-0.68437463 7.5394211 -1.1990347 0
-0.71177018 7.5596123 -1.2026186 0
-0.73697621 7.5557899 -1.2023969 0
-0.76018602 7.532279 -1.1990542 0
-0.78705341 7.5451927 -1.2015233 0
-0.81156784 7.5352812 -1.2003715 0
-0.83887041 7.5509048 -1.2033017 0
-0.86214483 7.5302529 -1.2004645 0
-0.8879627 7.5321989 -1.2012426 0
-0.91074395 7.5088329 -1.1979964 0
-0.93437648 7.4934025 -1.1960276 0
-0.96259218 7.5144043 -1.1998881 0
-0.98461545 7.487062 -1.1960427 0
-1.0152366 7.5246615 -1.2025861 0
-1.0413146 7.5273957 -1.2035743 0
-1.0640252 7.5060735 -1.2007287 0
-1.0892483 7.5028958 -1.2007978 0
-1.1164033 7.5126958 -1.2029586 0
-1.1392113 7.4932928 -1.2004565 0
-1.1639261 7.4868431 -1.2000418 0
-1.1868148 7.4690104 -1.1978145 0
-1.2140083 7.4782829 -1.1999476 0
-1.2379729 7.4675241 -1.1988804 0
-1.2669675 7.4867578 -1.2026435 0
-1.2905285 7.473587 -1.2012161 0
-1.3166653 7.4753866 -1.2022082 0
-1.3370194 7.4447484 -1.1979951 0
-1.3627524 7.4444828 -1.1986809 0
-1.3934026 7.4704199 -1.2036026 0
-1.4128536 7.4362941 -1.1988609 0
-1.433805 7.4109793 -1.1955481 0
-1.463256 7.4295444 -1.1993277 0
-1.4874828 7.4212298 -1.1987838 0
-1.5151346 7.4298244 -1.200986 0
-1.5385002 7.4172945 -1.1997876 0
-1.5631489 7.4110913 -1.1996253 0
-1.5892496 7.4116921 -1.2005783 0
-1.6055635 7.3671951 -1.1942357 0
-1.6361301 7.388299 -1.1985393 0
-1.6612756 7.3844752 -1.1988157 0
-1.6876988 7.386189 -1.2000059 0
-1.7150744 7.3917832 -1.2018422 0
-1.736079 7.3699913 -1.1992388 0
-1.7643248 7.3789573 -1.2016535 0
-1.7828114 7.3472691 -1.1974597 0
-1.8073343 7.3408394 -1.1973927 0
-1.8365716 7.3532963 -1.2004223 0
-1.8552363 7.3234944 -1.1965659 0
-1.886798 7.3445506 -1.201033 0
-1.9066831 7.3200274 -1.1980615 0
-1.9388411 7.3424735 -1.2027924 0
-1.956156 7.3086867 -1.1983254 0
-1.9794672 7.2977271 -1.1976099 0
-2.0090992 7.3098793 -1.2007029 0
-2.0257657 7.2749796 -1.1960793 0
-2.0579038 7.2956495 -1.2006053 0
-2.0800498 7.2806468 -1.1992772 0
-2.1049407 7.275332 -1.1995575 0
-2.1272252 7.2610769 -1.1983764 0
-2.1560118 7.2689195 -1.200857 0
-2.1864789 7.281992 -1.204221 0
-2.2054994 7.2569098 -1.2012893 0
-2.2294929 7.2484179 -1.2011142 0
-2.2550695 7.2450356 -1.2017999 0
-2.2793229 7.2373538 -1.2017865 0
-2.3024719 7.2262068 -1.2012107 0
-2.325887 7.2159643 -1.2007977 0
-2.3559408 7.2261395 -1.2037987 0
-2.3743117 7.2004781 -1.2008431 0
-2.4073882 7.2193108 -1.2053232 0
-2.4207404 7.1790528 -1.1999501 0
-2.4416273 7.1616001 -1.1983945 0
-2.4631493 7.1461902 -1.1971911 0
-2.493608 7.1565833 -1.2003262 0
-2.5209765 7.1578012 -1.2019414 0
-2.5403366 7.1363177 -1.1997573 0
-2.5653822 7.1309104 -1.2002876 0
-2.5817947 7.1016893 -1.1968194 0
-2.6114843 7.109036 -1.1995263 0
-2.6351795 7.0999026 -1.1994693 0
-2.66605 7.1099105 -1.2026634 0
-2.6760886 7.0645418 -1.1965002 0
-2.7039587 7.066504 -1.1983612 0
-2.7380724 7.0844007 -1.2029462 0
-2.7484925 7.0410647 -1.1971457 0
-2.7792165 7.0499015 -1.2002257 0
-2.8012702 7.0366058 -1.1995544 0
-2.8236725 7.0242534 -1.1990559 0
-2.8569162 7.0386653 -1.2031444 0
-2.8663573 6.9945374 -1.1972374 0
-2.9000008 7.0095615 -1.2014667 0
-2.9183333 6.9874611 -1.1993489 0
-2.9447482 6.9847622 -1.2005736 0
-2.9668765 6.9718561 -1.2000583 0
-2.986871 6.9540372 -1.1987082 0
-3.0052781 6.9326997 -1.1967603 0
-3.0409639 6.9510622 -1.2016835 0
-3.0576723 6.9259229 -1.199103 0
-3.0872941 6.930038 -1.2016008 0
-3.1115723 6.9220071 -1.2020105 0
-3.1250169 6.8900476 -1.1982734 0
-3.1640158 6.9143114 -1.2043314 0
-3.182194 6.8928628 -1.2024472 0
-3.1968448 6.8640299 -1.1992804 0
-3.2192123 6.8519349 -1.1990463 0
-3.2393141 6.8350825 -1.197991 0
-3.2632387 6.8263297 -1.1983678 0
-3.2904661 6.8243895 -1.1999573 0
-3.3202031 6.8274555 -1.2024469 0
-3.3228791 6.7751055 -1.1951826 0
-3.3662455 6.8057151 -1.2025666 0
-3.3872676 6.7908273 -1.2019359 0
-3.3937831 6.7471581 -1.196214 0
-3.42396 6.7506742 -1.1988659 0
-3.4468272 6.7396507 -1.1989539 0
-3.4720287 6.7331448 -1.1998607 0
-3.4944923 6.7212892 -1.1998291 0
-3.5181351 6.7116857 -1.2002137 0
-3.533092 6.6856108 -1.1976625 0
-3.5606303 6.6833797 -1.1993947 0
-3.5826192 6.670661 -1.1992611 0
-3.6059442 6.6604209 -1.1995869 0
-3.6299026 6.6513124 -1.2001317 0
-3.6542146 6.6427979 -1.2007993 0
-3.6630766 6.6063609 -1.196426 0
-3.6993845 6.6194124 -1.2010293 0
-3.7168231 6.598567 -1.1995014 0
-3.7412121 6.590095 -1.2002349 0
-3.7564611 6.5655851 -1.198058 0
-3.7818794 6.5588956 -1.1991444 0
-3.8111546 6.5587516 -1.2014475 0
-3.8279483 6.5370989 -1.1998254 0
-3.8503675 6.5251141 -1.1999885 0
-3.8714654 6.5108933 -1.1997535 0
-3.9065633 6.5200567 -1.203849 0
-3.9209867 6.4946399 -1.2015766 0
-3.9452705 6.4856176 -1.2023478 0
-3.9706261 6.4782801 -1.2034488 0
-3.9889216 6.4594212 -1.2024232 0
-3.9902294 6.4133396 -1.1963288 0
-4.0228062 6.4176269 -1.1996378 0
-4.0579834 6.4257703 -1.2036966 0
-4.0890489 6.4271293 -1.2065125 0
-4.0873575 6.3771596 -1.199698 0
-4.1153908 6.3737569 -1.2016468 0
-4.1155972 6.3274217 -1.195506 0
-4.1385746 6.3163123 -1.196022 0
-4.1879301 6.345129 -1.2041306 0
-4.2050924 6.324903 -1.2029611 0
-4.2025361 6.275321 -1.1962042 0
-4.2582722 6.3126655 -1.2060375 0
-4.2546077 6.2618442 -1.1990466 0
-4.2824726 6.257618 -1.2009801 0
-4.313345 6.2576103 -1.2037474 0
-4.3147416 6.2149396 -1.1983151 0
-4.3515034 6.2232466 -1.2027231 0
-4.3497305 6.1765103 -1.1965026 0
-4.3926706 6.1932712 -1.2025957 0
-4.4028125 6.163671 -1.1997077 0
-4.4257555 6.1520748 -1.2003322 0
-4.4493141 6.141283 -1.2011304 0
-4.4747853 6.1330543 -1.2024486 0
-4.4816904 6.0994625 -1.198802 0
-4.5081296 6.0925303 -1.2004035 0
-4.5294752 6.0786476 -1.2006536 0
-4.551415 6.0655389 -1.2010719 0
-4.582942 6.0650878 -1.2040185 0
-4.6032143 6.0496392 -1.2040087 0
-4.6043901 6.0092683 -1.1990397 0
-4.6122789 5.977941 -1.1958678 0
-4.6428866 5.9760752 -1.1986018 0
-4.6760445 5.9772806 -1.2019814 0
-4.6846089 5.9470334 -1.1990507 0
-4.7045784 5.931365 -1.1990652 0
-4.7379398 5.9324632 -1.2024918 0
-4.7462759 5.9022093 -1.1995783 0
-4.7420478 5.8566332 -1.19354 0
-4.7740641 5.8559194 -1.1966498 0
-4.8027282 5.850914 -1.1989108 0
-4.8388553 5.8547873 -1.2030221 0
-4.844656 5.8219447 -1.1996046 0
-4.8629036 5.8041821 -1.1992975 0
-4.8899279 5.796845 -1.2011623 0
-4.8983846 5.7675223 -1.1984828 0
-4.9343295 5.7705202 -1.2025368 0
-4.9597902 5.7610774 -1.2040277 0
-4.9724269 5.7367425 -1.2024193 0
-4.9643221 5.6887422 -1.1958404 0
-5.0009804 5.6921124 -1.2000668 0
-5.039968 5.6978459 -1.2048315 0
-5.053237 5.6743951 -1.2034487 0
-5.048861 5.6313515 -1.1979032 0
-5.0738044 5.6211405 -1.199343 0
-5.0926251 5.6041002 -1.1993437 0
-5.1158252 5.591846 -1.2003852 0
-5.1225586 5.5616488 -1.197583 0
-5.1506252 5.5546317 -1.1997838 0
-5.1600337 5.5274911 -1.1976517 0
-5.2071524 5.5406075 -1.2042696 0
-5.1929636 5.4885182 -1.1967256 0
-5.2204061 5.480598 -1.1988082 0
-5.2525845 5.477489 -1.2019736 0
-5.2457552 5.4337802 -1.1962351 0
-5.2877674 5.4406738 -1.2016488 0
-5.2933059 5.4099617 -1.1987787 0
-5.3204885 5.4013953 -1.2008266 0
-5.3342729 5.3791947 -1.1998605 0
-5.361721 5.3707385 -1.2019773 0
-5.3693018 5.3423872 -1.1996545 0
-5.3959846 5.3330531 -1.2016144 0
-5.3994555 5.3008146 -1.1984228 0
-5.4121923 5.2778006 -1.1973155 0
-5.4350028 5.2646089 -1.1984501 0
-5.4691658 5.2622733 -1.202086 0
-5.4662743 5.2243099 -1.1975937 0
-5.481916 5.2042027 -1.197191 0
-5.5104113 5.1962399 -1.1996026 0
-5.5393763 5.1885762 -1.2021143 0
-5.5652881 5.1779261 -1.2039632 0
-5.5671515 5.1449451 -1.2006278 0
-5.5881267 5.1296988 -1.2014354 0
-5.5949445 5.1014967 -1.1992171 0
-5.5969396 5.0690541 -1.1959952 0
-5.644969 5.0782061 -1.2026134 0
-5.6509848 5.0494409 -1.2002815 0
-5.6419854 5.0074806 -1.1947972 0
-5.6713939 4.9996886 -1.1974683 0
-5.7027016 4.9934096 -1.2005371 0
-5.7037106 4.9606056 -1.1972413 0
-5.72508 4.9455748 -1.1982396 0
-5.7475348 4.9314184 -1.199472 0
-5.751493 4.9014306 -1.1968617 0
-5.7518206 4.8685141 -1.1935263 0
-5.7998638 4.8758965 -1.2000965 0
-5.8139539 4.8545647 -1.1996373 0
-5.8329902 4.8373604 -1.2002119 0
-5.8398886 4.8101263 -1.1983062 0
-5.8610363 4.7946529 -1.1993402 0
-5.8829532 4.779748 -1.200539 0
-5.9028616 4.7631564 -1.2013359 0
-5.9290257 4.7515345 -1.2034117 0
-5.9209409 4.7125411 -1.198557 0
-5.9299908 4.6873531 -1.1972009 0
-5.954268 4.6741915 -1.1989315 0
-5.9795322 4.6617064 -1.2008648 0
-5.9889798 4.6368718 -1.1996331 0
-6.001461 4.6144342 -1.1990274 0
-6.0185328 4.5955343 -1.199353 0
-6.040925 4.5806513 -1.200748 0
-6.039279 4.5475931 -1.1973834 0
-6.0686545 4.537909 -1.2001842 0
-6.0733304 4.5097356 -1.1981119 0
-6.1014318 4.4989448 -1.2006732 0
-6.1299224 4.4883037 -1.2033116 0
-6.1511393 4.4722362 -1.2045263 0
-6.1405439 4.4331379 -1.1995342 0
-6.1508861 4.4093084 -1.1986598 0
-6.1728473 4.3937945 -1.2000619 0
-6.2002473 4.3820515 -1.2025256 0
-6.2107911 4.3583517 -1.2017297 0
-6.2245193 4.3369117 -1.2015656 0
-6.2392983 4.3162065 -1.2016183 0
-6.2586303 4.2986259 -1.202559 0
-6.2708178 4.2761245 -1.2021391 0
-6.2879958 4.2570229 -1.2026893 0
-6.2951846 4.2311783 -1.2013441 0
-6.2975502 4.2021842 -1.1991001 0
-6.3200464 4.1866384 -1.200704 0
-6.3333716 4.1649804 -1.2005758 0
-6.342443 4.1405516 -1.1996571 0
-6.3667045 4.1260123 -1.2016227 0
-6.369041 4.0972695 -1.1994642 0
-6.3976326 4.0854006 -1.2022623 0
-6.3921642 4.0518017 -1.198675 0
-6.4049711 4.02988 -1.1985362 0
-6.4120917 4.0044141 -1.1973495 0
-6.4379764 3.9906383 -1.1996778 0
-6.4617696 3.9754596 -1.2016211 0
-6.4821167 3.9580793 -1.2029301 0
-6.463141 3.9168041 -1.1969649 0
-6.4866142 3.9013536 -1.1988829 0
-6.4982367 3.8787346 -1.1986207 0
-6.5142226 3.8587132 -1.1991762 0
-6.5110297 3.8273902 -1.1962194 0
-6.5536957 3.8229625 -1.2016964 0
-6.5812407 3.8095136 -1.2043983 0
-6.5880065 3.7839978 -1.203308 0
-6.5707221 3.744828 -1.1978509 0
-6.5585485 3.708813 -1.1933579 0
-6.6036053 3.7051265 -1.1992891 0
-6.5967779 3.6722698 -1.1958065 0
-6.6212616 3.6568742 -1.1980153 0
-6.6474757 3.6423194 -1.2005421 0
-6.6537194 3.6167872 -1.1994729 0
-6.6594582 3.5910339 -1.1983302 0
-6.6776829 3.5720141 -1.1994478 0
-6.7004666 3.5553596 -1.2013923 0
-6.7320008 3.5432174 -1.2049096 0
-6.7078238 3.5018225 -1.1984742 0
-6.7141604 3.4765339 -1.1975169 0
-6.7387681 3.4606738 -1.1998297 0
-6.7395396 3.4325631 -1.1979111 0
-6.7687011 3.4188831 -1.2010503 0
-6.7923179 3.4022765 -1.20321 0
-6.7843065 3.3698575 -1.1997826 0
-6.7873816 3.3430605 -1.1983374 0
-6.8121734 3.3269372 -1.2007384 0
-6.8190551 3.3020279 -1.1999931 0
-6.8353081 3.2816529 -1.2009103 0
-6.8083429 3.2406631 -1.1942571 0
-6.8710561 3.2423017 -1.2033441 0
-6.8255911 3.1929111 -1.1935002 0
-6.8817539 3.1911049 -1.201443 0
-6.8970594 3.1701488 -1.2022526 0
-6.9032445 3.1449995 -1.201486 0
-6.9160147 3.122859 -1.2018795 0
-6.9213099 3.0973549 -1.2009883 0
-6.9293432 3.0731061 -1.2005875 0
-6.923193 3.0426419 -1.1977477 0
-6.9391561 3.0219386 -1.1987498 0
-6.9556527 3.0014193 -1.1998544 0
-6.9747105 2.9819436 -1.2014104 0
-6.9510198 2.944289 -1.1956226 0
-6.9915347 2.9338422 -1.2008927 0
-6.9803114 2.9016461 -1.1972871 0
-7.0053892 2.8845625 -1.1999229 0
-7.0137911 2.8605571 -1.1997125 0
-7.0082283 2.8309195 -1.1971307 0
-7.0485129 2.819741 -1.2023904 0
-7.0403399 2.7891252 -1.1993942 0
-7.0862575 2.7798648 -1.2056221 0
-7.0761294 2.7485514 -1.2023243 0
-7.0746808 2.7207251 -1.2005215 0
-7.0904355 2.6995304 -1.2016523 0
-7.0810466 2.6688073 -1.1985378 0
-7.0953465 2.6470623 -1.1994493 0
-7.1193867 2.6288726 -1.2020165 0
-7.123024 2.6031106 -1.2011503 0
-7.1384602 2.5816545 -1.2022868 0
-7.1458216 2.5572572 -1.202076 0
-7.1509275 2.5320704 -1.2014999 0
-7.1499701 2.5047851 -1.1999213 0
-7.1847291 2.4899483 -1.2043468 0
-7.1539469 2.4524446 -1.1978018 0
-7.1833282 2.4356329 -1.2013471 0
-7.1998086 2.4143364 -1.2027428 0
-7.2014937 2.3880711 -1.2016801 0
-7.2081461 2.3634815 -1.201461 0
-7.2007952 2.334362 -1.1989244 0
-7.1945033 2.3056941 -1.196583 0
-7.2232108 2.2882175 -1.2000749 0
-7.2204132 2.2607212 -1.198344 0
-7.2447371 2.2416935 -1.2011268 0
-7.2389879 2.2133472 -1.1989365 0
-7.256566 2.1921446 -1.2006239 0
-7.241365 2.1610844 -1.1969031 0
-7.2689023 2.142787 -1.2002605 0
-7.279521 2.1194155 -1.2008337 0
-7.2741137 2.0914106 -1.1987783 0
-7.2833786 2.0676615 -1.1991559 0
-7.3016753 2.0464265 -1.2010319 0
-7.2897506 2.016748 -1.1979516 0
-7.2988219 1.9929373 -1.1983374 0
-7.3010864 1.9672754 -1.1976196 0
-7.3195243 1.9459443 -1.1995671 0
-7.3540759 1.928754 -1.204163 0
-7.3165693 1.8927215 -1.1969758 0
-7.3463349 1.8741649 -1.2008107 0
-7.3657079 1.8528265 -1.202955 0
-7.3499613 1.822685 -1.1993785 0
-7.3603601 1.7990899 -1.2000844 0
-7.3682914 1.7748693 -1.2004005 0
-7.3720198 1.7496372 -1.2000455 0
-7.3572803 1.7201025 -1.1967006 0
-7.40587 1.7052952 -1.2036672 0
-7.4005671 1.6779659 -1.2018843 0
-7.3976207 1.6512396 -1.2004999 0
-7.3865137 1.6227802 -1.1978077 0
-7.4321032 1.606694 -1.2043202 0
-7.4163728 1.5772842 -1.2009075 0
-7.4285889 1.5538675 -1.2020353 0
-7.4478717 1.5318552 -1.2043176 0
-7.4150028 1.4991997 -1.1981832 0
-7.4432411 1.4789506 -1.2019382 0
-7.4412103 1.4526303 -1.200817 0
-7.4668107 1.4316558 -1.2041669 0
-7.4609413 1.4046122 -1.2024541 0
-7.4494901 1.3766105 -1.1998578 0
-7.4452081 1.3500203 -1.1984324 0
-7.4687862 1.3284464 -1.201504 0
-7.4828234 1.3050762 -1.2030516 0
-7.4727039 1.2775096 -1.2007291 0
-7.4703398 1.2513413 -1.1996684 0
-7.4927826 1.2292883 -1.2026039 0
-7.4624538 1.1986327 -1.1970843 0
-7.5135012 1.1810046 -1.2046311 0
-7.4961834 1.1525416 -1.2012281 0
-7.5170088 1.1299578 -1.2039515 0
-7.4876409 1.0998842 -1.1986505 0
-7.4888773 1.0744276 -1.198265 0
-7.5201259 1.0531906 -1.2026931 0
-7.5156541 1.0268834 -1.2014205 0
-7.5039072 0.99966109 -1.1990002 0
-7.4969893 0.97316873 -1.1973668 0
-7.5501909 0.95434481 -1.205346 0
-7.5095248 0.92363507 -1.1983528 0
-7.5183167 0.89913803 -1.199268 0
-7.5304713 0.87499237 -1.2007321 0
-7.5359855 0.85003501 -1.2011501 0
-7.5364733 0.82450974 -1.2007805 0
-7.5512972 0.80051965 -1.2027079 0
-7.5601034 0.77582967 -1.2036895 0
-7.5326419 0.74749869 -1.1989113 0
-7.551394 0.72380018 -1.201503 0
-7.5331655 0.69657171 -1.1982243 0
-7.5635209 0.67381048 -1.2026865 0
-7.5679154 0.64863431 -1.2030327 0
-7.5469766 0.62135738 -1.1993663 0
-7.5659509 0.59738731 -1.2020566 0
-7.5525784 0.57085782 -1.1996212 0
-7.5525069 0.54539192 -1.1993127 0
-7.5583935 0.52034903 -1.1999636 0
-7.5355158 0.49339485 -1.1960623 0
-7.576601 0.47057855 -1.2023262 0
-7.5544982 0.44378442 -1.198576 0
-7.5836496 0.41998747 -1.2029707 0
-7.5479798 0.39263207 -1.1970971 0
-7.5273414 0.36625674 -1.1936225 0
-7.5749192 0.34311831 -1.2009777 0
-7.5534911 0.31677401 -1.1974052 0
-7.5905232 0.29283613 -1.2031133 0
-7.5793538 0.26695842 -1.2011943 0
-7.5740304 0.24134798 -1.2002157 0
-7.5436673 0.21506484 -1.1952832 0
-7.597559 0.19110967 -1.2037139 0
-7.6041579 0.16576622 -1.2046646 0
-7.5851884 0.13991064 -1.2015784 0
-7.5894055 0.11453535 -1.2021788 0
-7.583003 0.089009702 -1.2011106 0
-7.5908456 0.06364844 -1.2023124 0
-7.5675678 0.038079415 -1.1985984 0
-7.5907817 0.012745407 -1.2022616 0
-7.5722442 2.0093628e-05 -1.1993238 0
-9.7527676 -0.016375519 -1.1974891 0
-9.7754755 -0.049189433 -1.2002908 0
-9.7644806 -0.081874132 -1.1989678 0
-9.7728224 -0.11471391 -1.2000326 0
-9.7591829 -0.1472805 -1.1984117 0
-9.7533369 -0.17990266 -1.1977612 0
-9.7436266 -0.2124054 -1.1966493 0
-9.776206 -0.24591155 -1.2007451 0
-9.7562685 -0.2781446 -1.1984041 0
-9.7885208 -0.31191316 -1.2024875 0
-9.7686052 -0.34406775 -1.2001758 0
-9.7425289 -0.37585875 -1.1971202 0
-9.7670975 -0.40960699 -1.2003011 0
-9.7646008 -0.44230354 -1.2001698 0
-9.7504778 -0.47442752 -1.1986227 0
-9.7766523 -0.50856352 -1.2020432 0
-9.7397976 -0.53939635 -1.1977274 0
-9.7637987 -0.57356846 -1.2009087 0
-9.7280521 -0.604204 -1.1967545 0
-9.7224264 -0.63658482 -1.1963183 0
-9.7232952 -0.66938925 -1.1966945 0
-9.7430925 -0.70358145 -1.1994147 0
-9.7203674 -0.73470908 -1.1969137 0
-9.728281 -0.76811916 -1.1981986 0
-9.7381392 -0.80176014 -1.1997371 0
-9.7294922 -0.83389968 -1.1990094 0
-9.7541323 -0.86896527 -1.2023983 0
-9.7268305 -0.899414 -1.1993977 0
-9.7266159 -0.93229491 -1.1997499 0
-9.7100697 -0.96357489 -1.1981008 0
-9.7391863 -0.99945056 -1.2021002 0
-9.7114592 -1.0295203 -1.1990972 0
-9.7136087 -1.062694 -1.1997956 0
-9.7386494 -1.0984885 -1.2033368 0
-9.7042475 -1.1275711 -1.1995463 0
-9.7168274 -1.1620644 -1.2015762 0
-9.6928291 -1.1921709 -1.1990962 0
-9.7243881 -1.2291636 -1.2035035 0
-9.6688919 -1.2550988 -1.1971492 0
-9.6994877 -1.2921536 -1.2014672 0
-9.6705132 -1.3213074 -1.19842 0
-9.6722612 -1.3545961 -1.1991928 0
-9.6636257 -1.3864384 -1.1986917 0
-9.6855545 -1.4227428 -1.2019967 0
-9.6398382 -1.449062 -1.1969196 0
-9.6524715 -1.484072 -1.1990992 0
-9.6583157 -1.5181358 -1.2004507 0
-9.6367712 -1.5478755 -1.1984112 0
-9.6553097 -1.5840789 -1.2013704 0
-9.6407394 -1.6149006 -1.2002244 0
-9.6584511 -1.651178 -1.2031119 0
-9.6571684 -1.6843029 -1.2036488 0
-9.6195498 -1.7109951 -1.1996684 0
-9.6167526 -1.7437807 -1.2000419 0
-9.6072073 -1.7753407 -1.1995869 0
-9.6090889 -1.8090267 -1.2005723 0
-9.5827074 -1.8373492 -1.1980392 0
-9.5869217 -1.8715037 -1.1993438 0
-9.5969887 -1.906894 -1.2013962 0
-9.573061 -1.9355259 -1.1992065 0
-9.5757971 -1.9695203 -1.2003697 0
-9.55902 -1.9994981 -1.1991003 0
-9.5533543 -2.0317688 -1.1992373 0
-9.5596533 -2.0666342 -1.2008911 0
-9.5353374 -2.094866 -1.1987121 0
-9.5316925 -2.1275907 -1.199144 0
-9.5315599 -2.1611362 -1.2000321 0
-9.5343208 -2.1953981 -1.2012997 0
-9.5216408 -2.2261214 -1.2006358 0
-9.5009413 -2.2549045 -1.1989722 0
-9.4916601 -2.286345 -1.1987616 0
-9.4785757 -2.3168445 -1.1980834 0
-9.4825048 -2.3515253 -1.1995699 0
-9.4713774 -2.3825026 -1.1991659 0
-9.454215 -2.4119182 -1.1980102 0
-9.475812 -2.4512951 -1.2017815 0
-9.4468403 -2.4776232 -1.199154 0
-9.4736176 -2.5186243 -1.2036183 0
-9.4745598 -2.552917 -1.2048186 0
-9.4226513 -2.5728471 -1.199308 0
-9.4404354 -2.6117463 -1.2026793 0
-9.4120579 -2.6378994 -1.2001841 0
-9.4236956 -2.675271 -1.2028052 0
-9.396162 -2.7015297 -1.2004403 0
-9.3777285 -2.7303035 -1.199248 0
-9.3649282 -2.7606709 -1.198788 0
-9.372426 -2.7970698 -1.2009414 0
-9.3556776 -2.8262675 -1.2000029 0
-9.3308334 -2.8529365 -1.1980364 0
-9.3290062 -2.8866155 -1.1990377 0
-9.3499393 -2.9274788 -1.202983 0
-9.3033123 -2.947166 -1.1982485 0
-9.2904148 -2.9773917 -1.1978663 0
-9.283576 -3.0095601 -1.1982788 0
-9.2711887 -3.0399334 -1.1979889 0
-9.2916269 -3.0811753 -1.2019578 0
-9.2562199 -3.1039197 -1.1987171 0
-9.265913 -3.1417696 -1.2013299 0
-9.2294111 -3.1639345 -1.197966 0
-9.2343645 -3.2002723 -1.199995 0
-9.2550745 -3.2422476 -1.204092 0
-9.2065144 -3.259933 -1.1991897 0
-9.1943588 -3.2903621 -1.1990366 0
-9.204689 -3.3289151 -1.2018325 0
-9.1387873 -3.3397717 -1.1946832 0
-9.1844063 -3.3913925 -1.2021266 0
-9.1691084 -3.4207213 -1.2016187 0
-9.1576052 -3.4514508 -1.2016209 0
-9.1291676 -3.4757333 -1.1994117 0
-9.1367435 -3.5137372 -1.2019483 0
-9.1044741 -3.5364127 -1.1992562 0
-9.0894794 -3.5657077 -1.1988491 0
-9.0852995 -3.5992634 -1.1998827 0
-9.0564766 -3.6230221 -1.1976737 0
-9.0714102 -3.664326 -1.2012665 0
-9.0549469 -3.6930373 -1.2007195 0
-9.0381851 -3.7215934 -1.2001445 0
-9.0058832 -3.7436562 -1.1975152 0
-9.0080509 -3.7800281 -1.199482 0
-8.9869061 -3.8066425 -1.1983593 0
-9.0110884 -3.8525696 -1.2032995 0
