# .PCD v0.7 - Point Cloud Data file format
VERSION 0.7
FIELDS x y z intensity
SIZE 4 4 4 4
TYPE F F F F
COUNT 1 1 1 1
WIDTH 1415
HEIGHT 1
VIEWPOINT 0 0 0 1 0 0 0
POINTS 1415
DATA ascii
5.221756 -3.2367339 -1.1941829 0
5.2600574 -3.2361135 -1.2004541 0
5.2720957 -3.219203 -1.2007315 0
5.2907987 -3.20632 -1.202536 0
5.2924261 -3.183094 -1.2004734 0
5.2864857 -3.1554334 -1.1967195 0
5.2979712 -3.1382453 -1.1969309 0
5.3259296 -3.1307316 -1.2008691 0
5.3343487 -3.1116626 -1.2004082 0
5.346839 -3.0949686 -1.2008772 0
5.3500452 -3.0729227 -1.1992764 0
5.3725328 -3.0619295 -1.2020093 0
5.3764849 -3.0403457 -1.2006061 0
5.3815804 -3.0194585 -1.1994765 0
5.3971529 -3.0044484 -1.2006954 0
5.4117112 -2.9888296 -1.2016981 0
5.4038591 -2.960892 -1.1977433 0
5.4230275 -2.9477968 -1.1997945 0
5.4315286 -2.928869 -1.199496 0
5.4279766 -2.9035051 -1.196555 0
5.4394617 -2.8862345 -1.1969469 0
5.4673467 -2.8775802 -1.2009531 0
5.4932442 -2.867732 -1.2045228 0
5.4903188 -2.8428209 -1.2017846 0
5.4861403 -2.8173721 -1.1987957 0
5.4760084 -2.7890067 -1.1945317 0
5.5135927 -2.7849071 -1.2006867 0
5.513051 -2.7614727 -1.1985457 0
5.5192299 -2.7414584 -1.197884 0
5.5379319 -2.7276375 -1.1999514 0
5.5521078 -2.7115269 -1.2010465 0
5.5634952 -2.6940231 -1.2015489 0
5.5568924 -2.6678634 -1.1981845 0
5.5729041 -2.6525958 -1.1997125 0
5.5817342 -2.6338806 -1.1997056 0
5.5787416 -2.6096351 -1.197175 0
5.5954051 -2.5946002 -1.1988775 0
5.6285172 -2.5870609 -1.2041068 0
5.6324854 -2.5660455 -1.2031083 0
5.6237359 -2.5393252 -1.1994141 0
5.1566615 -2.3076408 -1.0981416 0
5.1416526 -2.2802639 -1.0933111 0
5.1267948 -2.253135 -1.0885392 0
5.125195 -2.2319591 -1.0866046 0
5.1364727 -2.2164125 -1.0874139 0
5.116828 -2.1876149 -1.0816962 0
5.1535354 -2.1829004 -1.0879028 0
5.1534891 -2.1625309 -1.0863563 0
5.1253753 -2.1305516 -1.078918 0
5.1228242 -2.1093755 -1.0768862 0
5.1379652 -2.0954902 -1.0785861 0
5.1417565 -2.076957 -1.0779141 0
5.17869 -2.0717068 -1.0841944 0
5.2472372 -2.0787473 -1.09708 0
5.294548 -2.0769796 -1.1055095 0
5.3578839 -2.0811241 -1.1172708 0
5.4241805 -2.0859723 -1.1296308 0
5.4617672 -2.0794332 -1.1360002 0
5.7636628 -2.1722751 -1.1972703 0
5.7771587 -2.1552684 -1.198566 0
5.8232598 -2.1502531 -1.2066278 0
5.7897339 -2.1158421 -1.1982043 0
5.8255382 -2.1068132 -1.2041454 0
5.8157697 -2.0812573 -1.2006772 0
5.8072314 -2.0562639 -1.1974844 0
5.8102231 -2.0354261 -1.1966873 0
5.8154697 -2.0153987 -1.1963694 0
5.8100295 -1.991719 -1.1938698 0
5.8624401 -1.9877454 -1.2032632 0
5.8268304 -1.9539137 -1.1946028 0
5.8758135 -1.9484479 -1.2032992 0
5.8935795 -1.9324305 -1.2056037 0
5.874393 -1.9043502 -1.200366 0
5.8660913 -1.8799475 -1.1973751 0
5.8918619 -1.8664466 -1.2013512 0
5.8918552 -1.8447307 -1.2000819 0
5.8780603 -1.8187941 -1.1960233 0
5.8976369 -1.803207 -1.1987697 0
5.9152403 -1.7869246 -1.2011232 0
5.8985009 -1.7603083 -1.1965191 0
5.9113975 -1.7425935 -1.1979432 0
5.9362497 -1.7283082 -1.2017986 0
5.9532914 -1.7116386 -1.20408 0
5.9439683 -1.6874022 -1.2010434 0
5.939033 -1.6645044 -1.1989117 0
5.956646 -1.6479206 -1.2013452 0
5.9549894 -1.625988 -1.1999048 0
5.9518929 -1.6037186 -1.1981907 0
5.9537177 -1.5828186 -1.1974829 0
5.9736671 -1.5666971 -1.2004322 0
5.9808736 -1.5471737 -1.2008312 0
6.025188 -1.5371026 -1.2086869 0
5.9882545 -1.5063144 -1.200258 0
6.0044441 -1.4889992 -1.2024956 0
5.991652 -1.4645203 -1.1989437 0
5.9931908 -1.4436193 -1.1982763 0
6.0032191 -1.4247564 -1.1993195 0
6.0109291 -1.4053142 -1.1999117 0
6.0065622 -1.3830702 -1.1981076 0
6.0317335 -1.367587 -1.202207 0
6.0278168 -1.3454659 -1.2005205 0
6.0209699 -1.3227602 -1.1982667 0
6.0344601 -1.3045306 -1.2000743 0
6.024313 -1.2812098 -1.1971954 0
6.0344553 -1.2622342 -1.1983632 0
6.0293303 -1.2400774 -1.1965131 0
6.0652394 -1.2262815 -1.2028165 0
6.0509572 -1.202291 -1.199178 0
6.0635252 -1.1836697 -1.2008754 0
6.0674934 -1.1633397 -1.2008821 0
6.0617089 -1.1411731 -1.1989732 0
6.073925 -1.1223997 -1.2006384 0
6.0752969 -1.1016012 -1.2001728 0
6.0739655 -1.080338 -1.1991874 0
6.0657539 -1.0579091 -1.1968592 0
6.0704017 -1.0377599 -1.197083 0
6.0767093 -1.0178806 -1.1976471 0
6.0744085 -0.9965691 -1.1965284 0
6.0903563 -0.97822744 -1.1990169 0
6.0949364 -0.95801187 -1.1992795 0
6.1264663 -0.94193041 -1.2048554 0
6.0885787 -0.91521949 -1.1967942 0
6.1426678 -0.9023 -1.2068247 0
6.1416821 -0.88112921 -1.2060437 0
6.1364431 -0.85938972 -1.2044424 0
6.1230745 -0.83659506 -1.2012612 0
6.1147771 -0.8145864 -1.1990907 0
6.1272001 -0.79534268 -1.2009972 0
6.1170945 -0.77318478 -1.1985015 0
6.1421065 -0.75543272 -1.2028991 0
6.1489873 -0.73535925 -1.2037569 0
6.1296744 -0.71221226 -1.1995019 0
6.1400847 -0.69256538 -1.2010781 0
6.1109791 -0.66854054 -1.1949394 0
6.1502457 -0.65197641 -1.2021834 0
6.1211104 -0.62814158 -1.19607 0
6.1358247 -0.60886967 -1.1985395 0
6.1463656 -0.58911192 -1.2002059 0
6.1593952 -0.56952637 -1.2023706 0
6.1568036 -0.54847395 -1.2014989 0
6.1467552 -0.52681243 -1.1991866 0
6.1572862 -0.50692499 -1.2009027 0
6.1479244 -0.48540729 -1.1987526 0
6.1553097 -0.46522957 -1.1998818 0
6.1208768 -0.44199276 -1.1928741 0
6.1652021 -0.42441991 -1.2012284 0
6.1733828 -0.40419146 -1.2025515 0
6.1566634 -0.38237062 -1.1990381 0
6.1723313 -0.36257342 -1.201846 0
6.1534147 -0.34076378 -1.1979336 0
6.163094 -0.32057646 -1.1996019 0
6.1609569 -0.29975638 -1.1989836 0
6.1700716 -0.27946705 -1.2005682 0
6.1533327 -0.25803861 -1.1971362 0
6.1722794 -0.23810506 -1.2006601 0
6.1795731 -0.21763922 -1.2019303 0
6.1739326 -0.19671719 -1.2006981 0
6.1318669 -0.1747991 -1.1923966 0
6.1870089 -0.15561214 -1.2030112 0
6.1645818 -0.13436794 -1.1985562 0
6.1770697 -0.11392114 -1.2009031 0
6.1740355 -0.093158938 -1.2002457 0
6.1691217 -0.072397113 -1.1992365 0
6.187211 -0.051862687 -1.2027124 0
6.1662903 -0.031011932 -1.1986188 0
6.1572309 -0.010322046 -1.1968443 0
6.1769452 0.010355094 -1.2006764 0
6.1886911 0.03112459 -1.2029731 0
6.1721191 0.051736183 -1.1997788 0
6.1842966 0.072575197 -1.2021865 0
6.1801357 0.093250982 -1.2014316 0
6.1609941 0.11362466 -1.1977777 0
6.1683626 0.13445035 -1.1992912 0
6.1647677 0.15505274 -1.1986866 0
6.178771 0.17613617 -1.2015176 0
6.1613636 0.1963167 -1.1982538 0
6.192667 0.21810037 -1.204477 0
6.1681042 0.23794399 -1.1998479 0
6.1714244 0.25879729 -1.2006559 0
6.147727 0.27845499 -1.1962204 0
6.1570778 0.29956764 -1.1982286 0
6.1663728 0.32074702 -1.20024 0
6.1506071 0.34060827 -1.1973869 0
6.1531053 0.36144406 -1.1981025 0
6.1841769 0.3840794 -1.2043965 0
6.176342 0.40438524 -1.203128 0
6.1730733 0.42496178 -1.202762 0
6.1628442 0.4450233 -1.2010529 0
6.1536856 0.46510682 -1.1995653 0
6.1512966 0.48567355 -1.1994102 0
6.154573 0.50670159 -1.2003735 0
6.1495934 0.52705568 -1.1997403 0
6.1286497 0.54596591 -1.1960047 0
6.1487403 0.56854111 -1.2002907 0
6.1525364 0.58970338 -1.2014109 0
6.1343727 0.60872555 -1.1982558 0
6.1536331 0.63147902 -1.2024249 0
6.1286216 0.64968407 -1.1979564 0
6.1506257 0.67287785 -1.2026918 0
6.134635 0.69195074 -1.200012 0
6.0869308 0.70724583 -1.1911376 0
6.1387405 0.73413378 -1.201751 0
6.1140742 0.75198495 -1.197409 0
6.1010599 0.7711581 -1.1953599 0
6.1413932 0.797185 -1.2037792 0
6.1123204 0.81425917 -1.198609 0
6.1209126 0.83629966 -1.2008369 0
6.1103125 0.85573024 -1.1993135 0
6.1111875 0.87675422 -1.2000555 0
6.102818 0.89644641 -1.1989955 0
6.1058903 0.91782176 -1.200197 0
6.1421499 0.94434166 -1.2079397 0
6.0950971 0.95803714 -1.1993113 0
6.0817723 0.97684866 -1.197327 0
6.0782385 0.99719739 -1.1972829 0
6.091908 1.0204265 -1.2006426 0
6.0944562 1.0418721 -1.2018266 0
6.0608172 1.0570481 -1.1958851 0
6.0581722 1.077529 -1.1960694 0
6.071537 1.1009195 -1.19943 0
6.0743756 1.1224829 -1.2007275 0
6.0915732 1.1467954 -1.2048802 0
6.0464392 1.1593029 -1.1967151 0
6.0642929 1.1838195 -1.2010274 0
6.050364 1.2021732 -1.1990604 0
6.0537043 1.2239493 -1.2005289 0
6.0366106 1.2415746 -1.1979579 0
6.0453229 1.2645075 -1.2005215 0
6.036571 1.2838168 -1.1996313 0
6.0387545 1.3054589 -1.2009283 0
6.0211377 1.3227972 -1.1983002 0
6.0304456 1.3460525 -1.2010441 0
6.0168796 1.3642192 -1.1992465 0
6.039803 1.3907242 -1.204738 0
6.0192208 1.4072528 -1.2015669 0
6.0145078 1.4274354 -1.2015747 0
6.0091362 1.4474601 -1.2014644 0
6.0011096 1.4668319 -1.2008362 0
5.9738011 1.4814003 -1.1963588 0
5.9957409 1.5081977 -1.2017586 0
5.9679699 1.5225056 -1.1972088 0
5.9650154 1.5430715 -1.1976472 0
5.9666567 1.5648584 -1.1990234 0
5.9646392 1.5857221 -1.1996796 0
5.9413252 1.6008712 -1.1960633 0
5.9427919 1.6226575 -1.1974471 0
5.9719863 1.6521645 -1.2044389 0
5.9601908 1.6704342 -1.2031828 0
5.9276199 1.6827613 -1.19774 0
5.9358621 1.7066275 -1.2005548 0
5.9131556 1.7215844 -1.1971231 0
5.9344568 1.7493911 -1.2026162 0
5.8935452 1.7588294 -1.1955138 0
5.9063659 1.7842439 -1.1993213 0
5.9228392 1.8109126 -1.2038924 0
5.8965716 1.8245219 -1.1997899 0
5.8826232 1.8418403 -1.1982015 0
5.8875723 1.8650877 -1.2004765 0
5.8868494 1.8866001 -1.2016122 0
5.8453345 1.89493 -1.1944283 0
5.846137 1.9168749 -1.1958989 0
5.8511186 1.940259 -1.1982419 0
5.8696952 1.9682876 -1.203391 0
5.8630919 1.9879663 -1.2033968 0
4.7514715 1.6288379 -0.97635275 0
4.6998262 1.6287633 -0.96685719 0
4.6337681 1.6232928 -0.95438188 0
4.5960975 1.6274174 -0.94774157 0
4.5607786 1.6321406 -0.94158179 0
4.5061679 1.6296612 -0.9314301 0
4.4400196 1.6225927 -0.91887653 0
4.4563594 1.6455218 -0.92339468 0
4.4452076 1.658361 -0.92223084 0
4.4499068 1.6771318 -0.92436725 0
4.4720883 1.7026374 -0.93015552 0
4.4346032 1.7054114 -0.9235431 0
4.4518213 1.7291888 -0.92833114 0
4.4523234 1.7465862 -0.92965168 0
4.4649472 1.7688351 -0.93352062 0
4.4288917 1.771754 -0.92721903 0
4.4533439 1.7988801 -0.93359572 0
4.4624567 1.8199879 -0.9367801 0
4.4394932 1.8280069 -0.93324089 0
5.7011523 2.3698947 -1.2001221 0
5.6826439 2.3845775 -1.1979023 0
5.7193279 2.4225552 -1.2073407 0
5.6550174 2.4177089 -1.1954693 0
5.6838207 2.4525957 -1.2032899 0
5.6609888 2.4652908 -1.2001995 0
5.6738753 2.493567 -1.2046973 0
5.6234326 2.4939275 -1.1957557 0
5.6569862 2.5315394 -1.2046887 0
5.6364589 2.5450702 -1.2021277 0
5.6353951 2.5673711 -1.2037299 0
5.5876021 2.5682549 -1.1953539 0
5.5848775 2.5897186 -1.1966217 0
5.6042099 2.6215487 -1.2026404 0
5.5699568 2.6283233 -1.1971742 0
5.5619087 2.647362 -1.1973455 0
5.5847273 2.6812267 -1.2041862 0
5.5434823 2.6843324 -1.1972268 0
5.513669 2.692754 -1.1927311 0
5.5366321 2.7269974 -1.1996697 0
5.5160947 2.7399011 -1.1972035 0
5.5134344 2.7616646 -1.198629 0
5.5192876 2.7877836 -1.2019268 0
5.4921932 2.7972498 -1.1980622 0
5.4958124 2.8223393 -1.2009091 0
5.4913263 2.8433425 -1.2020053 0
5.4834361 2.8626118 -1.2023722 0
5.4719782 2.8800178 -1.2019705 0
5.4650016 2.8997862 -1.2025669 0
5.4588928 2.9200425 -1.2033702 0
5.4340959 2.9302533 -1.2000629 0
5.4309931 2.9521267 -1.2015568 0
5.4241114 2.9719887 -1.2022321 0
5.4045401 2.984869 -1.2001057 0
5.4109797 3.0121453 -1.2037715 0
5.4178877 3.0398297 -1.2075689 0
5.3600516 3.0310526 -1.1969364 0
5.3743148 3.0629447 -1.202408 0
5.3641672 3.0810339 -1.202442 0
5.3456082 3.0942562 -1.2006007 0
5.3222208 3.1045883 -1.197679 0
5.3037982 3.117722 -1.1958789 0
5.3025923 3.1409824 -1.1979748 0
5.3144979 3.1721535 -1.2030606 0
5.2896347 3.1814151 -1.1998403 0
5.2740259 3.1961551 -1.1987237 0
5.2793961 3.2236607 -1.2023941 0
5.2638655 3.2384565 -1.2013233 0
5.2420611 3.24932 -1.1988266 0
5.2362704 3.2700832 -1.2000029 0
5.2430143 3.2987809 -1.2040764 0
5.2310071 3.3157597 -1.2038653 0
5.2164731 3.3311164 -1.203084 0
5.1973276 3.3434749 -1.2012471 0
5.1730232 3.3524146 -1.1982207 0
5.144309 3.3583512 -1.1941712 0
5.1572561 3.3915184 -1.1998096 0
5.1415973 3.4059696 -1.1988167 0
5.1338091 3.4256315 -1.1996719 0
5.1228256 3.4431818 -1.1997962 0
5.0958023 3.4498782 -1.1961695 0
5.0903273 3.471118 -1.1976095 0
5.0948448 3.4992812 -1.2014259 0
5.0748963 3.5106795 -1.1994907 0
5.0746603 3.5357316 -1.2022302 0
5.0642791 3.5537801 -1.2025869 0
5.0444875 3.5651929 -1.2007188 0
5.023138 3.5754182 -1.1984837 0
5.0145817 3.5947199 -1.1993111 0
4.9906282 3.6029413 -1.1964648 0
4.9742651 3.61656 -1.1954421 0
4.9842992 3.6494629 -1.2007874 0
4.9770617 3.6698601 -1.2020013 0
4.9581361 3.6816308 -1.2004051 0
4.9537306 3.7041907 -1.2023386 0
4.9265537 3.7096875 -1.1987545 0
4.9105577 3.7235072 -1.1978933 0
4.9083257 3.7477996 -1.2004074 0
4.8912578 3.7607951 -1.1993103 0
4.879426 3.7777967 -1.1995082 0
4.8847127 3.8081527 -1.2039397 0
4.8763514 3.8279896 -1.2050354 0
4.8469677 3.8312581 -1.2009418 0
4.8287954 3.8432698 -1.1996254 0
4.8185997 3.8616157 -1.2003021 0
4.8199649 3.8893206 -1.2038838 0
4.7730031 3.8779206 -1.1953949 0
4.8000312 3.9266706 -1.2054546 0
4.7726326 3.931041 -1.201877 0
4.7592721 3.9468932 -1.2018383 0
4.7380753 3.9562008 -1.1998284 0
4.7229781 3.970546 -1.1993697 0
4.7189221 3.9942164 -1.2017337 0
4.6952896 4.0013108 -1.1991252 0
4.6679201 4.0050817 -1.1955581 0
4.6651239 4.0299168 -1.1982958 0
4.6690326 4.0607085 -1.2027901 0
4.6329417 4.0566826 -1.1969899 0
4.6609011 4.1088543 -1.2077662 0
4.6137877 4.0948939 -1.1991087 0
4.5975947 4.1081619 -1.1984733 0
4.5993667 4.1375618 -1.2025447 0
4.5857282 4.1531944 -1.2026128 0
4.5583925 4.1563416 -1.1990918 0
4.5461326 4.1731634 -1.1995406 0
4.5235462 4.1804633 -1.1972727 0
4.5509486 4.2341657 -1.2082762 0
4.5144262 4.2285123 -1.2023368 0
4.4865322 4.2307138 -1.1986789 0
4.4688845 4.2424693 -1.1977575 0
4.4636865 4.2660789 -1.2001911 0
4.4433913 4.27528 -1.1985817 0
4.4246426 4.2859015 -1.1973938 0
4.4193358 4.3095751 -1.1998612 0
4.4045563 4.3240681 -1.199778 0
4.3918138 4.3405704 -1.2002643 0
4.3731742 4.3512297 -1.1991507 0
4.3920112 4.3993745 -1.2083538 0
4.3594913 4.3961811 -1.2034552 0
4.3422098 4.408217 -1.2027578 0
4.324532 4.4198141 -1.2019593 0
4.2997746 4.424088 -1.1991942 0
4.2911296 4.4449143 -1.2009327 0
4.2842484 4.4676666 -1.2031922 0
4.2716656 4.4845467 -1.2038745 0
4.2538543 4.4959359 -1.2030964 0
4.2379518 4.5093169 -1.202868 0
4.2023759 4.5016127 -1.1970476 0
4.185997 4.5143161 -1.1966867 0
4.1858063 4.5445766 -1.2009815 0
4.1646686 4.5521617 -1.1992891 0
4.1480699 4.5646544 -1.1989095 0
4.1470361 4.5943723 -1.2030563 0
4.1246352 4.6004729 -1.2010257 0
4.111342 4.6166954 -1.2016554 0
4.0861158 4.6194606 -1.1988025 0
4.0722413 4.6349974 -1.1992844 0
4.0702453 4.6641717 -1.2032954 0
4.0435185 4.6650252 -1.2000113 0
4.0330458 4.684586 -1.2015579 0
4.0151329 4.695528 -1.2009047 0
4.0078559 4.7189589 -1.2034538 0
3.9743569 4.7114406 -1.1981314 0
3.9738367 4.7429991 -1.2027619 0
3.9671032 4.7673416 -1.2055551 0
3.9391356 4.7661428 -1.2019054 0
3.9091241 4.7622566 -1.1976135 0
3.9115438 4.7979169 -1.2032764 0
3.895623 4.8112359 -1.2033342 0
3.8682284 4.8102913 -1.1998475 0
3.8528788 4.8242354 -1.2000966 0
3.8425915 4.8445764 -1.2019449 0
3.8325589 4.8653436 -1.2039025 0
3.8073812 4.8668618 -1.2011126 0
3.7874105 4.8749251 -1.1999621 0
3.7545035 4.866158 -1.1946987 0
3.7537806 4.899096 -1.1996887 0
3.7349689 4.908546 -1.1989295 0
3.720073 4.9231358 -1.1994398 0
3.7175834 4.954288 -1.203986 0
3.6923449 4.9551744 -1.2011862 0
3.6701825 4.9600554 -1.1993797 0
3.642957 4.9579411 -1.1959082 0
3.6413348 4.990715 -1.2008619 0
3.6279652 5.0075665 -1.2019831 0
3.5980332 5.0014615 -1.1976154 0
3.5904682 5.0264101 -1.2007 0
3.5702553 5.033711 -1.1995778 0
3.5508914 5.04215 -1.198745 0
3.5276396 5.0449796 -1.196599 0
3.5088408 5.0540938 -1.1959637 0
3.496176 5.0720687 -1.1974366 0
3.4840703 5.090951 -1.1991298 0
3.4714997 5.1092529 -1.2006924 0
3.4520562 5.1174636 -1.1998951 0
3.4317019 5.1242647 -1.1987853 0
3.4258311 5.152782 -1.2027628 0
3.4058819 5.1602187 -1.2018265 0
3.3934491 5.1790686 -1.20356 0
3.372926 5.1855903 -1.2024407 0
3.3471882 5.1839647 -1.1994548 0
3.3372881 5.2068586 -1.2021563 0
3.3058922 5.1961408 -1.1971158 0
3.2869687 5.2048469 -1.1965759 0
3.2748487 5.2243719 -1.1985337 0
3.2602665 5.240068 -1.19962 0
3.2568974 5.2739935 -1.20488 0
3.2318604 5.2729144 -1.2021512 0
3.2029588 5.2653022 -1.1979606 0
3.1904182 5.2845101 -1.1998904 0
3.1723003 5.2945399 -1.1997459 0
3.1509635 5.2991467 -1.1983891 0
3.1306527 5.3054008 -1.1974229 0
3.1262918 5.3388271 -1.2025946 0
3.1034808 5.340858 -1.2007015 0
3.0800755 5.3417277 -1.1985687 0
3.0671906 5.3608375 -1.2005422 0
3.0425823 5.3594351 -1.1979369 0
3.0385778 5.3944283 -1.2034746 0
3.0097983 5.3854828 -1.1992209 0
2.9973593 5.4057055 -1.2014794 0
2.9800937 5.4173164 -1.2018325 0
2.9546521 5.4139714 -1.198886 0
2.9372249 5.4252172 -1.1991887 0
2.9243345 5.4449325 -1.2013726 0
2.9098549 5.4618254 -1.2029405 0
2.8834069 5.4561872 -1.1995627 0
2.8623269 5.4605393 -1.1984029 0
2.8521168 5.4857121 -1.201822 0
2.8263526 5.4809794 -1.1987025 0
2.8013704 5.47754 -1.1958892 0
2.7936327 5.5078859 -1.2004629 0
2.7761154 5.5191402 -1.2008804 0
2.7543674 5.521946 -1.1994748 0
2.7355783 5.5306253 -1.199361 0
2.7155278 5.5367241 -1.1987023 0
2.7044535 5.5612292 -1.2020379 0
2.6766181 5.5512381 -1.1979319 0
2.6682367 5.581614 -1.2025496 0
2.6433835 5.5776067 -1.19977 0
2.6237943 5.584579 -1.1993706 0
2.5956507 5.5731511 -1.1950406 0
2.5877383 5.6051898 -1.2000434 0
2.566385 5.6082716 -1.1988543 0
2.5504122 5.6231174 -1.2001932 0
2.535109 5.6395664 -1.2018831 0
2.5104303 5.6351137 -1.1991336 0
2.4952772 5.6520033 -1.2009405 0
2.4797518 5.6681976 -1.2026082 0
2.4539275 5.6607804 -1.1992821 0
2.4403806 5.6816564 -1.2019646 0
2.4086256 5.6599822 -1.1956643 0
2.400059 5.6927505 -1.2008798 0
2.3788805 5.6957893 -1.1998316 0
2.3570888 5.6972518 -1.1984682 0
2.3347201 5.6971836 -1.1968005 0
2.3216264 5.7198129 -1.1999123 0
2.3010557 5.7241316 -1.199193 0
2.2835908 5.7361856 -1.2001075 0
2.2629514 5.7402725 -1.1993684 0
2.2440324 5.7486982 -1.1995502 0
2.2270827 5.7622371 -1.2008103 0
2.2093894 5.7739544 -1.2017018 0
2.1867676 5.7727489 -1.1999182 0
2.1693764 5.7853179 -1.2010121 0
2.1449072 5.7789268 -1.1981856 0
2.1304333 5.7994618 -1.2009555 0
2.111656 5.8084402 -1.2013419 0
2.0913868 5.8133116 -1.2008924 0
2.0637763 5.7975149 -1.1961931 0
2.0464833 5.8105245 -1.1974549 0
2.0221159 5.8033648 -1.1945754 0
2.0169981 5.8517475 -1.2031358 0
1.9966295 5.8563147 -1.2026917 0
1.9746176 5.8559604 -1.2012526 0
1.9590552 5.8747911 -1.2037612 0
1.9279261 5.8466902 -1.1966721 0
1.9109199 5.8611193 -1.1983072 0
1.8900923 5.8638768 -1.1975687 0
1.872226 5.8758454 -1.1987242 0
1.8522348 5.8812003 -1.1985431 0
1.8214358 5.8518124 -1.1913027 0
1.8197337 5.916173 -1.2031564 0
1.7902265 5.8904524 -1.1966981 0
1.7706155 5.8969164 -1.1967986 0
1.7475197 5.8916454 -1.194533 0
1.7362905 5.9266014 -1.2004333 0
1.7168242 5.9338212 -1.2007229 0
1.6984057 5.944746 -1.2017746 0
1.6797339 5.9549069 -1.2026834 0
1.6602035 5.9621024 -1.2030057 0
1.626815 5.9189196 -1.1931852 0
1.615218 5.954783 -1.1993163 0
1.6015432 5.9837012 -1.2040523 0
1.5707276 5.948348 -1.1958721 0
1.5603919 5.9905009 -1.203288 0
1.5339918 5.9711514 -1.1983615 0
1.5164164 5.9859457 -1.2003036 0
1.4940034 5.9816484 -1.1984307 0
1.4725217 5.9808645 -1.1972777 0
1.4555147 5.998354 -1.1997951 0
1.4409277 6.0263391 -1.2044196 0
1.4148525 6.0062513 -1.1994501 0
1.3990523 6.0296898 -1.2031872 0
1.3770692 6.0266495 -1.2016525 0
1.3508756 6.004653 -1.1963569 0
1.3310221 6.0104427 -1.1966145 0
1.3203198 6.0582652 -1.2052473 0
1.2928843 6.0294728 -1.1986502 0
1.2689017 6.0159488 -1.1951091 0
1.2520903 6.036397 -1.1983306 0
1.2297778 6.0304275 -1.1963203 0
1.2139 6.0562086 -1.2006207 0
1.1911581 6.0479083 -1.1981766 0
1.1694597 6.044559 -1.1967295 0
1.146735 6.0355406 -1.1941762 0
1.1324399 6.0712366 -1.2004808 0
1.1150302 6.0911269 -1.2036679 0
1.0884882 6.0607924 -1.1969455 0
1.0766692 6.1127105 -1.2064791 0
1.048391 6.0712471 -1.1975949 0
1.0324901 6.1010871 -1.2027913 0
1.0094044 6.088686 -1.1996727 0
0.99430138 6.1247873 -1.2061222 0
0.96927297 6.0998449 -1.2005637 0
0.9487763 6.1028056 -1.2005136 0
0.92769337 6.1019006 -1.1997169 0
0.90958673 6.1208382 -1.2028339 0
0.88844985 6.1196537 -1.202009 0
0.8689242 6.1296334 -1.2033902 0
0.84387183 6.1000133 -1.1970129 0
0.8237142 6.1050262 -1.1974479 0
0.80423564 6.1153202 -1.1989313 0
0.78433228 6.1227026 -1.1998564 0
0.7613799 6.1058931 -1.1960553 0
0.74349928 6.1298108 -1.2002454 0
0.72613674 6.1593595 -1.2055477 0
0.70312101 6.1411428 -1.201514 0
0.68189126 6.1377435 -1.2003949 0
0.6602909 6.1305451 -1.1985474 0
0.64332932 6.1672039 -1.2052858 0
0.62117362 6.1547155 -1.2024313 0
0.59924054 6.1434975 -1.1998405 0
0.5780586 6.1393056 -1.1986365 0
0.5585708 6.1533208 -1.2010005 0
0.53548938 6.1271553 -1.1955364 0
0.51595289 6.140934 -1.1978806 0
0.49517933 6.1403818 -1.1974423 0
0.47466731 6.1430211 -1.1976398 0
0.45394996 6.1429772 -1.1973279 0
0.43536752 6.1730547 -1.202899 0
0.41269571 6.1451116 -1.1971776 0
0.39360347 6.1701865 -1.2017988 0
0.3712658 6.1441984 -1.1964878 0
0.35242504 6.1762819 -1.2024987 0
0.33099252 6.1639719 -1.1998792 0
0.30923375 6.1433868 -1.1956636 0
0.29043621 6.1827455 -1.2031275 0
0.26879966 6.1629276 -1.1990888 0
0.24918741 6.1899362 -1.2041744 0
0.22709297 6.154439 -1.1971141 0
0.20756975 6.1883402 -1.2035661 0
0.18556838 6.1475291 -1.1955011 0
0.16499081 6.1494207 -1.1957546 0
0.1453637 6.1921821 -1.203968 0
0.12409833 6.1676188 -1.1991044 0
0.10361725 6.1798382 -1.2014059 0
0.08269041 6.1647611 -1.1984141 0
0.062446866 6.2073689 -1.2066494 0
0.041397147 6.172173 -1.199774 0
0.020795379 6.1998825 -1.20514 0
8.2026454e-06 6.182301 -1.2017157 0
-0.020769238 6.1969919 -1.2045782 0
-0.041251689 6.1529202 -1.1960316 0
-0.061838027 6.1484709 -1.1952003 0
-0.082612574 6.1601768 -1.1975229 0
-0.10375605 6.189096 -1.2032056 0
-0.12399147 6.1631217 -1.19823 0
-0.14532232 6.1911192 -1.2037613 0
-0.16543221 6.1664824 -1.1990722 0
-0.18638317 6.175065 -1.2008559 0
-0.20625891 6.1497464 -1.1960599 0
-0.22773656 6.1723256 -1.2005931 0
-0.24946767 6.1973071 -1.2056082 0
-0.27046353 6.2014537 -1.2065846 0
-0.29006785 6.1752539 -1.2016695 0
-0.31050706 6.1690092 -1.2006501 0
-0.33160657 6.1757126 -1.2021644 0
-0.35005167 6.134975 -1.1944561 0
-0.37165833 6.1509657 -1.1978054 0
-0.39320961 6.1642699 -1.200646 0
-0.41592833 6.1934919 -1.2066027 0
-0.43391919 6.1527514 -1.1989424 0
-0.45547333 6.1638145 -1.2013891 0
-0.47490177 6.1462679 -1.1982726 0
-0.49546841 6.1441703 -1.1981808 0
-0.51900011 6.1773992 -1.2049934 0
-0.53858036 6.1627116 -1.2024739 0
-0.55806226 6.1478992 -1.199942 0
-0.58110827 6.1718707 -1.2049942 0
-0.60143769 6.1661921 -1.2042725 0
-0.62083876 6.1515613 -1.2018148 0
-0.63757992 6.1122451 -1.1945446 0
-0.66114265 6.1386065 -1.2001231 0
-0.6823411 6.1419411 -1.2012155 0
-0.7032612 6.1425114 -1.2017814 0
-0.72214764 6.1256618 -1.1989518 0
-0.7429983 6.1258163 -1.1994629 0
-0.76134109 6.1057138 -1.1960198 0
-0.78546798 6.1316977 -1.2016187 0
-0.80406982 6.1141849 -1.1987084 0
-0.828022 6.1370769 -1.2037339 0
-0.84401482 6.1011658 -1.1972387 0
-0.86294025 6.0875373 -1.1951253 0
-0.88600522 6.1029291 -1.1987236 0
-0.90918547 6.1182499 -1.2023249 0
-0.92794108 6.1036391 -1.2000582 0
-0.94514132 6.0795307 -1.1959347 0
-0.96664447 6.0834074 -1.197328 0
-0.99109405 6.1051326 -1.2022512 0
-1.008938 6.0859723 -1.1991374 0
-1.0292341 6.0819445 -1.199017 0
-1.051217 6.087708 -1.2008414 0
-1.0715456 6.0837159 -1.2007558 0
-1.0943867 6.0937281 -1.2034495 0
-1.1156256 6.0944715 -1.2043282 0
-1.1293638 6.0548344 -1.197237 0
-1.1561975 6.085433 -1.2040471 0
-1.1723399 6.0595317 -1.1996933 0
-1.1951376 6.0681987 -1.2021958 0
-1.212137 6.0474963 -1.1988928 0
-1.2406651 6.0838976 -1.2069271 0
-1.2502904 6.0278001 -1.1966233 0
-1.2739917 6.0401597 -1.1999182 0
-1.3077557 6.0989056 -1.2124527 0
-1.3105313 6.0134273 -1.1963265 0
-1.3344127 6.0258293 -1.1996771 0
-1.3529197 6.013814 -1.1981813 0
-1.3801918 6.0403891 -1.2043914 0
-1.3915558 5.9974532 -1.196754 0
-1.409766 5.9847293 -1.1951514 0
-1.4321597 5.9897389 -1.197104 0
-1.4531662 5.9887452 -1.1978724 0
-1.4734052 5.9845219 -1.198009 0
-1.4949559 5.9855294 -1.1992074 0
-1.5110446 5.964807 -1.196064 0
-1.5339557 5.9710765 -1.1983457 0
-1.5565826 5.9759417 -1.2003627 0
-1.5785497 5.9780345 -1.2018394 0
-1.5931635 5.952456 -1.1977643 0
-1.6153855 5.9554629 -1.1994524 0
-1.6341157 5.9455442 -1.1985515 0
-1.6544455 5.9414854 -1.1988448 0
-1.6764477 5.9433174 -1.2003418 0
-1.7000029 5.9503961 -1.2029159 0
-1.7097741 5.909513 -1.1958032 0
-1.737028 5.9291773 -1.2009541 0
-1.7566929 5.9226294 -1.200814 0
-1.7719475 5.9014096 -1.1977096 0
-1.790104 5.8901052 -1.1966267 0
-1.8170638 5.9075484 -1.2014014 0
-1.8304126 5.8807073 -1.1971841 0
-1.8458177 5.8608789 -1.1944007 0
-1.8774189 5.8921967 -1.202059 0
-1.8877894 5.8567858 -1.1961194 0
-1.9107963 5.8607931 -1.1982394 0
-1.934765 5.8674827 -1.2009267 0
-1.948709 5.8438168 -1.1974134 0
-1.9732046 5.8518214 -1.2004024 0
-1.9850675 5.8224525 -1.1957365 0
-2.0048246 5.8164802 -1.1958836 0
-2.042248 5.8611932 -1.2064779 0
-2.0580812 5.8435044 -1.2042503 0
-2.0737667 5.8256292 -1.2019926 0
-2.0863688 5.7994118 -1.1980199 0
-2.1025817 5.7835279 -1.1961882 0
-2.1286943 5.7947755 -1.199984 0
-2.1408358 5.7680039 -1.1959198 0
-2.1686304 5.7833757 -1.2006077 0
-2.1906884 5.7831459 -1.202078 0
-2.2142222 5.7866302 -1.2043387 0
-2.2292843 5.7679787 -1.2020056 0
-2.2468476 5.7559552 -1.2010632 0
-2.2694254 5.7567396 -1.2028078 0
-2.2873197 5.7455964 -1.2020751 0
-2.3021789 5.7269692 -1.1997862 0
-2.3139117 5.70085 -1.1959329 0
-2.3388758 5.7073669 -1.1989384 0
-2.3660612 5.7189817 -1.203038 0
-2.3849995 5.7104831 -1.2029256 0
-2.3963563 5.6840105 -1.1990348 0
-2.4211361 5.6894221 -1.2018821 0
-2.4384713 5.6772523 -1.2010316 0
-2.4536071 5.6600819 -1.1991328 0
-2.4777505 5.6636643 -1.2016449 0
-2.4957881 5.6532011 -1.2011937 0
-2.5022209 5.6167264 -1.1952194 0
-2.5364802 5.6426563 -1.2025402 0
-2.5548921 5.6330342 -1.2023083 0
-2.5720673 5.6207285 -1.2015157 0
-2.5841751 5.5975108 -1.1983979 0
-2.6121597 5.6086369 -1.2026483 0
-2.6227217 5.582334 -1.1988871 0
-2.6384003 5.5671306 -1.197515 0
-2.6682694 5.5817208 -1.202571 0
-2.6800258 5.5583429 -1.1994636 0
-2.6997457 5.5515862 -1.199952 0
-2.7159703 5.5376635 -1.1989042 0
-2.7471018 5.5539598 -1.2044197 0
-2.7629092 5.5391073 -1.2032009 0
-2.7735224 5.5140219 -1.1997651 0
-2.7997851 5.5200524 -1.203113 0
-2.8044662 5.4836292 -1.1972171 0
-2.8301852 5.4884477 -1.2003341 0
-2.8508053 5.4832249 -1.2012755 0
-2.8826969 5.4994349 -1.2069376 0
-2.8786938 5.4473038 -1.197608 0
-2.9154015 5.4722714 -1.2052394 0
-2.9199367 5.4367781 -1.1995717 0
-2.9405274 5.4313517 -1.2005429 0
-2.9612129 5.4260273 -1.2015539 0
-2.961123 5.3828645 -1.1941876 0
-2.9839435 5.3815436 -1.1961075 0
-3.0032642 5.3738251 -1.1966232 0
-3.0269642 5.3738437 -1.1988806 0
-3.0427711 5.3598003 -1.1980169 0
-3.0677562 5.3618588 -1.2007692 0
-3.0785415 5.3390999 -1.1979772 0
-3.0999453 5.334806 -1.1993392 0
-3.1192424 5.3268209 -1.1998883 0
-3.1364419 5.3152437 -1.1996425 0
-3.1533742 5.3032327 -1.1993113 0
-3.1807342 5.3086476 -1.2029408 0
-3.1865203 5.2780852 -1.1984296 0
-3.2051477 5.2689319 -1.1987845 0
-3.2159672 5.247015 -1.1962446 0
-3.2341127 5.2371283 -1.196456 0
-3.2604628 5.2404146 -1.1996974 0
-3.2767839 5.2274899 -1.1992469 0
-3.2894745 5.2088451 -1.1974931 0
-3.3328505 5.2385435 -1.2068828 0
-3.3338904 5.2015882 -1.2009374 0
-3.3481343 5.1854601 -1.1997987 0
-3.3597548 5.1653705 -1.1977501 0
-3.3830593 5.1632414 -1.1998798 0
-3.4157519 5.1752024 -1.2053142 0
-3.4190974 5.1426835 -1.2004036 0
-3.4287834 5.119936 -1.1977706 0
-3.447948 5.1114025 -1.1984719 0
-3.4425182 5.066628 -1.1906731 0
-3.4816365 5.0874233 -1.1982968 0
-3.5063443 5.0868492 -1.2009238 0
-3.5253828 5.0779495 -1.2016064 0
-3.5361996 5.0572505 -1.1995072 0
-3.5558915 5.0492787 -1.2004375 0
-3.5659273 5.027637 -1.1981281 0
-3.6016338 5.0420694 -1.2044384 0
-3.6021895 5.007267 -1.1990032 0
-3.625818 5.0046306 -1.2012761 0
-3.6453621 4.9962626 -1.2021945 0
-3.6597018 4.9807577 -1.2014095 0
-3.6938467 4.992064 -1.2071172 0
-3.6840491 4.9440684 -1.1984916 0
-3.6945984 4.9236841 -1.1965463 0
-3.7000399 4.8966508 -1.1929848 0
-3.738668 4.913435 -1.2001212 0
-3.7576866 4.9042206 -1.2009412 0
-3.7695465 4.8856816 -1.1994895 0
-3.7890399 4.8770494 -1.2004825 0
-3.8161058 4.8780408 -1.2038691 0
-3.797718 4.8211403 -1.1929622 0
-3.8302894 4.8290925 -1.1981009 0
-3.8433766 4.8123636 -1.1971408 0
-3.8759394 4.8199062 -1.2022432 0
-3.883126 4.7958279 -1.1994779 0
-3.8845065 4.7647781 -1.194963 0
-3.9218826 4.7778254 -1.201526 0
-3.9340024 4.7599578 -1.200343 0
-3.9532957 4.7507744 -1.2013628 0
-3.9767022 4.7464452 -1.2036331 0
-3.9799995 4.7181554 -1.1998363 0
-3.9887762 4.6965189 -1.1977283 0
-3.9948916 4.6718817 -1.1948544 0
-4.043395 4.6966324 -1.2046449 0
-4.0299888 4.6494412 -1.1959997 0
-4.0561371 4.6480298 -1.1991283 0
-4.0743237 4.6373925 -1.1999015 0
-4.0860023 4.6193566 -1.1987728 0
-4.1032186 4.6075983 -1.1992848 0
-4.1156483 4.5904737 -1.1984124 0
-4.1301599 4.5757003 -1.198164 0
-4.1489654 4.5656648 -1.199172 0
-4.1616187 4.5488524 -1.1984143 0
-4.178998 4.5372086 -1.1990315 0
-4.1959157 4.5250368 -1.1995258 0
-4.2196841 4.5201774 -1.2019813 0
-4.2274466 4.4981627 -1.1998897 0
-4.2519746 4.4939733 -1.2025682 0
-4.2551608 4.4672437 -1.1992264 0
-4.2729311 4.4558887 -1.2000173 0
-4.3049188 4.4592209 -1.2047951 0
-4.3114848 4.4361601 -1.2024634 0
-4.3049612 4.3998356 -1.196523 0
-4.3453507 4.4114294 -1.2036312 0
-4.3521886 4.3888402 -1.2014425 0
-4.3573909 4.3647194 -1.198832 0
-4.3775167 4.3555737 -1.2003446 0
-4.3891511 4.3379622 -1.1995399 0
-4.3985891 4.318233 -1.1981556 0
-4.41676 4.307086 -1.1991649 0
-4.4225712 4.2839184 -1.1968364 0
-4.4603038 4.2915754 -1.2031468 0
-4.4663854 4.2686815 -1.20092 0
-4.48491 4.2577052 -1.2020557 0
-4.4959173 4.2395864 -1.2011893 0
-4.5084887 4.2229729 -1.2007583 0
-4.5127645 4.1986613 -1.1981411 0
-4.5328279 4.1890635 -1.1997323 0
-4.5495262 4.176301 -1.2004391 0
-4.5627394 4.1603274 -1.2002382 0
-4.5688567 4.1379366 -1.1981912 0
-4.5665941 4.1081018 -1.1939789 0
-4.6073689 4.1169176 -1.2010241 0
-4.6145153 4.0955615 -1.1993006 0
-4.6455846 4.0953736 -1.2038 0
-4.6399193 4.0628142 -1.1987954 0
-4.6542683 4.0478897 -1.1989895 0
-4.6622958 4.0274949 -1.197572 0
-4.6927757 4.0264287 -1.2019268 0
-4.7097106 4.0136223 -1.2028109 0
-4.7114425 3.9879067 -1.1998316 0
-4.7341838 3.9799881 -1.2022181 0
-4.7171831 3.9387774 -1.1945404 0
-4.7547116 3.9431326 -1.2006893 0
-4.7621818 3.9224544 -1.1992478 0
-4.7791076 3.909575 -1.2002025 0
-4.8064022 3.9050777 -1.2037622 0
-4.7961097 3.8700926 -1.1979281 0
-4.8064518 3.8519013 -1.1972787 0
-4.8282261 3.8428373 -1.1994864 0
-4.8576179 3.8396976 -1.2035832 0
-4.8579946 3.8136001 -1.2005017 0
-4.8523121 3.7829137 -1.1959563 0
-4.868134 3.7690747 -1.1967347 0
-4.9068046 3.7727695 -1.2031248 0
-4.891798 3.7352004 -1.1963676 0
-4.9358988 3.7427433 -1.2040775 0
-4.9181838 3.7034051 -1.1967202 0
-4.9547396 3.7049656 -1.2025859 0
-4.9595695 3.6827159 -1.2007545 0
-4.9667516 3.6622782 -1.1995137 0
-5.0199323 3.6755738 -1.2093743 0
-4.9863005 3.6253307 -1.1983368 0
-5.0124536 3.6187181 -1.2016995 0
-5.0142407 3.5944955 -1.1992319 0
-5.0488091 3.5937111 -1.2046109 0
-5.0408826 3.5626652 -1.199863 0
-5.0494494 3.5433936 -1.1990676 0
-5.0590925 3.5249047 -1.1985443 0
-5.0759268 3.5114124 -1.1997366 0
-5.091732 3.4971631 -1.2006941 0
-5.0974631 3.4760034 -1.1992905 0
-5.1172709 3.4644327 -1.2012112 0
-5.1161804 3.438735 -1.1982419 0
-5.1612139 3.4439378 -1.2060781 0
-5.143889 3.4075072 -1.199353 0
-5.1663022 3.3974869 -1.2019162 0
-5.1586089 3.3677063 -1.1974928 0
-5.2000046 3.3699195 -1.2044725 0
-5.2120996 3.3529971 -1.2046633 0
-5.183753 3.3102415 -1.1955397 0
-5.2126989 3.3041739 -1.1996537 0
-5.2326756 3.2922952 -1.201704 0
-5.232553 3.267781 -1.1991531 0
-5.2479968 3.2530186 -1.200186 0
-5.256403 3.2338846 -1.199622 0
-5.2671332 3.216192 -1.1996032 0
-5.2850714 3.2028682 -1.2012361 0
-5.284833 3.1785462 -1.198753 0
-5.3064775 3.1673851 -1.201247 0
-5.313827 3.1476564 -1.2005149 0
-5.320199 3.127382 -1.1995788 0
-5.3318853 3.1102448 -1.1998558 0
-5.3527555 3.0984123 -1.2022078 0
-5.3749971 3.0872734 -1.2048715 0
-5.3593812 3.0544527 -1.1990687 0
-5.3872929 3.0464761 -1.2030214 0
-5.382997 3.0202723 -1.1997941 0
-5.3987608 3.005362 -1.2010548 0
-5.4048162 2.9850402 -1.2001687 0
-5.4240017 2.9719472 -1.2022096 0
-5.4194322 2.9458613 -1.1990008 0
-5.4288359 2.9274356 -1.1989031 0
-5.4381576 2.9089696 -1.198801 0
-5.4515514 2.892668 -1.1996088 0
-5.4425182 2.8645308 -1.195501 0
-5.4851785 2.8635399 -1.2027559 0
-5.4879627 2.8416195 -1.2012706 0
-5.4662728 2.8071876 -1.1944559 0
-5.4796224 2.7908657 -1.1953216 0
-5.5254507 2.790915 -1.2032706 0
-5.5258646 2.7679093 -1.201333 0
-5.5306897 2.7471688 -1.2003727 0
-5.5489321 2.7330739 -1.2023364 0
-5.5437307 2.7074537 -1.1992358 0
-5.5343833 2.6799445 -1.1952633 0
-5.5883989 2.6830077 -1.2049794 0
-5.5737767 2.6530292 -1.1999019 0
-5.5870228 2.6363943 -1.2008437 0
-5.6023469 2.6206954 -1.2022421 0
-5.5891695 2.5917268 -1.1975428 0
-5.6199102 2.5831227 -1.2022669 0
-5.596282 2.5495698 -1.1953766 0
-5.6003761 2.5287952 -1.1944335 0
-5.635766 2.5220613 -1.2001711 0
-5.6345954 2.4988961 -1.1981308 0
-5.6448026 2.480808 -1.1985259 0
-5.6640778 2.4666538 -1.2008556 0
-5.6761055 2.4492846 -1.201658 0
-5.6606154 2.42012 -1.1966541 0
-5.7049665 2.4164901 -1.2043104 0
-5.6856318 2.385849 -1.1985334 0
-5.6868205 2.3639548 -1.1971065 0
-5.6918335 2.3436885 -1.1965009 0
-5.7251644 2.3349938 -1.2018549 0
-5.7379241 2.31779 -1.2028954 0
-5.7332044 2.2935548 -1.2002871 0
-5.7418866 2.2747254 -1.2005013 0
-5.7578545 2.2587459 -1.2022498 0
-5.7486324 2.2329173 -1.1987542 0
-5.7887325 2.2261853 -1.2055529 0
-5.7529035 2.1902938 -1.1965551 0
-5.7733774 2.1759541 -1.1992894 0
-5.7782183 2.1556811 -1.198787 0
-5.7806077 2.1345212 -1.1977912 0
-5.7939472 2.1173992 -1.1990774 0
-5.7992635 2.0973282 -1.1987156 0
-5.8248329 2.0845182 -1.2025495 0
-5.8457985 2.0699377 -1.2054383 0
-5.7994442 2.0316675 -1.1944684 0
-5.8243365 2.0184889 -1.1981946 0
-5.8486118 2.0049627 -1.2017989 0
-5.8453169 1.9819568 -1.1997497 0
-5.8446031 1.9598907 -1.1982477 0
-5.8744397 1.9480097 -1.2030189 0
-5.8509011 1.9184541 -1.1968745 0
-5.8660669 1.9016683 -1.1986659 0
-5.8713579 1.8816527 -1.1984512 0
-5.8743935 1.86093 -1.1977904 0
-5.8925266 1.8449581 -1.2002198 0
-5.8938289 1.8236904 -1.1992328 0
-5.8972592 1.8031088 -1.198694 0
-5.9044905 1.7836944 -1.1989415 0
-5.9317055 1.7702348 -1.2032557 0
-5.9137425 1.743302 -1.1984195 0
-5.9444685 1.7307181 -1.2034633 0
-5.9451365 1.7093111 -1.2024316 0
-5.9386759 1.6859169 -1.1999748 0
-5.9207268 1.6593907 -1.1952171 0
-5.9451385 1.6447541 -1.1990252 0
-5.9568706 1.6265186 -1.2002847 0
-5.9668622 1.607769 -1.201205 0
-5.9563065 1.5835238 -1.1980045 0
-5.9815197 1.5687734 -1.202011 0
-5.9749136 1.5456489 -1.1996354 0
-5.984242 1.5266737 -1.2004738 0
-5.9817061 1.5046841 -1.1989464 0
-5.9938712 1.4863942 -1.200379 0
-6.0059853 1.4680406 -1.2018125 0
-5.9761734 1.4395368 -1.1948745 0
-5.9968543 1.4232625 -1.1980487 0
-6.0297241 1.4097253 -1.2036643 0
-6.0228782 1.3868439 -1.2013628 0
-6.0004897 1.3605198 -1.1959804 0
-6.0370898 1.3475525 -1.2023681 0
-6.0314651 1.3250828 -1.2003562 0
-6.032908 1.3042119 -1.1997664 0
-6.0698676 1.2909149 -1.206249 0
-6.0480185 1.2650881 -1.2010573 0
-6.0705004 1.2485617 -1.2046839 0
-6.067399 1.226735 -1.2032454 0
-6.0574112 1.2035902 -1.2004577 0
-6.043375 1.1797528 -1.1968853 0
-6.0978532 1.1691774 -1.2068915 0
-6.0704279 1.1428312 -1.2006984 0
-6.0866127 1.124761 -1.2031471 0
-6.08218 1.1028659 -1.2015331 0
-6.0755091 1.0806292 -1.1994928 0
-6.1016879 1.064193 -1.20395 0
-6.0841899 1.0401336 -1.1998025 0
-6.1093206 1.0233599 -1.204075 0
-6.0783024 0.99722445 -1.197296 0
-6.0837555 0.97718376 -1.197718 0
-6.1086845 0.9601894 -1.2019852 0
-6.1130648 0.93988657 -1.2022203 0
-6.1061015 0.91787004 -1.2002389 0
-6.1148324 0.89822775 -1.2013563 0
-6.1232495 0.8785013 -1.2024245 0
-6.1077299 0.85538507 -1.1988071 0
-6.089478 0.83202124 -1.1946704 0
-6.1159 0.81475252 -1.1993114 0
-6.1254563 0.79513282 -1.2006558 0
-6.1098919 0.77229089 -1.1970907 0
-6.1196742 0.7526902 -1.1985061 0
-6.1444063 0.73482788 -1.2028605 0
-6.140841 0.71352625 -1.2016875 0
-6.1398001 0.69254982 -1.2010227 0
-6.1197338 0.66951478 -1.1966517 0
-6.1515818 0.65213454 -1.2024448 0
-6.158483 0.63199323 -1.203373 0
-6.1379414 0.60909611 -1.1989533 0
-6.1445088 0.5889504 -1.1998436 0
-6.1263046 0.56648302 -1.1959113 0
-6.1405597 0.54704332 -1.1983292 0
-6.17026 0.5288434 -1.2037724 0
-6.1669121 0.50773394 -1.2027804 0
-6.1506405 0.4856382 -1.1992825 0
-6.1597109 0.46557862 -1.20074 0
-6.1832476 0.44651312 -1.2050295 0
-6.1602569 0.4240959 -1.200265 0
-6.1602712 0.40334943 -1.1999975 0
-6.1763515 0.38360986 -1.2028728 0
-6.1869693 0.36344975 -1.2046964 0
-6.1731386 0.34187245 -1.2017735 0
-6.1922703 0.32211056 -1.205281 0
-6.1752081 0.30046618 -1.2017571 0
-6.1595726 0.27900788 -1.1985254 0
-6.1779518 0.25908744 -1.2019259 0
-6.1427202 0.23698109 -1.1949103 0
-6.1550508 0.21679191 -1.1971607 0
-6.1636 0.19640434 -1.1986887 0
-6.1856527 0.17634878 -1.2028558 0
-6.1520934 0.1547503 -1.1962222 0
-6.1421509 0.13389532 -1.194195 0
-6.1835427 0.11405694 -1.2021616 0
-6.1618934 0.092992082 -1.1978853 0
-6.2018275 0.072797388 -1.2055944 0
-6.1634679 0.051680025 -1.1980971 0
-6.1721916 0.031057989 -1.1997659 0
-6.197422 0.010405867 -1.2046566 0
-6.1918244 1.6430562e-05 -1.2035669 0
-7.6105123 -0.012778536 -1.2053866 0
-7.580966 -0.038146831 -1.2007204 0
-7.5828018 -0.06358099 -1.2010382 0
-7.5581331 -0.088717774 -1.1971713 0
-7.5795174 -0.11438612 -1.2006124 0
-7.603672 -0.14025156 -1.2045064 0
-7.5630283 -0.16486962 -1.1981487 0
-7.5790782 -0.1906448 -1.2007859 0
-7.6049581 -0.21681221 -1.2049947 0
-7.5600328 -0.24090195 -1.1979976 0
-7.5757303 -0.2668308 -1.2006201 0
-7.5562496 -0.29151389 -1.1976808 0
-7.5521517 -0.31671786 -1.1971929 0
-7.5567465 -0.34229517 -1.1980965 0
-7.5860739 -0.36911446 -1.2029357 0
-7.5494738 -0.39270979 -1.1973341 0
-7.5663772 -0.41903093 -1.200231 0
-7.5830784 -0.44546333 -1.2031103 0
-7.5427794 -0.46847793 -1.1969591 0
-7.5378942 -0.49355057 -1.1964397 0
-7.5417709 -0.51920468 -1.1973246 0
-7.5689011 -0.54657584 -1.201916 0
-7.5598187 -0.57140505 -1.2007712 0
-7.5585194 -0.59680051 -1.2008759 0
-7.5465479 -0.6213221 -1.1992981 0
-7.5362563 -0.64592087 -1.1980001 0
-7.5607834 -0.67356658 -1.2022512 0
-7.5077047 -0.69421744 -1.1941745 0
-7.5323458 -0.72197443 -1.1984723 0
-7.5147958 -0.74572772 -1.1960709 0
-7.5259266 -0.77232236 -1.1982479 0
-7.5376468 -0.79907256 -1.2005339 0
-7.5238738 -0.82313132 -1.198773 0
-7.5412183 -0.85062528 -1.2019842 0
-7.5702767 -0.87961745 -1.2070789 0
-7.5071254 -0.89779955 -1.1974827 0
-7.536736 -0.92698187 -1.202695 0
-7.5103803 -0.94931281 -1.1989905 0
-7.5038934 -0.97406495 -1.1984695 0
-7.508667 -1.0002952 -1.1997608 0
-7.5153375 -1.0268401 -1.20137 0
-7.4825468 -1.0479276 -1.196683 0
-7.4901481 -1.07461 -1.1984683 0
-7.5231462 -1.1050997 -1.2043343 0
-7.5174952 -1.130031 -1.2040294 0
-7.4948478 -1.1523362 -1.2010142 0
-7.4771218 -1.1752863 -1.1987984 0
-7.4670081 -1.1993643 -1.1978148 0
-7.4756203 -1.2264726 -1.1998492 0
-7.4919233 -1.2549568 -1.2031345 0
-7.4815698 -1.2790252 -1.2021538 0
-7.4518166 -1.2996684 -1.1980664 0
-7.4703665 -1.3287275 -1.2017583 0
-7.4505405 -1.3509872 -1.1992908 0
-7.4475675 -1.3762553 -1.1995482 0
-7.4277606 -1.3983655 -1.1971065 0
-7.4240098 -1.4234493 -1.1972644 0
-7.4340386 -1.4512302 -1.1996597 0
-7.4440675 -1.4791148 -1.2020717 0
-7.4365149 -1.5035492 -1.2016593 0
-7.4279089 -1.5277493 -1.2010896 0
-7.4214597 -1.5523763 -1.2008816 0
-7.402761 -1.5743893 -1.1987034 0
-7.4213333 -1.6043657 -1.2025751 0
-7.4007874 -1.6259161 -1.2001224 0
-7.399405 -1.6516379 -1.2007895 0
-7.3766398 -1.6725409 -1.1979984 0
-7.3749928 -1.6981854 -1.1986488 0
-7.3614631 -1.7210805 -1.197381 0
-7.3775702 -1.7509545 -1.200949 0
-7.3678231 -1.7747566 -1.2003243 0
-7.3741136 -1.8024516 -1.2023269 0
-7.3494534 -1.8225591 -1.1992956 0
-7.3589163 -1.851118 -1.2018458 0
-7.3378844 -1.872009 -1.1994293 0
-7.356379 -1.9030198 -1.2034886 0
-7.3445611 -1.9262583 -1.202605 0
-7.3007312 -1.940948 -1.1964871 0
-7.2980266 -1.9664509 -1.1971177 0
-7.3112922 -1.9963423 -1.2003849 0
-7.3067856 -2.0214608 -1.2007509 0
-7.3112559 -2.0491116 -1.2026079 0
-7.2979231 -2.0717905 -1.2015506 0
-7.3045001 -2.1001472 -1.203786 0
-7.2868209 -2.121541 -1.2020379 0
-7.2496834 -2.1371217 -1.197087 0
-7.2405481 -2.1608405 -1.1967682 0
-7.2582817 -2.1926627 -1.2009077 0
-7.2670527 -2.2219281 -1.2035847 0
-7.2648005 -2.2479014 -1.2044531 0
-7.2423964 -2.2676041 -1.2019924 0
-7.2233396 -2.2882583 -1.2000962 0
-7.2029624 -2.3084052 -1.1979898 0
-7.1840634 -2.328938 -1.1961386 0
-7.19203 -2.3581972 -1.1987747 0
-7.1989083 -2.3872137 -1.2012485 0
-7.1958508 -2.4130092 -1.2020817 0
-7.17518 -2.4328699 -1.1999844 0
-7.1697788 -2.4578719 -1.2004526 0
-7.1422353 -2.4752214 -1.1972237 0
-7.1405058 -2.5014696 -1.1983329 0
-7.1338406 -2.5260201 -1.198629 0
-7.1401777 -2.5552373 -1.2011265 0
-7.1318216 -2.5792537 -1.2011688 0
-7.1234417 -2.6032634 -1.2012208 0
-7.1291614 -2.6324818 -1.2036668 0
-7.082427 -2.6422424 -1.1972654 0
-7.0888562 -2.6717505 -1.1998597 0
-7.0930643 -2.700531 -1.2020978 0
-7.0641885 -2.7166903 -1.1987411 0
-7.0562921 -2.7408462 -1.1989537 0
-7.0677962 -2.7726226 -1.2024813 0
-7.0338168 -2.786541 -1.198283 0
-7.027842 -2.8114715 -1.1988641 0
-7.0145144 -2.8334589 -1.1982045 0
-7.0443287 -2.8730116 -1.204936 0
-7.0077348 -2.8855283 -1.2003247 0
-6.9998899 -2.9097848 -1.2006453 0
-6.9772606 -2.9278522 -1.1984408 0
-6.9716978 -2.9530478 -1.1991793 0
-6.9847717 -2.9862452 -1.2031435 0
-6.9459724 -2.9972422 -1.1981845 0
-6.9302363 -3.0180542 -1.1972089 0
-6.9448066 -3.0521407 -1.2014869 0
-6.9189734 -3.0685072 -1.1987909 0
-6.9304681 -3.1014533 -1.2025774 0
-6.9204698 -3.1248705 -1.2026536 0
-6.8962045 -3.1417923 -1.2002608 0
-6.8835411 -3.1639352 -1.1998962 0
-6.8716855 -3.1864362 -1.1996852 0
-6.8697433 -3.2135649 -1.2012204 0
-6.852541 -3.2335649 -1.2001015 0
-6.8462067 -3.2586856 -1.2008988 0
-6.8155398 -3.272162 -1.1974373 0
-6.7990537 -3.2923427 -1.1964734 0
-6.7914786 -3.3168304 -1.1970906 0
-6.8055205 -3.3519948 -1.20154 0
-6.7981067 -3.3767123 -1.2022231 0
-6.7914677 -3.4018507 -1.2030593 0
-6.7693701 -3.4192209 -1.2011689 0
-6.7407498 -3.4331796 -1.1981263 0
-6.7428327 -3.4627609 -1.2005533 0
-6.7425971 -3.4912581 -1.2025888 0
-6.7330899 -3.5150125 -1.2029884 0
-6.7273903 -3.5407906 -1.2040844 0
-6.7087126 -3.5597351 -1.2028708 0
-6.6778722 -3.5721154 -1.1994818 0
-6.6632104 -3.5930572 -1.1990054 0
-6.6467681 -3.6130085 -1.1982198 0
-6.6443262 -3.6405938 -1.1999732 0
-6.6335492 -3.6636603 -1.2002386 0
-6.6198931 -3.6851375 -1.1999966 0
-6.5814567 -3.6926994 -1.1952667 0
-6.5665774 -3.7133534 -1.194819 0
-6.5958352 -3.7591405 -1.2024291 0
-6.5717182 -3.7746425 -1.2003329 0
-6.5400152 -3.7856507 -1.1968539 0
-6.5623345 -3.8280017 -1.2032804 0
-6.5177083 -3.8313162 -1.1974465 0
-6.498426 -3.8493559 -1.1962682 0
-6.4885983 -3.8729818 -1.1968428 0
-6.4895067 -3.9030933 -1.1994175 0
-6.4541788 -3.9113727 -1.1953051 0
-6.4630733 -3.9464512 -1.1993961 0
-6.4592948 -3.9739368 -1.2011608 0
-6.4307361 -3.9861505 -1.1983287 0
-6.4297123 -4.0154185 -1.2006398 0
-6.4099269 -4.0329986 -1.1994636 0
-6.4170651 -4.0675859 -1.2033446 0
-6.3925791 -4.0821738 -1.2013127 0
-6.3705487 -4.0982394 -1.199748 0
-6.3431706 -4.1107607 -1.197181 0
-6.3367267 -4.1368194 -1.1985757 0
-6.3352594 -4.1662216 -1.2009337 0
-6.3132954 -4.1821666 -1.1994214 0
-6.3037992 -4.2063537 -1.20029 0
-6.2799354 -4.2209291 -1.198434 0
-6.2861967 -4.2558045 -1.2023451 0
-6.2324305 -4.2499475 -1.1947802 0
-6.2576413 -4.2979465 -1.2023689 0
-6.2436867 -4.3192425 -1.2024634 0
-6.2181511 -4.3324747 -1.2003363 0
-6.1916609 -4.3449273 -1.1980281 0
-6.2105207 -4.3893123 -1.2045182 0
-6.1856008 -4.4028721 -1.2025414 0
-6.1571093 -4.4137697 -1.1998725 0
-6.1528106 -4.4419937 -1.2019304 0
-6.1345339 -4.4601631 -1.2012746 0
-6.1222987 -4.4827218 -1.201815 0
-6.0814929 -4.4842424 -1.1967494 0
-6.0944257 -4.5254002 -1.2022736 0
-6.0703197 -4.5391541 -1.2005136 0
-6.059298 -4.5626674 -1.2013526 0
-6.0335574 -4.5750647 -1.1992836 0
-6.0162473 -4.5937896 -1.1988976 0
-6.0156713 -4.6253605 -1.2018665 0
-5.9900951 -4.6377349 -1.1998565 0
-5.9732366 -4.6567984 -1.1996003 0
-5.9677482 -4.6847739 -1.2016459 0
-5.939817 -4.6951203 -1.1991847 0
-5.9249015 -4.715693 -1.1993587 0
-5.9156985 -4.7408538 -1.2007067 0
-5.8868766 -4.7502575 -1.1980827 0
-5.8952613 -4.7897477 -1.2030507 0
-5.8553133 -4.7899714 -1.1981691 0
-5.8545294 -4.8221855 -1.2013103 0
-5.8384948 -4.8419251 -1.2013446 0
-5.8125134 -4.8533621 -1.1993401 0
-5.7816205 -4.860559 -1.1963216 0
-5.8079009 -4.9159822 -1.2051632 0
-5.7564802 -4.9056811 -1.1978996 0
-5.7507968 -4.934217 -1.2001526 0
-5.7350984 -4.9542289 -1.2003363 0
-5.7094707 -4.9656157 -1.1984504 0
-5.692708 -4.9846587 -1.1984332 0
-5.6828437 -5.0097828 -1.1998858 0
-5.6673322 -5.0299773 -1.2001649 0
-5.6468172 -5.0457172 -1.1993963 0
-5.6445422 -5.0778222 -1.2025224 0
-5.625495 -5.0949159 -1.2020971 0
-5.609252 -5.1145425 -1.2022837 0
-5.5838976 -5.1258168 -1.2005262 0
-5.5542474 -5.1330194 -1.1978449 0
-5.536437 -5.1510835 -1.1977217 0
-5.5100117 -5.1610713 -1.1957418 0
-5.5000963 -5.1865129 -1.1973572 0
-5.4959536 -5.2175298 -1.2002568 0
-5.492619 -5.2494888 -1.2033656 0
-5.4605155 -5.2539501 -1.2001847 0
-5.4452591 -5.2745438 -1.2007116 0
-5.4275928 -5.2928185 -1.2007225 0
-5.3944659 -5.2959166 -1.1973153 0
-5.3801761 -5.3174291 -1.198094 0
-5.377141 -5.3501873 -1.201406 0
-5.3513007 -5.3603005 -1.1996413 0
-5.3527989 -5.3978767 -1.2040277 0
-5.3035245 -5.3841734 -1.1969979 0
-5.2893925 -5.405962 -1.1978924 0
-5.2939501 -5.4470348 -1.2030538 0
-5.2621946 -5.450809 -1.1999838 0
-5.2580185 -5.4831553 -1.2032171 0
-5.2161651 -5.4761457 -1.1978344 0
-5.2109571 -5.5075355 -1.2008722 0
-5.1839395 -5.5159073 -1.1989011 0
-5.1439033 -5.5102119 -1.1939079 0
-5.1483502 -5.5521784 -1.1992539 0
-5.126615 -5.5660524 -1.1985313 0
-5.1255693 -5.6024971 -1.2026715 0
-5.1170516 -5.63098 -1.2050961 0
-5.0711126 -5.6181583 -1.1987067 0
-5.070755 -5.6557717 -1.2030978 0
-5.0306106 -5.6489882 -1.1980602 0
-5.0348387 -5.6920466 -1.2036053 0
-4.9978247 -5.6885204 -1.1993096 0
-4.9789791 -5.7055378 -1.1993711 0
-4.9643278 -5.7273984 -1.2004608 0
-4.9434052 -5.7420449 -1.20005 0
-4.9309549 -5.7665744 -1.2017144 0
-4.8820701 -5.7483134 -1.1944911 0
-4.8980975 -5.8065295 -1.2031691 0
-4.8615842 -5.8026075 -1.1989721 0
-4.8483973 -5.8264403 -1.2005309 0
-4.8439555 -5.8609586 -1.2042903 0
-4.8053403 -5.8540959 -1.1995629 0
-4.804523 -5.893281 -1.2042845 0
-4.7637634 -5.8834529 -1.1990056 0
-4.7418866 -5.8967509 -1.1984688 0
-4.7308173 -5.9235449 -1.2006841 0
-4.713748 -5.9429259 -1.2014023 0
-4.679955 -5.9411254 -1.1978595 0
-4.6770177 -5.9785247 -1.2022315 0
-4.649817 -5.9849958 -1.2003911 0
-4.6192222 -5.9869404 -1.1976681 0
-4.5969129 -5.9995093 -1.1970924 0
-4.5822759 -6.0221219 -1.1985321 0
-4.5645394 -6.0407338 -1.1991837 0
-4.5496669 -6.0632091 -1.2006105 0
-4.5270405 -6.0753798 -1.2000082 0
-4.5210671 -6.1100144 -1.2038484 0
-4.4831419 -6.1014385 -1.1991904 0
-4.4628344 -6.1166744 -1.1992372 0
-4.440876 -6.1296358 -1.1988524 0
-4.4207735 -6.1451492 -1.1989809 0
-4.3990526 -6.1584077 -1.1986834 0
-4.3833737 -6.1801629 -1.2000505 0
-4.3682294 -6.2027783 -1.2015911 0
-4.3326588 -6.1962957 -1.1975145 0
-4.3148341 -6.2150722 -1.1983408 0
-4.2947922 -6.2306943 -1.1985697 0
-4.2602305 -6.2251177 -1.1947426 0
-4.2555418 -6.2632194 -1.1993099 0
-4.2506123 -6.3013105 -1.203868 0
-4.2194772 -6.3006182 -1.2010262 0
-4.2079668 -6.3292265 -1.2037834 0
-4.1766706 -6.3280697 -1.2008933 0
-4.165029 -6.3566871 -1.2036672 0
-4.1468039 -6.3753991 -1.2045709 0
-4.1175156 -6.3770475 -1.2022673 0
-4.0815787 -6.3681431 -1.1980017 0
-4.0780525 -6.4098454 -1.2032679 0
-4.0497031 -6.4126587 -1.2012404 0
-4.0265522 -6.4236035 -1.200755 0
-4.0087323 -6.443079 -1.2018763 0
-3.9794722 -6.444119 -1.1995747 0
-3.9586813 -6.4587913 -1.1998285 0
-3.9328866 -6.4652591 -1.1985737 0
-3.9270318 -6.504653 -1.2034291 0
-3.903043 -6.5141816 -1.2027642 0
-3.8735642 -6.5144229 -1.2004039 0
-3.8493125 -6.5233259 -1.1996596 0
-3.8284304 -6.5379219 -1.1999764 0
