# .PCD v0.7 - Point Cloud Data file format
VERSION 0.7
FIELDS x y z intensity
SIZE 4 4 4 4
TYPE F F F F
COUNT 1 1 1 1
WIDTH 1426
HEIGHT 1
VIEWPOINT 0 0 0 1 0 0 0
POINTS 1426
DATA ascii
8.8887987 -21.083529 -1.1991243 0
8.9624624 -21.060715 -1.1995292 0
9.0426378 -21.052929 -1.2008058 0
9.1082382 -21.011108 -1.2001554 0
9.1696548 -20.959929 -1.1989814 0
9.2531738 -20.959183 -1.2007067 0
9.3242226 -20.929899 -1.2008134 0
9.3835335 -20.87447 -1.1994315 0
9.4609146 -20.859308 -1.2003763 0
9.5334406 -20.833244 -1.200709 0
9.5918827 -20.776569 -1.1992893 0
9.6558781 -20.732246 -1.1985929 0
9.737319 -20.725262 -1.2000699 0
9.7957401 -20.669262 -1.1987222 0
9.8800688 -20.667856 -1.2005552 0
9.9467859 -20.629381 -1.2002506 0
10.01086 -20.58556 -1.1996472 0
10.082262 -20.556852 -1.1999375 0
10.157228 -20.535261 -1.2006583 0
10.227465 -20.503984 -1.2008278 0
10.29496 -20.467207 -1.2006887 0
10.373756 -20.452747 -1.2018741 0
10.427653 -20.389267 -1.2001915 0
10.500376 -20.362761 -1.2006968 0
10.552867 -20.297201 -1.1989107 0
10.647024 -20.311619 -1.2018641 0
10.705004 -20.256767 -1.2007354 0
10.765352 -20.206669 -1.1998986 0
10.834297 -20.1728 -1.2000378 0
10.89468 -20.123077 -1.1992462 0
10.971319 -20.103352 -1.200256 0
11.031499 -20.053436 -1.1994774 0
11.100598 -20.019812 -1.1996856 0
11.165728 -19.979025 -1.1994781 0
11.235641 -19.946783 -1.1997974 0
11.312158 -19.92609 -1.2008272 0
11.361772 -19.858109 -1.1990194 0
11.420064 -19.805641 -1.1981566 0
11.49917 -19.789209 -1.1994883 0
11.5747 -19.766333 -1.2004471 0
11.634799 -19.71706 -1.1998171 0
11.71672 -19.704643 -1.2014452 0
11.764848 -19.635422 -1.199623 0
11.8297 -19.594351 -1.1995301 0
11.909071 -19.577166 -1.2009158 0
11.961197 -19.51519 -1.1995673 0
12.044587 -19.504168 -1.2013655 0
12.1008 -19.449028 -1.2004613 0
12.153789 -19.38896 -1.1992623 0
12.228985 -19.364342 -1.2002689 0
12.294289 -19.323936 -1.2003126 0
12.353873 -19.274593 -1.1998138 0
12.423226 -19.240498 -1.2002774 0
12.480532 -19.187767 -1.1995916 0
12.549198 -19.152534 -1.2000127 0
12.613544 -19.110659 -1.200032 0
12.676751 -19.067062 -1.1999565 0
12.734545 -19.0154 -1.1993855 0
12.813782 -18.995653 -1.2008431 0
12.870379 -18.942253 -1.2001885 0
12.94207 -18.911055 -1.2009544 0
12.982445 -18.834249 -1.1988344 0
13.074564 -18.832451 -1.2015035 0
13.110053 -18.749067 -1.1989813 0
13.191438 -18.731413 -1.2006739 0
13.234035 -18.658693 -1.1988502 0
13.311006 -18.634499 -1.2001563 0
13.367325 -18.581308 -1.1996104 0
13.431995 -18.539761 -1.1998289 0
13.508122 -18.513868 -1.2010773 0
13.55542 -18.448467 -1.1997763 0
13.611279 -18.394917 -1.1992549 0
13.678861 -18.357206 -1.1997796 0
13.74319 -18.31505 -1.2000291 0
13.808104 -18.273611 -1.2003407 0
13.874286 -18.233772 -1.2007728 0
13.928427 -18.178127 -1.2001768 0
13.993673 -18.136997 -1.2005523 0
14.049897 -18.084177 -1.2001673 0
14.103479 -18.028055 -1.1995744 0
14.176386 -17.99659 -1.2006365 0
14.227361 -17.937252 -1.1998535 0
14.285718 -17.887318 -1.1997105 0
14.363941 -17.862114 -1.2012434 0
14.404397 -17.789955 -1.1996318 0
14.46117 -17.738134 -1.1994002 0
14.524742 -17.694641 -1.1997455 0
14.586136 -17.648443 -1.1999222 0
14.658131 -17.614948 -1.2009796 0
14.720952 -17.57029 -1.2012932 0
14.760965 -17.498531 -1.1997641 0
14.826318 -17.456911 -1.2003119 0
14.868484 -17.388063 -1.198999 0
14.940393 -17.354021 -1.200099 0
14.987726 -17.291407 -1.1992375 0
15.06598 -17.264395 -1.2008605 0
15.104754 -17.192129 -1.1993499 0
15.17228 -17.15266 -1.2001384 0
15.246764 -17.12085 -1.2014828 0
15.278741 -17.04137 -1.1994933 0
15.357879 -17.014517 -1.2012209 0
15.400431 -16.947073 -1.2000982 0
15.4602 -16.898663 -1.2003338 0
15.519672 -16.849882 -1.2005583 0
15.561349 -16.781866 -1.1994228 0
15.622972 -16.73543 -1.1998409 0
15.695024 -16.700008 -1.2010676 0
15.731595 -16.626862 -1.1995934 0
15.795107 -16.582268 -1.2001902 0
15.851848 -16.530502 -1.2002834 0
15.898109 -16.467861 -1.1995988 0
15.953473 -16.414713 -1.1996169 0
16.008665 -16.361382 -1.1996353 0
16.084057 -16.328556 -1.2011756 0
16.132284 -16.268053 -1.2006971 0
16.182556 -16.209686 -1.200387 0
16.207396 -16.126068 -1.1982121 0
16.265368 -16.075586 -1.1985066 0
16.32313 -16.024843 -1.198797 0
16.406368 -15.998892 -1.2009639 0
16.425791 -15.910737 -1.1984739 0
16.490568 -15.866664 -1.199312 0
16.552359 -15.819586 -1.1999416 0
16.622316 -15.780149 -1.2011709 0
16.662222 -15.712156 -1.2002411 0
16.722429 -15.663341 -1.2007883 0
16.776022 -15.608274 -1.2008721 0
16.814011 -15.538771 -1.1998552 0
16.859735 -15.476547 -1.1994087 0
16.936739 -15.442917 -1.2011964 0
16.978176 -15.376765 -1.200472 0
17.025129 -15.315701 -1.2001544 0
17.086994 -15.268013 -1.2009001 0
17.115139 -15.190269 -1.1992919 0
17.187153 -15.151471 -1.2007717 0
17.216694 -15.075231 -1.1992974 0
17.29117 -15.038319 -1.2009664 0
17.330397 -14.970675 -1.2001978 0
17.38448 -14.915906 -1.2004732 0
17.434074 -14.857265 -1.2004513 0
17.479343 -14.794963 -1.200146 0
17.518204 -14.727325 -1.1994171 0
17.579649 -14.678666 -1.2002478 0
17.615864 -14.608943 -1.1993693 0
17.685772 -14.567117 -1.200797 0
17.717163 -14.493544 -1.1996222 0
17.769281 -14.437004 -1.1998668 0
17.827187 -14.385093 -1.2005134 0
17.847166 -14.302681 -1.1986227 0
17.910944 -14.255437 -1.1996894 0
17.948879 -14.18759 -1.1990373 0
18.013357 -14.140684 -1.2001706 0
18.065849 -14.08425 -1.2005152 0
18.097679 -14.011761 -1.1995016 0
18.141586 -13.94872 -1.1993052 0
18.212187 -13.906093 -1.2008835 0
18.244881 -13.834467 -1.1999741 0
18.283497 -13.767446 -1.1994711 0
18.342319 -13.715612 -1.2003065 0
18.385937 -13.652355 -1.2001587 0
18.404848 -13.570903 -1.1984162 0
18.487724 -13.53656 -1.2008506 0
18.515848 -13.462024 -1.199739 0
18.587645 -13.41919 -1.2014689 0
18.631369 -13.355961 -1.201394 0
18.646811 -13.27261 -1.1995134 0
18.707094 -13.221245 -1.200533 0
18.759388 -13.164112 -1.2010497 0
18.788639 -13.090843 -1.2001057 0
18.840321 -13.033237 -1.2006088 0
18.864609 -12.956738 -1.1993815 0
18.900049 -12.888031 -1.1988807 0
18.971834 -12.844007 -1.2006959 0
19.02803 -12.789226 -1.2015319 0
19.066668 -12.722595 -1.2012712 0
19.10318 -12.654597 -1.2008917 0
19.128273 -12.579147 -1.1998111 0
19.148485 -12.500675 -1.1984432 0
19.210062 -12.449218 -1.1996781 0
19.243082 -12.3792 -1.1991413 0
19.314724 -12.333925 -1.201022 0
19.33919 -12.258462 -1.1999809 0
19.377123 -12.191628 -1.1997916 0
19.430037 -12.134178 -1.2005421 0
19.471024 -12.069221 -1.2005675 0
19.477369 -11.982945 -1.1984748 0
19.532375 -11.926696 -1.1993921 0
19.586754 -11.869927 -1.2002807 0
19.642597 -11.813908 -1.2012687 0
19.661339 -11.735593 -1.2000017 0
19.726614 -11.68503 -1.2015878 0
19.740391 -11.603958 -1.2000504 0
19.766518 -11.530317 -1.1992817 0
19.839222 -11.48375 -1.2013501 0
19.851583 -11.402218 -1.1997769 0
19.90296 -11.343152 -1.2005767 0
19.935625 -11.273386 -1.2002604 0
19.966797 -11.202827 -1.1998689 0
19.993166 -11.129652 -1.1992044 0
20.052128 -11.074573 -1.200507 0
20.077318 -11.000799 -1.1998003 0
20.112846 -10.932746 -1.1997261 0
20.129805 -10.854691 -1.1985601 0
20.179125 -10.794112 -1.199335 0
20.244453 -10.741917 -1.2010704 0
20.248856 -10.6574 -1.1992049 0
20.304125 -10.599709 -1.2003667 0
20.310883 -10.51673 -1.1986749 0
20.354168 -10.452752 -1.1991544 0
20.398058 -10.389012 -1.1996812 0
20.450266 -10.329397 -1.2007082 0
20.48489 -10.260827 -1.2007145 0
20.494198 -10.17968 -1.1992527 0
20.52738 -10.110498 -1.199204 0
20.576929 -10.049317 -1.2001235 0
20.596951 -9.9737053 -1.1993341 0
20.645699 -9.9119968 -1.2002308 0
20.681129 -9.8438215 -1.2003651 0
20.721462 -9.7779398 -1.2007966 0
20.757568 -9.7100182 -1.2009956 0
20.804171 -9.6469345 -1.2018136 0
20.820829 -9.569972 -1.2009157 0
20.830084 -9.4897614 -1.1996075 0
20.858469 -9.4183722 -1.1994169 0
5.1830425 -2.3194466 -0.29758975 0
5.1467609 -2.2825291 -0.29506552 0
5.1575537 -2.2666528 -0.29524693 0
5.1377745 -2.2374372 -0.29368359 0
5.1193914 -2.2090421 -0.29220778 0
5.1338506 -2.1948926 -0.29261136 0
5.1368356 -2.175827 -0.29236406 0
5.132854 -2.153872 -0.2917248 0
5.1407757 -2.1369536 -0.2917662 0
5.1492586 -2.1202602 -0.29184252 0
5.1445065 -2.0981579 -0.29117283 0
5.159173 -2.0839922 -0.29160586 0
5.2064228 -2.0828011 -0.29388013 0
5.2513204 -2.0803649 -0.29601902 0
5.3097482 -2.0829425 -0.29891726 0
5.3677373 -2.0849514 -0.30178657 0
5.4056115 -2.0788312 -0.30352238 0
5.4614658 -2.0793185 -0.30626538 0
21.433081 -8.0779438 -1.2003882 0
21.458328 -8.0053978 -1.2002923 0
21.475163 -7.9297571 -1.1997401 0
21.51276 -7.8617783 -1.2003611 0
21.522362 -7.7835889 -1.1994339 0
21.566319 -7.7178192 -1.2004348 0
21.556993 -7.6330471 -1.1984845 0
21.61681 -7.5727592 -1.2003917 0
21.633081 -7.4971213 -1.1998926 0
21.65987 -7.4251561 -1.199991 0
21.680864 -7.3512115 -1.1997819 0
21.708706 -7.2795901 -1.1999651 0
21.74313 -7.2101264 -1.2005249 0
21.773882 -7.1393824 -1.2008945 0
21.77079 -7.0576158 -1.1994121 0
21.786997 -6.9822321 -1.1990085 0
21.848301 -6.9211884 -1.2010984 0
21.849897 -6.8411689 -1.1999185 0
21.886877 -6.7722549 -1.2006955 0
21.901684 -6.6964564 -1.2002693 0
21.919678 -6.6216774 -1.2000321 0
21.936384 -6.546545 -1.1997384 0
21.959715 -6.473403 -1.1998205 0
21.976435 -6.398324 -1.1995552 0
21.988142 -6.3218393 -1.1990305 0
22.021498 -6.2515688 -1.1996998 0
22.065825 -6.1842833 -1.2009782 0
22.088823 -6.1109266 -1.2011081 0
22.083685 -6.0298691 -1.1997225 0
22.102093 -5.955339 -1.1996312 0
22.110895 -5.8782663 -1.1990324 0
22.14678 -5.8083744 -1.1999156 0
22.156519 -5.7316012 -1.1993953 0
22.192282 -5.6615353 -1.2002969 0
22.215462 -5.5881844 -1.2005305 0
22.220318 -5.5102577 -1.1997879 0
22.23229 -5.4341674 -1.1994437 0
22.265244 -5.3631749 -1.2002447 0
22.258732 -5.2827106 -1.1989322 0
22.293921 -5.2121668 -1.1998795 0
22.281717 -5.1305852 -1.1982902 0
22.347246 -5.0668359 -1.2008939 0
22.345215 -4.9876637 -1.1998794 0
22.373215 -4.9152212 -1.2004912 0
22.385681 -4.8393402 -1.2002827 0
22.408356 -4.7656565 -1.2006351 0
22.405853 -4.6866593 -1.1996522 0
22.418514 -4.6109085 -1.1994957 0
22.423449 -4.5336151 -1.1989397 0
22.468985 -4.4644604 -1.2005672 0
22.484797 -4.3892908 -1.2006191 0
22.490211 -4.3121195 -1.2001295 0
22.491278 -4.2341924 -1.199422 0
22.539534 -4.1650767 -1.201244 0
22.530363 -4.0853105 -1.2000185 0
22.55554 -4.0118122 -1.2006364 0
22.561813 -3.9349353 -1.2002612 0
22.578135 -3.8598239 -1.2004342 0
22.580551 -3.7823603 -1.1998818 0
22.63801 -3.7139978 -1.2022666 0
22.604963 -3.6307883 -1.1998583 0
22.616152 -3.5548432 -1.1998128 0
22.623344 -3.4782884 -1.1995689 0
22.652079 -3.4050024 -1.2004805 0
22.644823 -3.3263109 -1.1994981 0
22.66604 -3.2518308 -1.2000377 0
22.666231 -3.1743352 -1.1994777 0
22.671909 -3.0976608 -1.1992217 0
22.69282 -3.0230477 -1.1997849 0
22.714859 -2.9485078 -1.2004207 0
22.732845 -2.8733726 -1.2008554 0
22.733341 -2.7960293 -1.2003796 0
22.743254 -2.7198727 -1.2004148 0
22.750065 -2.6433501 -1.2002997 0
22.757339 -2.5668938 -1.2002227 0
22.752811 -2.4891555 -1.199537 0
22.773714 -2.4142003 -1.2002056 0
22.821913 -2.3419592 -1.202325 0
22.806396 -2.2631226 -1.2011012 0
22.800745 -2.1853876 -1.2004108 0
22.796869 -2.1079047 -1.199828 0
22.77758 -2.0291226 -1.1984479 0
22.784237 -1.9527407 -1.198447 0
22.828159 -1.879426 -1.2004191 0
22.839851 -1.8033129 -1.2007092 0
22.834921 -1.7259051 -1.200139 0
22.815914 -1.6475531 -1.1988431 0
22.853569 -1.5732671 -1.2005377 0
22.836668 -1.495191 -1.1993798 0
22.861992 -1.419885 -1.200453 0
22.838161 -1.3415531 -1.1989588 0
22.868034 -1.2663859 -1.2002975 0
22.856684 -1.188902 -1.1994857 0
22.859777 -1.112224 -1.1994456 0
22.864353 -1.0356174 -1.1994967 0
22.855904 -0.95845717 -1.1988782 0
22.856182 -0.88171202 -1.1987309 0
22.880625 -0.80583584 -1.1998644 0
22.897125 -0.72956061 -1.2005947 0
22.889454 -0.652502 -1.200071 0
22.894995 -0.5758419 -1.2002535 0
22.924593 -0.49968195 -1.2017106 0
22.89613 -0.42226386 -1.2001375 0
22.873535 -0.34513474 -1.1988858 0
22.902834 -0.26877391 -1.2003675 0
22.881121 -0.19179505 -1.1991891 0
22.913256 -0.11523692 -1.2008463 0
22.8983 -0.038386945 -1.2000489 0
22.90097 0.038391422 -1.2001889 0
22.875463 0.11504685 -1.1988657 0
22.886509 0.19184022 -1.1994715 0
22.926588 0.26905268 -1.2016125 0
22.929077 0.34597281 -1.201797 0
22.915176 0.42261514 -1.201136 0
22.88476 0.49881375 -1.1996225 0
22.898085 0.57591963 -1.2004155 0
22.881731 0.65228188 -1.199666 0
22.888054 0.72927159 -1.200119 0
22.912947 0.80697417 -1.2015594 0
22.867273 0.8821398 -1.1993126 0
22.888983 0.95984429 -1.2006133 0
22.875273 1.036112 -1.2000695 0
22.842268 1.1113721 -1.1985269 0
22.87166 1.1896811 -1.2002716 0
22.873739 1.2667018 -1.2005968 0
22.848717 1.3421732 -1.199513 0
22.841831 1.4186329 -1.1993943 0
22.84794 1.4959291 -1.1999718 0
22.832481 1.5718154 -1.1994299 0
22.827864 1.6484159 -1.1994709 0
22.855318 1.7274467 -1.2012111 0
22.831028 1.8026161 -1.2002453 0
22.826914 1.8793235 -1.2003535 0
22.810543 1.9549953 -1.1998307 0
22.777042 2.0290747 -1.1984197 0
22.804804 2.1086383 -1.2002455 0
22.806252 2.1859152 -1.2007006 0
22.782927 2.2607934 -1.1998651 0
22.792221 2.3389125 -1.2007608 0
22.785259 2.4154241 -1.200814 0
22.764589 2.4904439 -1.2001579 0
22.741285 2.565083 -1.199376 0
22.726299 2.6405888 -1.1990458 0
22.751616 2.7208726 -1.2008561 0
22.73258 2.7959354 -1.2003393 0
22.708097 2.8702445 -1.199548 0
22.723009 2.9495654 -1.2008513 0
22.688221 3.0224349 -1.1995417 0
22.714106 3.103426 -1.2014537 0
22.684401 3.1768796 -1.2004391 0
22.677477 3.2534714 -1.2006432 0
22.681786 3.3317404 -1.2014561 0
22.645966 3.4040833 -1.2001565 0
22.629486 3.4792325 -1.1998945 0
22.624378 3.5561359 -1.2002491 0
22.626501 3.6342478 -1.2010014 0
22.561888 3.7015092 -1.1982238 0
22.566469 3.7800016 -1.1991335 0
22.574947 3.8592792 -1.2002648 0
22.569963 3.9363565 -1.2006948 0
22.557114 4.0120916 -1.2007201 0
22.511053 4.081809 -1.19899 0
22.481194 4.1542959 -1.1981348 0
22.523041 4.2401719 -1.201116 0
22.477758 4.309732 -1.199465 0
22.470188 4.3864388 -1.199839 0
22.44594 4.4598818 -1.1993361 0
22.423534 4.5336323 -1.1989442 0
22.445988 4.616559 -1.2009656 0
22.407606 4.687026 -1.1997461 0
22.418842 4.7678871 -1.2011969 0
22.386135 4.8394384 -1.2003071 0
22.361244 4.9125919 -1.1998489 0
22.346819 4.9880219 -1.1999655 0
22.327261 5.0623045 -1.19982 0
22.327925 5.1412249 -1.2007753 0
22.298935 5.2133393 -1.2001494 0
22.257311 5.2823734 -1.1988556 0
22.2393 5.356926 -1.1988462 0
22.256948 5.4401946 -1.2007741 0
22.229828 5.5126157 -1.2003013 0
22.187441 5.5811357 -1.1990162 0
22.171751 5.6562977 -1.1991864 0
22.165661 5.7339664 -1.1998901 0
22.137321 5.8058934 -1.199403 0
22.157412 5.8906326 -1.2015549 0
22.112665 5.9581876 -1.200205 0
22.098207 6.033834 -1.2005115 0
22.070108 6.1057491 -1.2000904 0
22.025328 6.1729336 -1.1987741 0
22.001678 6.2459421 -1.19862 0
21.990265 6.3224497 -1.1991463 0
22.000404 6.405303 -1.2008636 0
21.929152 6.4643931 -1.1981506 0
21.932058 6.5452533 -1.1995016 0
21.915136 6.6203055 -1.1997834 0
21.896755 6.6949501 -1.1999993 0
21.884098 6.7713952 -1.2005432 0
21.831755 6.8354888 -1.1989222 0
21.840921 6.9188504 -1.2006927 0
21.784084 6.9812989 -1.1988482 0
21.777954 7.0599384 -1.1998068 0
21.765255 7.1365533 -1.2004186 0
21.73889 7.2087202 -1.2002908 0
21.702423 7.2774835 -1.1996177 0
21.702824 7.3586574 -1.200997 0
4.753829 1.6296461 -0.26336962 0
4.7105422 1.6324769 -0.26127324 0
2.1111116 0.7395606 -0.11723103 0
2.1294036 0.75399369 -0.1183865 0
2.1453199 0.76773381 -0.11941383 0
2.1350145 0.77213067 -0.11898363 0
2.1325126 0.77932078 -0.11898915 0
2.133076 0.78764355 -0.11916727 0
2.1197538 0.79081059 -0.11857047 0
2.1273074 0.80176401 -0.11914269 0
2.1315994 0.81155401 -0.11953479 0
2.1430991 0.8241697 -0.12033394 0
2.1246634 0.82526761 -0.11945347 0
2.1452365 0.84154725 -0.12076811 0
2.1633174 0.85702062 -0.12194706 0
2.1680136 0.86730206 -0.12237503 0
2.1379864 0.86361653 -0.12084288 0
2.1414728 0.87338758 -0.12120476 0
2.1172862 0.87181431 -0.12000061 0
21.138704 8.7870846 -1.1997331 0
21.10124 8.8546 -1.199285 0
21.084026 8.9306326 -1.2000017 0
21.068537 9.0075035 -1.2008324 0
21.034166 9.0763426 -1.200601 0
20.979614 9.136363 -1.199229 0
20.956812 9.210145 -1.199684 0
20.93388 9.2839346 -1.2001464 0
20.922022 9.3627462 -1.2012595 0
20.873169 9.4250097 -1.2002623 0
20.862921 9.5047216 -1.2014986 0
20.805326 9.5628462 -1.2000215 0
20.775923 9.6338358 -1.2001818 0
20.747585 9.705348 -1.2004179 0
20.71891 9.7767344 -1.2006485 0
20.663275 9.8353224 -1.1993288 0
20.655081 9.916501 -1.2007762 0
20.619637 9.9846916 -1.2006551 0
20.54957 10.035955 -1.1985278 0
20.534101 10.113809 -1.1995966 0
20.504332 10.184713 -1.1998457 0
20.450899 10.243801 -1.1987221 0
20.449282 10.3289 -1.2006503 0
20.411991 10.39611 -1.2005007 0
20.352379 10.451833 -1.1990489 0
20.33741 10.530466 -1.2002405 0
20.297649 10.596329 -1.199984 0
20.253046 10.659606 -1.1994531 0
20.226316 10.732292 -1.1999944 0
20.181149 10.795196 -1.1994554 0
20.174862 10.878986 -1.2012428 0
20.123037 10.938286 -1.2003341 0
20.086174 11.005651 -1.2003294 0
20.056351 11.076905 -1.2007599 0
19.993689 11.129943 -1.1992357 0
19.967434 11.203185 -1.1999072 0
19.932985 11.271893 -1.2001014 0
19.887014 11.334064 -1.1996148 0
19.849228 11.400866 -1.1996347 0
19.816916 11.470839 -1.1999993 0
19.786757 11.542124 -1.2005098 0
19.744738 11.606514 -1.2003146 0
19.698097 11.668139 -1.1998509 0
19.652102 11.73008 -1.199438 0
19.618893 11.79965 -1.199819 0
19.58453 11.86858 -1.2001444 0
19.561954 11.944757 -1.2012084 0
19.505554 12.000285 -1.200209 0
19.472322 12.070025 -1.2006476 0
19.403212 12.117425 -1.1988845 0
19.389284 12.19928 -1.2005445 0
19.334473 12.255472 -1.1996882 0
19.295019 12.321343 -1.1997968 0
19.249966 12.383629 -1.1995704 0
19.225361 12.459132 -1.2006334 0
19.163502 12.51048 -1.1993831 0
19.148123 12.592202 -1.2010562 0
19.08849 12.644867 -1.1999683 0
19.032572 12.699844 -1.199123 0
19.010769 12.777622 -1.2004418 0
18.964989 12.839374 -1.2002627 0
18.924854 12.904946 -1.2004542 0
18.86577 12.957536 -1.1994554 0
18.836159 13.030357 -1.2003435 0
18.776783 13.082582 -1.1993483 0
18.733919 13.14624 -1.1994191 0
18.702606 13.218072 -1.2002449 0
18.66449 13.285193 -1.2006507 0
18.604786 13.336904 -1.1996797 0
18.562628 13.40113 -1.1998519 0
18.509268 13.457239 -1.1993126 0
18.478235 13.529613 -1.2002343 0
18.42338 13.584567 -1.1996229 0
18.403475 13.665378 -1.2013035 0
18.359806 13.728688 -1.2014508 0
18.29167 13.7736 -1.2000073 0
18.2479 13.836757 -1.2001727 0
18.195816 13.893592 -1.1998041 0
18.168438 13.969366 -1.2010804 0
18.119411 14.028586 -1.200942 0
18.067911 14.085857 -1.2006521 0
18.008677 14.13701 -1.1998588 0
17.98881 14.219152 -1.2017047 0
17.924852 14.266506 -1.2006209 0
17.876383 14.326095 -1.2005849 0
17.823664 14.382251 -1.2002761 0
17.773315 14.440281 -1.2001392 0
17.717438 14.493769 -1.1996408 0
17.668579 14.552956 -1.1996295 0
17.642321 14.630883 -1.2011706 0
17.572338 14.672561 -1.1997485 0
17.517614 14.72683 -1.1993767 0
17.454826 14.774212 -1.1984627 0
17.40694 14.83414 -1.1985829 0
17.36886 14.902503 -1.1993945 0
17.330809 14.97103 -1.2002264 0
17.281908 15.030264 -1.2003231 0
17.215307 15.074017 -1.1992009 0
17.176189 15.141806 -1.2000057 0
17.114742 15.189917 -1.199264 0
17.081484 15.263088 -1.2005128 0
17.032955 15.322741 -1.200706 0
16.986784 15.384562 -1.2010807 0
16.934589 15.440957 -1.201044 0
16.857937 15.474895 -1.1992806 0
16.819309 15.54367 -1.2002335 0
16.761112 15.594402 -1.1998048 0
16.725674 15.66638 -1.2010213 0
16.634384 15.685905 -1.1982358 0
16.594069 15.753332 -1.1991297 0
16.57427 15.840528 -1.2015302 0
16.490286 15.866393 -1.1992916 0
16.448154 15.9324 -1.2001057 0
16.383986 15.977064 -1.1993254 0
16.348045 16.049303 -1.2006269 0
16.265961 16.076172 -1.1985502 0
16.229841 16.148401 -1.1998715 0
16.171103 16.198214 -1.1995374 0
16.126673 16.262396 -1.2002795 0
16.075352 16.319717 -1.2005255 0
16.000366 16.3529 -1.1990134 0
15.951732 16.412922 -1.1994859 0
15.924241 16.49493 -1.2015706 0
15.852781 16.531475 -1.2003541 0
15.803907 16.591505 -1.2008588 0
15.733801 16.629192 -1.1997616 0
15.70863 16.714487 -1.2021087 0
15.630981 16.744009 -1.2004561 0
15.561644 16.782185 -1.1994456 0
15.512064 16.841621 -1.1999696 0
15.443185 16.880064 -1.1990128 0
15.41868 16.967157 -1.2015202 0
15.330266 16.983925 -1.1990612 0
15.290682 17.054688 -1.2004308 0
15.225041 17.096457 -1.1997709 0
15.175993 17.156857 -1.2004321 0
15.106377 17.193975 -1.1994786 0
15.067452 17.266081 -1.2009779 0
14.997537 17.302725 -1.2000225 0
14.960385 17.377241 -1.2017049 0
14.880718 17.40237 -1.1999856 0
14.824061 17.454252 -1.2001292 0
14.771065 17.510504 -1.200585 0
14.697519 17.542322 -1.1993811 0
14.653584 17.609482 -1.2006071 0
14.604836 17.671068 -1.2014606 0
14.525661 17.695763 -1.1998215 0
14.48887 17.77211 -1.2016976 0
14.408817 17.795414 -1.1999999 0
14.346472 17.840391 -1.1997825 0
14.265253 17.861692 -1.1979918 0
14.235982 17.94812 -1.2005805 0
14.166658 17.98424 -1.1998127 0
14.100954 18.024828 -1.1993595 0
14.051512 18.086254 -1.2003052 0
13.997805 18.142353 -1.2009068 0
13.926526 18.175646 -1.200013 0
13.867027 18.224234 -1.2001445 0
13.79523 18.256575 -1.1992216 0
13.751895 18.326649 -1.2007892 0
13.680573 18.359503 -1.1999297 0
13.636405 18.428871 -1.2014685 0
13.573182 18.472641 -1.2013484 0
13.516199 18.524939 -1.2017956 0
13.436203 18.545568 -1.2002046 0
13.384655 18.605398 -1.2011656 0
13.297885 18.616131 -1.1989733 0
13.243361 18.671844 -1.1996951 0
13.180189 18.715441 -1.19965 0
13.125663 18.771391 -1.2004088 0
13.052821 18.801132 -1.1995054 0
12.996667 18.854883 -1.2001477 0
12.937572 18.904482 -1.2005371 0
12.869917 18.941572 -1.2001454 0
12.791903 18.963219 -1.1987927 0
12.739411 19.022665 -1.1998439 0
12.689725 19.086576 -1.2011846 0
12.610006 19.105297 -1.1996953 0
12.555861 19.162704 -1.2006499 0
12.497968 19.214575 -1.2012676 0
12.41294 19.224567 -1.1992836 0
12.35885 19.28236 -1.2002972 0
12.289907 19.317051 -1.1998849 0
12.232978 19.370667 -1.2006608 0
12.170687 19.415916 -1.2009296 0
12.09477 19.439337 -1.1998632 0
12.040223 19.497101 -1.2009301 0
11.981711 19.54866 -1.2016248 0
11.902937 19.567083 -1.2002972 0
11.836497 19.605608 -1.2002194 0
11.771672 19.646811 -1.2003188 0
11.707541 19.689207 -1.2005041 0
11.632194 19.712645 -1.1995484 0
11.580407 19.776079 -1.201039 0
11.495338 19.782616 -1.1990886 0
11.440436 19.840973 -1.200294 0
11.380645 19.891096 -1.2010112 0
11.320078 19.940042 -1.2016681 0
11.230053 19.936865 -1.1992007 0
11.168564 19.9841 -1.1997828 0
11.108527 20.034109 -1.2005424 0
11.037261 20.063911 -1.2001039 0
10.971413 20.103523 -1.2002662 0
10.908653 20.148888 -1.2007842 0
10.846777 20.196035 -1.2014201 0
10.767542 20.210779 -1.2001427 0
10.698816 20.24506 -1.2000415 0
10.627097 20.273603 -1.1996146 0
10.568896 20.328033 -1.2007318 0
10.49407 20.350533 -1.1999757 0
10.420824 20.375914 -1.1994054 0
10.359776 20.425184 -1.2002544 0
10.296402 20.470074 -1.2008568 0
10.221882 20.492792 -1.2001723 0
10.154759 20.530272 -1.2003666 0
10.088755 20.570089 -1.2007102 0
10.008089 20.579861 -1.1993151 0
9.9424143 20.620314 -1.1997231 0
9.8824291 20.672794 -1.2008419 0
9.8062115 20.691357 -1.2000036 0
9.7357922 20.722013 -1.1998817 0
9.6680813 20.758448 -1.2001077 0
9.5858831 20.763575 -1.1985393 0
9.5193806 20.802519 -1.1989381 0
9.4633102 20.86459 -1.2006801 0
9.3852453 20.878279 -1.1996504 0
9.3267603 20.935598 -1.2011403 0
9.240346 20.930126 -1.1990422 0
9.1804686 20.984646 -1.2003955 0
9.1101017 21.015408 -1.2004009 0
9.040144 21.047121 -1.2004745 0
8.952343 21.036936 -1.1981747 0
8.9031649 21.117603 -1.2010623 0
8.8381205 21.161245 -1.2018523 0
8.7523594 21.155079 -1.1998286 0
8.6870213 21.198069 -1.2006083 0
8.6101494 21.212906 -1.1998068 0
8.5442467 21.254763 -1.2005472 0
8.4727421 21.282804 -1.2005198 0
8.3953352 21.295868 -1.1996622 0
8.3255682 21.328203 -1.1999044 0
8.2517443 21.35013 -1.1995748 0
8.181653 21.381697 -1.1998004 0
8.1104393 21.410383 -1.1998774 0
8.0353088 21.428656 -1.1993849 0
7.962708 21.453564 -1.199278 0
7.8935823 21.487896 -1.199711 0
7.828393 21.53322 -1.2007693 0
7.7552676 21.556887 -1.2006323 0
7.6770091 21.566086 -1.1997044 0
7.6008353 21.580849 -1.1991012 0
7.5325212 21.617935 -1.1997519 0
7.4600444 21.643202 -1.1997592 0
7.3804288 21.647537 -1.1986212 0
7.3106861 21.680698 -1.1990933 0
7.2409182 21.713978 -1.1995844 0
7.1633019 21.72366 -1.1987857 0
7.097424 21.769016 -1.1999687 0
7.0232029 21.788988 -1.1997648 0
6.9554691 21.829235 -1.2006902 0
6.8830442 21.854984 -1.2008303 0
6.7996788 21.845648 -1.1990579 0
6.7284212 21.874907 -1.1994189 0
6.6584029 21.908403 -1.2000247 0
6.5881858 21.941513 -1.2006216 0
6.512857 21.957659 -1.2003036 0
6.4334331 21.959686 -1.1992284 0
6.358418 21.97646 -1.1989735 0
6.2878103 22.008541 -1.199567 0
6.2162118 22.037395 -1.1999968 0
6.1394939 22.048075 -1.1994507 0
6.0697637 22.083916 -1.2002866 0
5.9877777 22.074986 -1.1987034 0
5.9204264 22.119955 -1.2000606 0
5.8512683 22.158762 -1.201095 0
5.7683425 22.145245 -1.1993072 0
5.6967034 22.174746 -1.1998637 0
5.6213021 22.18969 -1.1996458 0
5.5479097 22.212563 -1.19987 0
5.4746423 22.236069 -1.2001414 0
5.3978095 22.245033 -1.1996417 0
5.3314242 22.297419 -1.2014961 0
5.2460184 22.2701 -1.1990694 0
5.1794691 22.322678 -1.2009586 0
5.0994358 22.317333 -1.1997445 0
5.0282502 22.350613 -1.2006205 0
4.9585819 22.391268 -1.2019045 0
4.8809643 22.396221 -1.2012854 0
4.8050151 22.408583 -1.2010775 0
4.7213192 22.384092 -1.1989095 0
4.6445017 22.391403 -1.1984603 0
4.5772433 22.445303 -1.2005171 0
4.4992428 22.446951 -1.1997917 0
4.4225187 22.454607 -1.1994016 0
4.3488512 22.477802 -1.199855 0
4.2725725 22.487572 -1.1996051 0
4.2047572 22.542543 -1.2017788 0
4.1224394 22.519842 -1.1998249 0
4.0504189 22.553066 -1.2008647 0
3.9743876 22.564293 -1.2007462 0
3.8933196 22.546268 -1.1990856 0
3.8205876 22.576233 -1.1999912 0
3.7474122 22.604235 -1.2008051 0
3.6721361 22.619955 -1.2009794 0
3.593472 22.614498 -1.2000432 0
3.520539 22.645134 -1.2010357 0
3.4431295 22.647175 -1.2005249 0
3.370554 22.681307 -1.2017285 0
3.2892344 22.656288 -1.1998118 0
3.214747 22.677723 -1.2003695 0
3.1327977 22.645746 -1.1981142 0
3.0642183 22.710711 -1.2010008 0
2.9845049 22.69385 -1.1995734 0
2.9095953 22.71306 -1.2000664 0
2.8329484 22.718855 -1.199864 0
2.7572274 22.732077 -1.2000673 0
2.6826208 22.754978 -1.2007947 0
2.6087286 22.784946 -1.2019079 0
2.5274816 22.75001 -1.1996112 0
2.4522929 22.768589 -1.2001505 0
2.3747964 22.765717 -1.1995727 0
2.2985015 22.774023 -1.1995975 0
2.2244029 22.80489 -1.2008238 0
2.1453304 22.784609 -1.1993705 0
2.0711939 22.816658 -1.2006853 0
1.9921042 22.793976 -1.1991334 0
1.9158361 22.802515 -1.1992379 0
1.8414252 22.834261 -1.2005761 0
1.7653768 22.847048 -1.2009304 0
1.6870493 22.82962 -1.1997102 0
1.610552 22.835936 -1.1997517 0
1.5343933 22.847387 -1.2000762 0
1.4565977 22.833843 -1.1991016 0
1.3798008 22.834772 -1.1989007 0
1.3047073 22.865118 -1.2002575 0
1.2285776 22.879423 -1.2007854 0
1.1521218 22.888607 -1.2010579 0
1.0749296 22.882879 -1.2005615 0
0.9979136 22.879751 -1.2002151 0
0.92006457 22.854851 -1.1987404 0
0.8432858 22.853861 -1.1985334 0
0.76708156 22.869234 -1.199198 0
0.69112122 22.895536 -1.200449 0
0.61448663 22.90271 -1.2007103 0
0.53685486 22.868866 -1.1988349 0
0.46091852 22.907396 -1.200767 0
0.38449392 22.931606 -1.2019618 0
0.30677524 22.870802 -1.198714 0
0.23019314 22.881752 -1.1992407 0
0.15353198 22.891092 -1.1996965 0
0.076840937 22.909166 -1.2006235 0
3.0393758e-05 22.907654 -1.2005374 0
-0.076758534 22.902718 -1.2002856 0
-0.15356009 22.904345 -1.2003911 0
-0.23053236 22.921518 -1.2013248 0
-0.30695924 22.88905 -1.1996703 0
-0.38408506 22.910851 -1.2008737 0
-0.46056783 22.892988 -1.2000117 0
-0.53718048 22.885326 -1.1996977 0
-0.61479777 22.916574 -1.2014371 0
-0.69080675 22.887135 -1.2000084 0
-0.76758808 22.886148 -1.2000849 0
-0.84428513 22.882591 -1.20004 0
-0.9203738 22.86404 -1.1992223 0
-0.99708176 22.862072 -1.1992877 0
-1.074504 22.875114 -1.2001539 0
-1.1503931 22.855473 -1.1993191 0
-1.2282457 22.874376 -1.2005204 0
-1.3045297 22.863073 -1.20015 0
-1.3813461 22.861355 -1.2002962 0
-1.4571424 22.843334 -1.1995997 0
-1.5349694 22.856874 -1.2005743 0
-1.6101551 22.831173 -1.1995012 0
-1.6862139 22.819138 -1.1991591 0
-1.7636869 22.825968 -1.1998221 0
-1.8420992 22.843376 -1.201055 0
-1.9157352 22.80204 -1.1992127 0
-1.9934541 22.81012 -1.1999824 0
-2.0686741 22.789574 -1.1992596 0
-2.1462021 22.794516 -1.1998917 0
-2.2203524 22.763987 -1.1986697 0
-2.2981296 22.770943 -1.199435 0
-2.3728566 22.747707 -1.1986234 0
-2.4539549 22.78459 -1.2009937 0
-2.5263572 22.74044 -1.1991062 0
-2.6086633 22.784912 -1.2019056 0
-2.6758926 22.698425 -1.1978101 0
-2.7539186 22.705299 -1.1986533 0
-2.8321612 22.713034 -1.1995561 0
-2.9091704 22.71022 -1.199916 0
-2.984199 22.69199 -1.1994746 0
-3.0601645 22.681118 -1.1994356 0
-3.1367037 22.674423 -1.199631 0
-3.2133033 22.667973 -1.1998528 0
-3.2863297 22.636702 -1.1987741 0
-3.3657987 22.649721 -1.2000545 0
-3.4454489 22.662836 -1.2013546 0
-3.5164602 22.619293 -1.1996647 0
-3.5917983 22.604353 -1.1995044 0
-3.6699767 22.607033 -1.2002927 0
-3.7428777 22.577255 -1.1993712 0
-3.8203022 22.574909 -1.1999203 0
-3.8974454 22.570518 -1.2003747 0
-3.9685512 22.531507 -1.199001 0
-4.0484881 22.542662 -1.2003101 0
-4.1262259 22.540865 -1.2009443 0
-4.201767 22.526846 -1.2009412 0
-4.2753506 22.50252 -1.2004018 0
-4.3475051 22.471167 -1.1995001 0
-4.4267282 22.476295 -1.2005595 0
-4.5008154 22.455107 -1.200227 0
-4.5785127 22.45183 -1.2008655 0
-4.6569314 22.451626 -1.201683 0
-4.7231555 22.393093 -1.199391 0
-4.8052406 22.409925 -1.2011487 0
-4.8797693 22.391026 -1.2010059 0
-4.9504285 22.354731 -1.1999426 0
-5.0238781 22.331455 -1.1995907 0
-5.1054025 22.343719 -1.2011623 0
-5.1757817 22.307055 -1.2001173 0
-5.2478504 22.278141 -1.1995016 0
-5.3240838 22.266981 -1.1998552 0
-5.3946686 22.232346 -1.1989568 0
-5.4758058 22.241049 -1.2004094 0
-5.5470376 22.209322 -1.1996942 0
-5.6226134 22.195112 -1.1999382 0
-5.7009993 22.191711 -1.200781 0
-5.7698669 22.15134 -1.1996365 0
-5.8438582 22.130939 -1.199586 0
-5.9226494 22.128494 -1.2005231 0
-5.9898596 22.082893 -1.199132 0
-6.0747895 22.10243 -1.2012922 0
-6.1449609 22.067934 -1.2005302 0
-6.2200108 22.051088 -1.2007415 0
-6.2811809 21.985559 -1.1983134 0
-6.3653202 22.000534 -1.200286 0
-6.4407911 21.985018 -1.2006109 0
-6.5131254 21.958776 -1.2003638 0
-6.5848756 21.930698 -1.2000289 0
-6.6581783 21.907873 -1.1999948 0
-6.7310247 21.883577 -1.1998934 0
-6.8041825 21.860321 -1.1998624 0
-6.8814468 21.850115 -1.2005618 0
-6.9392815 21.778631 -1.1979058 0
-7.0281501 21.804533 -1.2006198 0
-7.1007924 21.779545 -1.2005481 0
-7.1742105 21.756935 -1.2006209 0
-7.2416282 21.716299 -1.1997116 0
-7.3152637 21.694464 -1.1998535 0
-7.3936043 21.686371 -1.2007703 0
-7.4615755 21.647831 -1.2000147 0
-7.525558 21.598135 -1.1986518 0
-7.6091504 21.604639 -1.2004219 0
-7.6774912 21.567621 -1.1997886 0
-7.748806 21.539106 -1.1996409 0
-7.8286991 21.534241 -1.2008251 0
-7.8852129 21.465288 -1.1984476 0
-7.9679103 21.467754 -1.2000701 0
-8.0323114 21.420835 -1.198946 0
-8.1128159 21.416828 -1.2002374 0
-8.1877251 21.397736 -1.2006991 0
-8.2522469 21.351599 -1.1996561 0
-8.3241396 21.324709 -1.1997067 0
-8.3993063 21.306108 -1.2002378 0
-8.467576 21.269991 -1.1997957 0
-8.5392065 21.242388 -1.199847 0
-8.6218729 21.241953 -1.2014484 0
-8.6935978 21.214275 -1.2015249 0
-8.7435131 21.133856 -1.1986237 0
-8.8329782 21.14909 -1.2011607 0
-8.8953562 21.099239 -1.2000165 0
-8.9678488 21.073528 -1.2002575 0
-9.0316448 21.027489 -1.1993533 0
-9.1068792 21.008125 -1.1999836 0
-9.1794672 20.982508 -1.2002717 0
-9.2408514 20.931421 -1.1991149 0
-9.3216591 20.924297 -1.2004905 0
-9.3918972 20.893225 -1.2005078 0
-9.4551716 20.846794 -1.1996547 0
-9.5284233 20.822426 -1.200084 0
-9.5864038 20.764845 -1.1986111 0
-9.6677008 20.757774 -1.2000673 0
-9.7324171 20.714972 -1.1994724 0
-9.8031874 20.685118 -1.1996403 0
-9.8644533 20.63533 -1.1986642 0
-9.9453621 20.626568 -1.2000855 0
-10.00416 20.57192 -1.1988508 0
-10.078167 20.548639 -1.1994566 0
-10.151326 20.52347 -1.1999673 0
-10.217986 20.485119 -1.1997213 0
-10.297162 20.47172 -1.2009518 0
-10.345123 20.396429 -1.198563 0
-10.439529 20.412622 -1.2015647 0
-10.501956 20.365959 -1.2008837 0
-10.559664 20.310406 -1.1996889 0
-10.62805 20.275553 -1.1997284 0
-10.699031 20.245596 -1.2000716 0
-10.763417 20.203165 -1.1996889 0
-10.836345 20.176741 -1.2002705 0
-10.912004 20.155203 -1.2011589 0
-10.97423 20.108812 -1.2005802 0
-11.047374 20.08242 -1.2012093 0
-11.098979 20.017015 -1.1995163 0
-11.16828 19.983715 -1.1997579 0
-11.239911 19.954489 -1.2002591 0
-11.29145 19.889738 -1.1986347 0
-11.378692 19.887806 -1.2008107 0
-11.440033 19.840395 -1.2002572 0
-11.494686 19.781612 -1.199026 0
-11.5764 19.769356 -1.2006289 0
-11.639722 19.725523 -1.2003301 0
-11.695898 19.669746 -1.1993157 0
-11.752337 19.614658 -1.1983526 0
-11.844968 19.619755 -1.2010835 0
-11.892362 19.549814 -1.199236 0
-11.965907 19.522989 -1.2000449 0
-12.030164 19.480928 -1.199932 0
-12.09706 19.443132 -1.2000954 0
-12.163371 19.404362 -1.2002128 0
-12.238471 19.379478 -1.201205 0
-12.293282 19.322468 -1.2002194 0
-12.369466 19.299034 -1.2013332 0
-12.431715 19.253756 -1.2011025 0
-12.467809 19.16832 -1.1983737 0
-12.551997 19.156919 -1.2002853 0
-12.621893 19.123419 -1.2008311 0
-12.678954 19.070486 -1.2001699 0
-12.746586 19.033487 -1.2005243 0
-12.818869 19.003304 -1.2013246 0
-12.867908 18.938725 -1.1999629 0
-12.942037 18.911112 -1.200956 0
-12.993855 18.85091 -1.1998928 0
-13.06688 18.821491 -1.200802 0
-13.129992 18.777687 -1.2008092 0
-13.16174 18.689348 -1.1979753 0
-13.249005 18.679907 -1.2002108 0
-13.313113 18.637554 -1.2003508 0
-13.373536 18.590046 -1.2001721 0
-13.4476 18.561403 -1.2012271 0
-13.492635 18.492744 -1.1997046 0
-13.546107 18.435896 -1.1989564 0
-13.618489 18.404762 -1.1998943 0
-13.671085 18.346874 -1.1991019 0
-13.730276 18.297941 -1.1989058 0
-13.799933 18.262899 -1.1996347 0
-13.876238 18.236439 -1.2009459 0
-13.930829 18.181362 -1.200388 0
-13.979381 18.118572 -1.1993302 0
-14.060964 18.098518 -1.2011167 0
-14.099691 18.023314 -1.1992562 0
-14.158532 17.974022 -1.1991284 0
-14.239029 17.952061 -1.2008415 0
-14.284877 17.88636 -1.1996437 0
-14.35081 17.845882 -1.2001492 0
-14.404725 17.790455 -1.199663 0
-14.462014 17.739265 -1.1994741 0
-14.523635 17.693388 -1.1996579 0
-14.586623 17.649128 -1.1999662 0
-14.641552 17.595119 -1.1996251 0
-14.699468 17.544743 -1.1995438 0
-14.772923 17.512802 -1.2007399 0
-14.828002 17.458986 -1.200452 0
-14.896535 17.420961 -1.2012647 0
-14.92719 17.338778 -1.1990422 0
-14.992538 17.297052 -1.1996261 0
-15.029752 17.222971 -1.1979766 0
-15.097633 17.184116 -1.198788 0
-15.174367 17.155109 -1.2003071 0
-15.222823 17.094057 -1.1995997 0
-15.291174 17.055328 -1.200473 0
-15.340499 16.995354 -1.1998651 0
-15.403163 16.950171 -1.2003145 0
-15.452412 16.89024 -1.1997325 0
-15.523613 16.85425 -1.2008666 0
-15.571476 16.792877 -1.2002068 0
-15.612171 16.723949 -1.1990149 0
-15.683031 16.687338 -1.2001532 0
-15.73884 16.634605 -1.2001492 0
-15.788896 16.575834 -1.1997215 0
-15.85353 16.532343 -1.2004142 0
-15.914618 16.48505 -1.2008477 0
-15.946218 16.407335 -1.1990746 0
-16.022093 16.375195 -1.2006449 0
-16.083914 16.328497 -1.2011682 0
-16.129652 16.265486 -1.2005044 0
-16.175549 16.202753 -1.1998703 0
-16.24288 16.161461 -1.2008387 0
-16.291878 16.101873 -1.2004632 0
-16.334564 16.036154 -1.1996399 0
-16.391825 15.984794 -1.1999024 0
-16.437241 15.921913 -1.1993123 0
-16.475531 15.85228 -1.1982214 0
-16.537556 15.805522 -1.1988716 0
-16.608437 15.767056 -1.2001709 0
-16.639957 15.691245 -1.1986403 0
-16.698135 15.640669 -1.1990469 0
-16.755869 15.589608 -1.1994325 0
-16.817699 15.542264 -1.2001215 0
-16.871014 15.486982 -1.2002139 0
-16.914301 15.42254 -1.199608 0
-16.989857 15.387427 -1.2013009 0
-17.00963 15.30184 -1.1990647 0
-17.07984 15.261702 -1.2004 0
-17.11841 15.193254 -1.1995239 0
-17.175783 15.141529 -1.1999801 0
-17.228725 15.085847 -1.2001383 0
-17.298428 15.044711 -1.2014732 0
-17.319078 14.960979 -1.1994169 0
-17.362251 14.896913 -1.1989409 0
-17.417791 14.843467 -1.1993327 0
-17.483112 14.798234 -1.2004075 0
-17.522453 14.730977 -1.1997107 0
-17.567087 14.668256 -1.1993927 0
-17.625822 14.617281 -1.20005 0
-17.673021 14.556693 -1.1999338 0
-17.728962 14.503275 -1.2004236 0
-17.778439 14.444523 -1.2004877 0
-17.829258 14.386842 -1.2006553 0
-17.847088 14.302696 -1.1986201 0
-17.911783 14.256182 -1.199748 0
-17.947071 14.186238 -1.1989191 0
-18.008678 14.137088 -1.1998614 0
-18.046104 14.068933 -1.1992054 0
-18.104563 14.017167 -1.1999602 0
-18.132463 13.941782 -1.1987046 0
-18.192617 13.891226 -1.1995956 0
-18.266001 13.850558 -1.2013656 0
-18.289141 13.771771 -1.1998438 0
-18.327541 13.704638 -1.1993419 0
-18.377808 13.646395 -1.1996304 0
-18.427635 13.58778 -1.1999023 0
-18.486643 13.535844 -1.2007828 0
-18.522829 13.467174 -1.2001935 0
-18.567379 13.404634 -1.2001612 0
-18.597225 13.331558 -1.1991946 0
-18.651901 13.276308 -1.1998432 0
-18.693491 13.211704 -1.1996622 0
-18.76071 13.165113 -1.2011365 0
-18.790598 13.092282 -1.200233 0
-18.826178 13.023527 -1.1997097 0
-18.894392 12.977266 -1.2012771 0
-18.909605 12.894621 -1.199489 0
-18.942343 12.824116 -1.1988316 0
-18.983557 12.759406 -1.1987257 0
-19.070868 12.725471 -1.201538 0
-19.087622 12.644364 -1.1999158 0
-19.120779 12.574292 -1.1993431 0
-19.162296 12.509765 -1.1993097 0
-19.208313 12.448156 -1.1995708 0
-19.254026 12.386312 -1.1998254 0
-19.286892 12.316225 -1.1992934 0
-19.340675 12.259476 -1.2000751 0
-19.384756 12.196504 -1.2002662 0
-19.43017 12.134332 -1.2005522 0
-19.470316 12.068853 -1.2005259 0
-19.514822 12.006058 -1.2007812 0
-19.532152 11.92663 -1.1993803 0
-19.597988 11.876807 -1.2009711 0
-19.618668 11.799585 -1.1998072 0
-19.671494 11.741724 -1.2006234 0
-19.70841 11.674317 -1.2004808 0
-19.74832 11.60869 -1.2005343 0
-19.763668 11.528726 -1.1991107 0
-19.828047 11.477352 -1.2006752 0
-19.886322 11.422241 -1.2018783 0
-19.906614 11.345304 -1.200799 0
-19.916458 11.262617 -1.1991082 0
-19.952507 11.194879 -1.1990119 0
-20.021784 11.145652 -1.2009226 0
-20.047831 11.072269 -1.2002516 0
-20.103691 11.015319 -1.201378 0
-20.138081 10.946532 -1.2012331 0
-20.137625 10.858975 -1.1990273 0
-20.172222 10.790489 -1.1989266 0
-20.229937 10.734282 -1.2002108 0
-20.263018 10.664924 -1.2000455 0
-20.30451 10.599978 -1.2003912 0
-20.352869 10.538539 -1.2011545 0
-20.360491 10.456067 -1.1995285 0
-20.384026 10.381934 -1.1988577 0
-20.431118 10.319794 -1.1995854 0
-20.48201 10.259453 -1.2005472 0
-20.499365 10.182314 -1.1995566 0
-20.523964 10.108884 -1.199006 0
-20.583267 10.05248 -1.2004946 0
-20.614744 9.9823895 -1.2003717 0
-20.658737 9.9183245 -1.2009903 0
-20.669439 9.8383245 -1.1996882 0
-20.723246 9.7788477 -1.2009014 0
-20.73665 9.7002993 -1.1997867 0
-20.772617 9.63237 -1.1999924 0
-20.800425 9.5606604 -1.1997403 0
-20.83724 9.4930887 -1.2000211 0
-20.877308 9.4269447 -1.2005016 0
-20.917896 9.3609657 -1.2010241 0
-20.941669 9.2874556 -1.2005944 0
-20.962273 9.2126122 -1.199998 0
-20.987207 9.1397362 -1.1996645 0
-21.021242 9.0708323 -1.1998647 0
-21.055021 9.001791 -1.2000633 0
-21.090061 8.9332552 -1.2003466 0
-21.104652 8.8560982 -1.1994803 0
-21.130821 8.7838726 -1.1992871 0
-21.199493 8.7291746 -1.2015167 0
-21.215654 8.652751 -1.2007817 0
-21.214985 8.5696287 -1.1991107 0
-21.281742 8.51371 -1.2012638 0
-21.276369 8.4289198 -1.1993587 0
-21.32509 8.3656101 -1.2005173 0
-21.353298 8.2941723 -1.200533 0
-21.384745 8.2239771 -1.2007439 0
-21.406935 8.1502285 -1.2004488 0
-21.407875 8.0685091 -1.1989777 0
-21.440853 7.9989433 -1.1993159 0
-21.467224 7.9268899 -1.1992977 0
-21.496508 7.8559036 -1.1994554 0
-21.531115 7.786819 -1.1999229 0
-21.570087 7.719233 -1.2006458 0
-21.561663 7.6347647 -1.1987451 0
-21.62604 7.5760574 -1.2009053 0
-21.62007 7.4926767 -1.1991721 0
-21.655453 7.4237061 -1.1997473 0
-21.685291 7.352777 -1.2000279 0
-21.706474 7.2789063 -1.1998428 0
-21.741539 7.2096629 -1.2004381 0
-21.77688 7.140429 -1.2010609 0
-21.766314 7.0562286 -1.1991665 0
-21.796766 6.9854274 -1.1995472 0
-21.817295 6.9114304 -1.1993949 0
-21.851322 6.8416786 -1.1999977 0
-21.875546 6.7688122 -1.2000749 0
-21.891932 6.6935382 -1.1997359 0
-21.917797 6.6211729 -1.1999301 0
-21.951597 6.5511479 -1.2005713 0
-21.969803 6.47644 -1.2003727 0
-21.985941 6.4011555 -1.200075 0
-21.989328 6.3222437 -1.1990961 0
-22.033791 6.2551217 -1.2003703 0
-22.045261 6.1785831 -1.19986 0
-22.090937 6.1115746 -1.201224 0
-22.077717 6.0283022 -1.1993992 0
-22.074993 5.9480996 -1.1981611 0
-22.138767 5.8857388 -1.2005447 0
-22.105808 5.7976918 -1.1976966 0
-22.196302 5.7419558 -1.2015498 0
-22.194828 5.6622477 -1.2004355 0
-22.188974 5.581584 -1.1990999 0
-22.237888 5.5146775 -1.2007374 0
-22.242006 5.4366045 -1.1999687 0
-22.243935 5.3581052 -1.1990968 0
-22.307837 5.2944274 -1.2015779 0
-22.288641 5.2109947 -1.1995962 0
-22.313416 5.1379466 -1.1999956 0
-22.321383 5.0610337 -1.1995049 0
-22.369841 4.9932232 -1.2012024 0
-22.362186 4.9128609 -1.1999002 0
-22.377293 4.8375893 -1.1998336 0
-22.403151 4.7646117 -1.2003568 0
-22.408131 4.6871977 -1.1997749 0
-22.419254 4.6111231 -1.199536 0
-22.455776 4.5402131 -1.2006688 0
-22.460909 4.4629178 -1.2001364 0
-22.461132 4.3847332 -1.1993562 0
-22.47933 4.3100948 -1.1995494 0
-22.506945 4.2372036 -1.2002581 0
-22.527199 4.1628594 -1.2005873 0
-22.535534 4.0863099 -1.2002945 0
-22.535738 4.0083513 -1.1995828 0
-22.563923 3.935365 -1.2003741 0
-22.57324 3.8590488 -1.2001746 0
-22.577065 3.7818379 -1.199697 0
-22.585459 3.7054377 -1.1994761 0
-22.621927 3.6335747 -1.2007592 0
-22.645147 3.5594623 -1.2013515 0
-22.616718 3.4773309 -1.199218 0
-22.641031 3.403403 -1.1998954 0
-22.637882 3.3253529 -1.1991309 0
-22.686197 3.2547841 -1.2011054 0
-22.679285 3.1762245 -1.2001687 0
-22.676846 3.0983963 -1.1994832 0
-22.710648 3.0254838 -1.2007278 0
-22.687037 2.9449575 -1.1989508 0
-22.7246 2.8723915 -1.2004201 0
-22.735468 2.7963521 -1.2004924 0
-22.735855 2.719049 -1.2000246 0
-22.740515 2.6423016 -1.1997962 0
-22.766075 2.5679402 -1.2006837 0
-22.763296 2.4903636 -1.2000901 0
-22.816034 2.4187477 -1.2024361 0
-22.767126 2.3363984 -1.199439 0
-22.778212 2.2603867 -1.1996171 0
-22.800329 2.1854088 -1.2003893 0
-22.810371 2.1092141 -1.2005389 0
-22.780865 2.0294762 -1.198621 0
-22.819593 1.955832 -1.200307 0
-22.801281 1.877274 -1.199006 0
-22.819849 1.8017945 -1.1996579 0
-22.840271 1.7263703 -1.2004205 0
-22.825304 1.6482919 -1.1993366 0
-22.862968 1.5739751 -1.2010317 0
-22.866182 1.4971844 -1.2009301 0
-22.858191 1.4197098 -1.2002536 0
-22.833197 1.3413223 -1.1986983 0
-22.864779 1.2662665 -1.2001268 0
-22.861521 1.1892145 -1.1997397 0
-22.879951 1.1132663 -1.2005042 0
-22.866821 1.03579 -1.1996263 0
-22.874168 0.95928395 -1.1998364 0
-22.895552 0.8832916 -1.2007959 0
-22.881205 0.80591702 -1.1998949 0
-22.890688 0.72941631 -1.2002573 0
-22.886385 0.65247536 -1.1999102 0
-22.879305 0.57550806 -1.1994311 0
-22.89929 0.49919122 -1.2003843 0
-22.914967 0.42267206 -1.2011249 0
-22.875484 0.34522489 -1.1989881 0
-22.898907 0.26878861 -1.2001617 0
-22.9034 0.19204257 -1.2003567 0
-22.914413 0.11530355 -1.200907 0
-22.915218 0.038476117 -1.2009357 0
-22.900173 6.0767667e-05 -1.2001455 0
-68.777313 -0.1154815 -1.2005124 0
-68.753906 -0.34596431 -1.2001173 0
-68.721687 -0.57622403 -1.1995819 0
-68.744576 -0.8069275 -1.2000219 0
-68.747734 -1.0375049 -1.2001311 0
-68.716446 -1.2674915 -1.1996522 0
-68.741096 -1.498516 -1.2001636 0
-68.698441 -1.7280467 -1.1995133 0
-68.71344 -1.9589736 -1.1998831 0
-68.690712 -2.1888433 -1.1996076 0
-68.703827 -2.4198718 -1.1999716 0
-68.690033 -2.6500049 -1.1998792 0
-68.70578 -2.8813441 -1.2003162 0
-68.695923 -3.1116936 -1.2003194 0
-68.644028 -3.3400023 -1.1996017 0
-68.671043 -3.5721419 -1.2002764 0
-68.658737 -3.802366 -1.2002773 0
-68.6437 -4.0324326 -1.2002441 0
-68.616493 -4.2617331 -1.2000115 0
-68.58036 -4.4903622 -1.1996361 0
-68.556686 -4.7197075 -1.1994921 0
-68.570702 -4.9517207 -1.200021 0
-68.5672 -5.1826172 -1.2002571 0
-68.554489 -5.4128795 -1.2003454 0
-68.492287 -5.6391044 -1.1995807 0
-68.505936 -5.8715377 -1.2001579 0
-68.485382 -6.1011486 -1.2001493 0
-68.453979 -6.3297567 -1.1999643 0
-68.43692 -6.5596704 -1.2000439 0
-68.440002 -6.7916164 -1.2004906 0
-68.38295 -7.0175653 -1.1998957 0
-68.394295 -7.2505388 -1.2005146 0
-68.328606 -7.4753265 -1.1997948 0
-68.320473 -7.7063308 -1.200099 0
-68.302185 -7.9362741 -1.2002383 0
-68.258156 -8.1631975 -1.1999389 0
-68.249664 -8.3943768 -1.2002777 0
-68.222702 -8.6233559 -1.2003051 0
-68.164864 -8.84834 -1.1998028 0
-68.141144 -9.0776777 -1.1999142 0
-68.10685 -9.3056164 -1.1998531 0
-68.099869 -9.5373592 -1.2002866 0
-68.077194 -9.7670212 -1.2004575 0
-68.037086 -9.9941912 -1.2003343 0
-67.976791 -10.218282 -1.1998683 0
-67.941498 -10.446037 -1.1998568 0
-67.915031 -10.675179 -1.2000147 0
-67.900063 -10.906231 -1.2003896 0
-67.851509 -11.131922 -1.2001843 0
-67.806816 -11.358182 -1.2000607 0
-67.790001 -11.589162 -1.200444 0
-67.718903 -11.810826 -1.1998794 0
-67.665924 -12.035498 -1.199649 0
-67.636581 -12.264365 -1.199851 0
-67.584633 -12.489139 -1.1996655 0
-67.558754 -12.71875 -1.1999564 0
-67.51931 -12.945876 -1.2000201 0
-67.488869 -13.174788 -1.2002574 0
-67.406044 -13.393388 -1.1995763 0
-67.387573 -13.624732 -1.2000537 0
-67.343956 -13.851096 -1.2000972 0
-67.279198 -14.073058 -1.1997774 0
-67.236725 -14.299636 -1.1998682 0
-67.204681 -14.528505 -1.2001588 0
-67.139542 -14.750222 -1.1998719 0
-67.124954 -14.983112 -1.2005023 0
-67.056602 -15.204063 -1.2001848 0
-67.016068 -15.431298 -1.2003787 0
-66.948486 -15.652287 -1.2001014 0
-66.870842 -15.870782 -1.1996567 0
-66.865128 -16.10643 -1.2005162 0
-66.785019 -16.324236 -1.2000538 0
-66.750931 -16.553274 -1.2004318 0
-66.657372 -16.767504 -1.1997535 0
-66.600006 -16.990704 -1.1997397 0
-66.546471 -17.21489 -1.1998084 0
-66.512161 -17.444147 -1.2002374 0
-66.47924 -17.673948 -1.2007059 0
-66.377686 -17.885447 -1.1999482 0
-66.311707 -18.106356 -1.199846 0
-66.274117 -18.335085 -1.2002715 0
-66.215721 -18.558153 -1.2003341 0
-66.134621 -18.774803 -1.1999981 0
-66.106667 -19.006603 -1.2006406 0
-66.002876 -19.216585 -1.199919 0
-65.935425 -19.436989 -1.1998707 0
-65.883377 -19.661976 -1.2001165 0
-65.792992 -19.875483 -1.1996772 0
-65.76532 -20.107988 -1.2003952 0
-65.673958 -20.321079 -1.1999644 0
-65.597313 -20.538607 -1.1998155 0
-65.536591 -20.761124 -1.1999713 0
-65.482773 -20.985916 -1.2002674 0
-65.391434 -21.198669 -1.1998893 0
-65.331673 -21.421625 -1.2001039 0
-65.262321 -21.641491 -1.2001561 0
-65.181679 -21.857595 -1.2000141 0
-65.122887 -22.081053 -1.2002879 0
-65.034111 -22.294344 -1.2000226 0
-64.95298 -22.510181 -1.1999115 0
-64.862831 -22.722815 -1.1996467 0
-64.791458 -22.941996 -1.1997427 0
-64.722702 -23.162149 -1.1999007 0
-64.661324 -23.385042 -1.2002096 0
-64.577606 -23.599899 -1.2001177 0
-64.473419 -23.807163 -1.1996582 0
-64.401878 -24.026423 -1.1998192 0
-64.327744 -24.244772 -1.1999457 0
-64.253601 -24.463171 -1.2000859 0
-64.175232 -24.680008 -1.200161 0
-64.065315 -24.884623 -1.199659 0
-63.977306 -25.097628 -1.1995798 0
-63.91478 -25.320698 -1.1999925 0
-63.820488 -25.531235 -1.1998227 0
-63.751648 -25.751986 -1.200145 0
-63.652241 -25.960405 -1.1999054 0
-63.558094 -26.170895 -1.1997781 0
-63.47427 -26.385626 -1.199859 0
-63.364361 -26.589445 -1.1994598 0
-63.326115 -26.823456 -1.2004315 0
-63.201328 -27.020878 -1.1997766 0
-63.10825 -27.23171 -1.1997362 0
-63.029846 -27.448919 -1.1999885 0
-62.928974 -27.656363 -1.1998267 0
-62.838715 -27.868446 -1.1998805 0
-62.761391 -28.086346 -1.2001954 0
-62.654419 -28.290993 -1.199957 0
-62.541142 -28.49267 -1.1996105 0
-62.462242 -28.710003 -1.1999366 0
-62.358952 -28.916168 -1.1998081 0
-62.265408 -29.126842 -1.1998805 0
-62.149128 -29.32682 -1.1995279 0
-62.067165 -29.542984 -1.1998509 0
-61.984627 -29.759014 -1.2001774 0
-61.877316 -29.96319 -1.2000381 0
-61.766567 -30.16563 -1.199845 0
-61.679535 -30.379669 -1.2001262 0
-61.56908 -30.582201 -1.1999655 0
