# .PCD v0.7 - Point Cloud Data file format
VERSION 0.7
FIELDS x y z intensity
SIZE 4 4 4 4
TYPE F F F F
COUNT 1 1 1 1
WIDTH 1409
HEIGHT 1
VIEWPOINT 0 0 0 1 0 0 0
POINTS 1409
DATA ascii
-7.1992497 2.3072155 -1.1973724 0
-7.2192202 2.2869532 -1.1994119 0
-7.2581706 2.2725432 -1.2046105 0
-7.2389126 2.2398913 -1.2001611 0
-7.2272978 2.2097728 -1.1970004 0
-7.278059 2.1986372 -1.2041799 0
-7.2904716 2.1757395 -1.2050198 0
-7.2642474 2.1414149 -1.1994919 0
-7.2626457 2.1145024 -1.19805 0
-7.2634287 2.0883389 -1.1970174 0
-7.2876706 2.0688798 -1.1998626 0
-7.2720399 2.0381207 -1.1961573 0
-7.2809691 2.0143187 -1.1965084 0
-7.3044209 1.9944661 -1.1992567 0
-7.3034062 1.9679004 -1.1980001 0
-7.3287492 1.9483968 -1.2010789 0
-7.3350682 1.9237688 -1.2010506 0
-7.3523583 1.9019797 -1.2028308 0
-7.3778906 1.8822153 -1.2059686 0
-7.342257 1.8469274 -1.1991251 0
-7.3741879 1.8286929 -1.2033319 0
-7.3403406 1.7941966 -1.1968203 0
-7.3553948 1.7717628 -1.1982995 0
-7.3728824 1.7498419 -1.2001859 0
-7.3798194 1.7253722 -1.2003667 0
-7.3937211 1.7024978 -1.2016927 0
-7.4037595 1.6786897 -1.2024027 0
-7.3881311 1.6491215 -1.1989599 0
-7.4083681 1.6275815 -1.2013516 0
-7.408524 1.6015966 -1.2004994 0
-7.3993826 1.5736709 -1.1981564 0
-7.3894935 1.5456898 -1.1957092 0
-7.4114747 1.5243692 -1.1984322 0
-7.4178181 1.4997689 -1.1986381 0
-7.4200311 1.4743389 -1.1981902 0
-7.4833179 1.4608502 -1.207612 0
-7.4307003 1.4247321 -1.1983434 0
-7.4260597 1.3980453 -1.1968323 0
-7.4527259 1.3772085 -1.200379 0
-7.4456086 1.3500929 -1.1984969 0
-7.4512906 1.3253345 -1.1986895 0
-7.4601855 1.301128 -1.1994119 0
-7.4549618 1.2744764 -1.1978784 0
-7.4524136 1.2483386 -1.1967896 0
-7.4663758 1.2249559 -1.1983654 0
-7.4904637 1.2031318 -1.2015774 0
-7.4835892 1.1763029 -1.1998353 0
-7.4771543 1.1496159 -1.1981789 0
-7.4917455 1.1261603 -1.1999053 0
-7.5183015 1.104388 -1.2035587 0
-7.5007315 1.0761284 -1.2001617 0
-7.5108352 1.0518894 -1.2012073 0
-7.5065403 1.0256381 -1.1999637 0
-7.5143371 1.0010506 -1.2006668 0
-7.5210485 0.97629178 -1.2012093 0
-7.5199389 0.95052099 -1.2005165 0
-7.503665 0.92291433 -1.1974177 0
-7.5157757 0.89883411 -1.1988627 0
-7.531023 0.87505645 -1.2008201 0
-7.5066981 0.84673148 -1.1964821 0
-7.5319333 0.82401305 -1.2000571 0
-7.5402226 0.79934561 -1.2009441 0
-7.5383735 0.77359974 -1.2002296 0
-7.5433526 0.74856156 -1.2006161 0
-7.5595136 0.72457844 -1.2027949 0
-7.5523057 0.69834155 -1.2012688 0
-7.5271101 0.67056674 -1.1968968 0
-7.5603967 0.64798987 -1.2018375 0
-7.5461402 0.62128854 -1.1992334 0
-7.533236 0.59480423 -1.196859 0
-7.5605812 0.57146269 -1.2008923 0
-7.5440946 0.54478443 -1.1979768 0
-7.5470543 0.51956838 -1.1981635 0
-7.5408263 0.49374256 -1.1969051 0
-7.565218 0.46987158 -1.2005198 0
-7.564867 0.44439355 -1.2002211 0
-7.5640764 0.41890353 -1.1998661 0
-7.5622787 0.3933759 -1.1993649 0
-7.5650363 0.36809084 -1.1995997 0
-7.5934062 0.34395573 -1.2039088 0
-7.5815167 0.31794935 -1.201848 0
-7.5994735 0.29318145 -1.2045319 0
-7.5666761 0.26651189 -1.1991851 0
-7.5630765 0.24099892 -1.1984798 0
-7.5753112 0.21596698 -1.2002971 0
-7.576314 0.19057527 -1.200348 0
-7.5862627 0.16537613 -1.2018297 0
-7.6013336 0.14020844 -1.204136 0
-7.5878139 0.11451133 -1.2019267 0
-7.5919251 0.089114428 -1.2025238 0
-7.5908012 0.06364806 -1.2023052 0
-7.5740852 0.038112208 -1.1996306 0
-7.5856681 0.012736822 -1.2014517 0
-7.5875263 2.0134183e-05 -1.2017443 0
-9.789279 -0.016436826 -1.2019722 0
-9.7722664 -0.049173284 -1.1998968 0
-9.7760906 -0.081971481 -1.2003934 0
-9.749074 -0.11443515 -1.1971164 0
-9.7910614 -0.14776158 -1.2023263 0
-9.7703285 -0.18021606 -1.1998477 0
-9.771986 -0.21302363 -1.2001324 0
-9.7420788 -0.2450531 -1.1965535 0
-9.7685671 -0.27849525 -1.1999148 0
-9.7672338 -0.31123483 -1.1998724 0
-9.7875891 -0.34473643 -1.2025082 0
-9.7588377 -0.37648794 -1.1991242 0
-9.7675438 -0.40962568 -1.2003559 0
-9.7618484 -0.44217885 -1.1998315 0
-9.7570457 -0.47474709 -1.19943 0
-9.7478304 -0.50706428 -1.1984994 0
-9.7460098 -0.53974044 -1.1984915 0
-9.7531719 -0.57294416 -1.1996017 0
-9.7625017 -0.60634369 -1.2009925 0
-9.7774801 -0.64018953 -1.2030925 0
-9.7565174 -0.67167634 -1.2007834 0
-9.7661848 -0.70524901 -1.2022574 0
-9.7428703 -0.7364099 -1.1996845 0
-9.7360802 -0.76873493 -1.1991591 0
-9.7414026 -0.80202878 -1.2001392 0
-9.7395802 -0.8347643 -1.2002525 0
-9.7273388 -0.86657822 -1.1990954 0
-9.7247686 -0.89922339 -1.1991434 0
-9.7405329 -0.93362886 -1.2014666 0
-9.6946144 -0.96204114 -1.1961938 0
-9.7096157 -0.99641603 -1.1984502 0
-9.7082682 -1.0291821 -1.1987032 0
-9.7396793 -1.0655462 -1.2030158 0
-9.711257 -1.0953987 -1.1999521 0
-9.7144661 -1.1287584 -1.2008095 0
-9.6934385 -1.1592673 -1.1986841 0
-9.7094536 -1.1942155 -1.2011528 0
-9.6825724 -1.223878 -1.1983283 0
-9.6999226 -1.2591269 -1.2009913 0
-9.6558666 -1.2863424 -1.1960638 0
-9.7042837 -1.3259215 -1.2026051 0
-9.6709366 -1.3544108 -1.1990285 0
-9.6580534 -1.3856388 -1.1980004 0
-9.688159 -1.4231254 -1.20232 0
-9.6774931 -1.4547222 -1.2015948 0
-9.6746187 -1.4874772 -1.2018505 0
-9.647398 -1.5164198 -1.1990937 0
-9.6563931 -1.5510272 -1.2008513 0
-9.6351328 -1.5807687 -1.1988599 0
-9.6552496 -1.6173311 -1.2020309 0
-9.6294956 -1.6462277 -1.199505 0
-9.645031 -1.6821861 -1.202136 0
-9.6401987 -1.7146678 -1.2022434 0
-9.622591 -1.7448395 -1.2007705 0
-9.5820322 -1.7706885 -1.1964434 0
-9.5934143 -1.8060759 -1.198614 0
-9.581707 -1.8371574 -1.197914 0
-9.6062994 -1.8752865 -1.2017679 0
-9.5925608 -1.9060141 -1.2008419 0
-9.5695324 -1.9348125 -1.1987646 0
-9.5892267 -1.9722824 -1.2020532 0
-9.5777216 -2.0034101 -1.2014463 0
-9.5663347 -2.0345294 -1.2008668 0
-9.5442171 -2.063297 -1.1989521 0
-9.5341024 -2.0945947 -1.1985569 0
-9.5469198 -2.1309896 -1.2010596 0
-9.5439234 -2.1639395 -1.2015886 0
-9.5411301 -2.1969659 -1.2021577 0
-9.4923239 -2.2192671 -1.196939 0
-9.514904 -2.2582185 -1.2007343 0
-9.5265274 -2.2947438 -1.2031652 0
-9.4871092 -2.3189301 -1.199162 0
-9.4953775 -2.3547175 -1.2011983 0
-9.4710674 -2.3824248 -1.1991267 0
-9.4874439 -2.4203951 -1.2022208 0
-9.4433317 -2.442893 -1.1976622 0
-9.4765539 -2.4854164 -1.2029258 0
-9.4630384 -2.5158119 -1.2022742 0
-9.4301329 -2.540946 -1.1991692 0
-9.4233284 -2.5730321 -1.1993942 0
-9.4297419 -2.6087878 -1.201317 0
-9.4065428 -2.6363537 -1.1994809 0
-9.4284124 -2.6766102 -1.2034072 0
-9.3986111 -2.7022338 -1.2007531 0
-9.3880901 -2.7333207 -1.2005731 0
-9.3824492 -2.7658358 -1.2010307 0
-9.3701105 -2.7963789 -1.2006447 0
-9.3386602 -2.8211267 -1.1978201 0
-9.3492556 -2.8585694 -1.2004018 0
-9.3630772 -2.8971579 -1.2034168 0
-9.2992077 -2.9115946 -1.1964557 0
-9.302639 -2.9469528 -1.1981617 0
-9.3206062 -2.9870677 -1.2017591 0
-9.2830925 -3.0094037 -1.1982166 0
-9.3129807 -3.0536366 -1.203389 0
-9.2884312 -3.0801158 -1.2015445 0
-9.2797918 -3.1118243 -1.2017698 0
-9.2584724 -3.1392467 -1.2003652 0
-9.2316065 -3.1646872 -1.198251 0
-9.2502499 -3.2057774 -1.2020593 0
-9.2319679 -3.2341528 -1.2010859 0
-9.2059402 -3.2597296 -1.1991149 0
-9.2029352 -3.2934313 -1.200155 0
-9.1984282 -3.3266509 -1.2010151 0
-9.2053862 -3.3641105 -1.2033895 0
-9.1672802 -3.3850687 -1.1998849 0
-9.140749 -3.4101412 -1.1979022 0
-9.1539268 -3.4500644 -1.2011383 0
-9.1493092 -3.483402 -1.2020581 0
-9.1054296 -3.5016947 -1.1978289 0
-9.1201048 -3.542484 -1.201315 0
-9.1041069 -3.5714459 -1.2007784 0
-9.0835695 -3.5985782 -1.1996543 0
-9.0779371 -3.6316073 -1.2005117 0
-9.0791035 -3.6674335 -1.2022853 0
-9.0304804 -3.6830585 -1.1974751 0
-9.0449371 -3.7243736 -1.2010411 0
-9.0230932 -3.7508106 -1.1998038 0
-9.0227184 -3.7861831 -1.2014351 0
-8.9998636 -3.8121309 -1.200087 0
-8.9768219 -3.8379195 -1.1987237 0
-8.9788847 -3.87446 -1.2007271 0
-8.9612894 -3.902559 -1.2001171 0
-8.9460363 -3.9316518 -1.199833 0
-8.915432 -3.9539196 -1.1974996 0
-8.9107885 -3.9876661 -1.198665 0
-8.9245758 -4.0298052 -1.2023304 0
-8.8864546 -4.0485158 -1.1990167 0
-8.8920803 -4.0871353 -1.2016178 0
-8.8662434 -4.1113229 -1.1999825 0
-8.8511162 -4.1404219 -1.1998072 0
-8.8272581 -4.165391 -1.1984596 0
-8.8150892 -4.1958423 -1.1987107 0
-8.7965202 -4.2232366 -1.1981043 0
-8.8113165 -4.2667513 -1.2020613 0
-8.7882891 -4.2920351 -1.2008764 0
-8.7517643 -4.3105984 -1.1978536 0
-8.7397585 -4.3411574 -1.1981958 0
-8.7416487 -4.3786974 -1.2004608 0
-8.7369518 -4.4130497 -1.201841 0
-8.7040472 -4.4331207 -1.1993526 0
-8.7054462 -4.4706554 -1.201604 0
-8.6951342 -4.502265 -1.2022575 0
-8.679534 -4.5311546 -1.2021943 0
-8.6728592 -4.5647383 -1.2033828 0
-8.6412935 -4.5851893 -1.2011294 0
-8.6254597 -4.6139154 -1.201072 0
-8.5989847 -4.6369004 -1.1995435 0
-8.6020517 -4.6758494 -1.2021517 0
-8.5681648 -4.6947131 -1.1996089 0
-8.5577374 -4.7263751 -1.2003609 0
-8.5370016 -4.752346 -1.1996806 0
-8.5205641 -4.7806869 -1.1996164 0
-8.5153694 -4.8153815 -1.2011515 0
-8.4924879 -4.8400931 -1.2002062 0
-8.4726219 -4.8664775 -1.1996979 0
-8.45924 -4.8965831 -1.2001208 0
-8.4488115 -4.9284387 -1.2009789 0
-8.4163351 -4.9473891 -1.1987137 0
-8.4036064 -4.9778934 -1.1992711 0
-8.3816853 -5.0029469 -1.1985297 0
-8.3853045 -5.0433149 -1.2014585 0
-8.3542948 -5.0628843 -1.1994408 0
-8.3419933 -5.0937486 -1.20012 0
-8.3125811 -5.1141295 -1.1983486 0
-8.3066921 -5.1489787 -1.1999817 0
-8.2661829 -5.162313 -1.1966234 0
-8.2602901 -5.1972103 -1.1982861 0
-8.2686863 -5.2412734 -1.2020466 0
-8.2490721 -5.267693 -1.201756 0
-8.2347527 -5.2975006 -1.2022507 0
-8.2063026 -5.3181839 -1.2006936 0
-8.1778021 -5.3387327 -1.1991359 0
-8.1604357 -5.3665028 -1.199221 0
-8.1415663 -5.3932824 -1.1990986 0
-8.108285 -5.4104381 -1.1968619 0
-8.1024733 -5.4459105 -1.1986926 0
-8.1020985 -5.4851842 -1.2013512 0
-8.0766096 -5.5075092 -1.2003031 0
-8.046628 -5.526679 -1.1985945 0
-8.0350342 -5.5584569 -1.1996368 0
-8.0066185 -5.5785828 -1.1981801 0
-8.0064287 -5.6184201 -1.200964 0
-7.9872541 -5.6450262 -1.20092 0
-7.9746962 -5.6763391 -1.2018867 0
-7.9233298 -5.6798978 -1.1970085 0
-7.9442091 -5.7352858 -1.2030611 0
-7.8913164 -5.7374458 -1.1979575 0
-7.8835025 -5.7722678 -1.1997026 0
-7.8582668 -5.794363 -1.198812 0
-7.8282509 -5.8128476 -1.1971993 0
-7.8084912 -5.8388925 -1.1971647 0
-7.8048582 -5.8770785 -1.199622 0
-7.8006206 -5.9149752 -1.2020121 0
-7.7782383 -5.9391823 -1.2016249 0
-7.7559667 -5.963448 -1.2012663 0
-7.7451105 -5.9965272 -1.2026922 0
-7.7236362 -6.0214281 -1.2024858 0
-7.7041898 -6.0479074 -1.2026085 0
-7.6658478 -6.0594587 -1.1997879 0
-7.6647382 -6.1004481 -1.2028087 0
-7.6210446 -6.107522 -1.1991587 0
-7.6035476 -6.1354795 -1.1996356 0
-7.5678573 -6.1486888 -1.1972506 0
-7.5607562 -6.1851177 -1.1994011 0
-7.533421 -6.2050338 -1.1983584 0
-7.5135031 -6.2310276 -1.1985066 0
-7.4742675 -6.2409015 -1.1955789 0
-7.4439139 -6.2580347 -1.1940732 0
-7.4472456 -6.3035731 -1.1979911 0
-7.4451118 -6.3447351 -1.2010632 0
-7.4040184 -6.3526912 -1.1978632 0
-7.3904395 -6.3841848 -1.1991227 0
-7.3731189 -6.4125161 -1.1997941 0
-7.3472462 -6.4334083 -1.1990871 0
-7.3536162 -6.4826732 -1.2036673 0
-7.3227658 -6.4992385 -1.2021776 0
-7.2821693 -6.5069871 -1.1990879 0
-7.2672772 -6.537632 -1.2002382 0
-7.2464809 -6.5630155 -1.200431 0
-7.2165694 -6.5801024 -1.199124 0
-7.1949239 -6.6046805 -1.1992 0
-7.1701117 -6.6263385 -1.1987607 0
-7.1487317 -6.6511574 -1.198908 0
-7.1379585 -6.6859226 -1.2008539 0
-7.093895 -6.6894426 -1.1972075 0
-7.0787563 -6.7201476 -1.1984483 0
-7.0558648 -6.7435374 -1.1983939 0
-7.03578 -6.7696242 -1.198831 0
-7.0437388 -6.8229089 -1.2040781 0
-7.0177097 -6.843451 -1.2035441 0
-6.9547291 -6.8276753 -1.1966622 0
-6.951448 -6.8703756 -1.2000544 0
-6.9266181 -6.8918977 -1.1997503 0
-6.9065571 -6.9181728 -1.2002865 0
-6.8725772 -6.9304538 -1.1984127 0
-6.8663206 -6.9707346 -1.2013904 0
-6.8345094 -6.9851308 -1.1999155 0
-6.8006496 -6.997304 -1.1980829 0
-6.7753906 -7.0182428 -1.1977718 0
-6.7570577 -7.04638 -1.1987007 0
-6.7614512 -7.0984507 -1.2036954 0
-6.711318 -7.0932884 -1.1989976 0
-6.6780705 -7.1057196 -1.1973075 0
-6.6681371 -7.1429896 -1.1998136 0
-6.6552835 -7.1773133 -1.2018241 0
-6.6181726 -7.1854625 -1.1994662 0
-6.585896 -7.1987052 -1.1979841 0
-6.5665236 -7.2260289 -1.1988605 0
-6.5531087 -7.2600241 -1.2008487 0
-6.5444102 -7.2994437 -1.2037327 0
-6.5024905 -7.301796 -1.2005186 0
-6.4790101 -7.324729 -1.2007109 0
-6.4520297 -7.3436961 -1.2002671 0
-6.4213877 -7.3584299 -1.1991497 0
-6.4053264 -7.3898935 -1.2007705 0
-6.3950911 -7.4282603 -1.2035139 0
-6.3491731 -7.4251294 -1.1995509 0
-6.3086319 -7.4279947 -1.1965899 0
-6.30516 -7.474555 -1.2006781 0
-6.2753148 -7.489984 -1.1997701 0
-6.2398305 -7.4985604 -1.197786 0
-6.2318344 -7.5402265 -1.2010971 0
-6.1958375 -7.5480661 -1.1990302 0
-6.1613688 -7.5576029 -1.1972568 0
-6.150291 -7.5958738 -1.2000462 0
-6.1150999 -7.6044035 -1.1981478 0
-6.0900927 -7.6255193 -1.1982508 0
-6.0684881 -7.6509337 -1.1990404 0
-6.0391054 -7.6665444 -1.1983069 0
-6.0188751 -7.69379 -1.1994046 0
-5.9946799 -7.7160316 -1.1997317 0
-5.9692883 -7.7367511 -1.1998347 0
-5.9437928 -7.7573452 -1.1999311 0
-5.9184976 -7.7782116 -1.2000827 0
-5.8984947 -7.8060966 -1.2013268 0
-5.8685427 -7.8208361 -1.2005605 0
-5.8492408 -7.8497996 -1.2019893 0
-5.806509 -7.84723 -1.198608 0
-5.7828045 -7.870245 -1.1991552 0
-5.7601223 -7.894712 -1.1999338 0
-5.730907 -7.9102349 -1.1993659 0
-5.7040954 -7.9290466 -1.1993117 0
-5.6786957 -7.949831 -1.1995687 0
-5.6468577 -7.9615622 -1.1984754 0
-5.6236658 -7.9854674 -1.1992288 0
-5.5959449 -8.0029688 -1.1990327 0
-5.5903883 -8.0523758 -1.2036201 0
-5.557766 -8.0629606 -1.2024102 0
-5.5093513 -8.0503531 -1.1977686 0
-5.4964428 -8.0895519 -1.2008522 0
-5.4732647 -8.1138287 -1.201725 0
-5.4442368 -8.1294565 -1.2013295 0
-5.4109592 -8.1386538 -1.2000009 0
-5.3745885 -8.143034 -1.197983 0
-5.3531837 -8.1700544 -1.1993109 0
-5.3311796 -8.1962881 -1.2005312 0
-5.2906404 -8.1939373 -1.197582 0
-5.288476 -8.2511635 -1.2033476 0
-5.2580633 -8.264575 -1.2027256 0
-5.2271414 -8.2771177 -1.2019938 0
-5.1803694 -8.2643003 -1.1976035 0
-5.1547909 -8.2850943 -1.1981053 0
-5.1275539 -8.3032541 -1.1982386 0
-5.1120982 -8.3406496 -1.2011549 0
-5.0639997 -8.3246927 -1.1964051 0
-5.0469937 -8.3597345 -1.1990026 0
-5.011682 -8.364501 -1.1972694 0
-4.9932027 -8.3973913 -1.1995741 0
-4.9702353 -8.4229231 -1.2008342 0
-4.936172 -8.4296446 -1.1994262 0
-4.9099226 -8.4496603 -1.1999251 0
-4.8761706 -8.4567204 -1.1985991 0
-4.8490777 -8.4752722 -1.1989175 0
-4.8181667 -8.4871359 -1.1983038 0
-4.7992611 -8.5202456 -1.2006999 0
-4.7718129 -8.5383387 -1.2009883 0
-4.7458777 -8.5591927 -1.2016767 0
-4.7227221 -8.5851793 -1.2030952 0
-4.6813354 -8.5779228 -1.199872 0
-4.6499386 -8.5887489 -1.1991988 0
-4.6159925 -8.5947514 -1.1978693 0
-4.5832829 -8.6029205 -1.1968595 0
-4.5775671 -8.6620531 -1.202944 0
-4.5404458 -8.6619883 -1.2008142 0
-4.4959121 -8.6474152 -1.1966975 0
-4.4745064 -8.6772041 -1.198737 0
-4.4597039 -8.720149 -1.2025974 0
-4.4221573 -8.7187185 -1.2003486 0
-4.3971872 -8.7420197 -1.20152 0
-4.364428 -8.7498484 -1.2005781 0
-4.3363419 -8.7670097 -1.2009312 0
-4.3007216 -8.7688541 -1.1992018 0
-4.2736111 -8.7879829 -1.1998515 0
-4.2443466 -8.8027267 -1.1999148 0
-4.2014704 -8.7890053 -1.1961175 0
-4.1878772 -8.8365879 -1.2006756 0
-4.1655264 -8.8661184 -1.2027836 0
-4.1207404 -8.8477497 -1.1984106 0
-4.095315 -8.8707495 -1.1996593 0
-4.0768404 -8.9091034 -1.2029909 0
-4.0369601 -8.9007025 -1.2000221 0
-4.0046167 -8.9086742 -1.1992799 0
-3.9813113 -8.9368353 -1.2012672 0
-3.93606 -8.915556 -1.1966262 0
-3.9148479 -8.9485941 -1.1992921 0
-3.8928456 -8.9801769 -1.2017688 0
-3.8516366 -8.9673862 -1.1983222 0
-3.8304968 -9.001276 -1.2011279 0
-3.7946451 -9.0006657 -1.199342 0
-3.7770162 -9.0434341 -1.2033467 0
-3.7482927 -9.0599594 -1.2038666 0
-3.6960931 -9.0192738 -1.196807 0
-3.6688323 -9.0390062 -1.1977863 0
-3.6488535 -9.0769978 -1.2011929 0
-3.6301384 -9.1186686 -1.2050898 0
-3.5858426 -9.0960302 -1.2005024 0
-3.5510755 -9.0971155 -1.1990675 0
-3.5154548 -9.0957747 -1.1973305 0
-3.4885244 -9.1168814 -1.1985625 0
-3.4610908 -9.1368513 -1.1996555 0
-3.4281611 -9.142334 -1.1988596 0
-3.4069324 -9.1792183 -1.2021916 0
-3.3767931 -9.1923761 -1.2024252 0
-3.3402255 -9.1878891 -1.2003666 0
-3.3134522 -9.2102966 -1.201836 0
-3.2730954 -9.1947851 -1.1983732 0
-3.2469454 -9.2190428 -1.2001091 0
-3.226938 -9.261219 -1.2041843 0
-3.1863341 -9.2443237 -1.2005917 0
-3.1550803 -9.2542467 -1.2004999 0
-3.1242018 -9.2652693 -1.200564 0
-3.0917392 -9.2715521 -1.2000283 0
-3.0635366 -9.2906618 -1.2011656 0
-3.0362282 -9.3127165 -1.2026939 0
-2.9969983 -9.2980595 -1.1994965 0
-2.9659622 -9.3085423 -1.1995593 0
-2.9366579 -9.3245382 -1.200345 0
-2.9091618 -9.346488 -1.2019083 0
-2.8751295 -9.3474798 -1.2007895 0
-2.8357017 -9.3305101 -1.1973814 0
-2.8091178 -9.355669 -1.1993946 0
-2.7852714 -9.3904467 -1.2026491 0
-2.7482624 -9.380928 -1.2002432 0
-2.714524 -9.3822422 -1.1992402 0
-2.6878343 -9.4080305 -1.2013777 0
-2.6577711 -9.4222908 -1.202054 0
-2.6191201 -9.4058485 -1.1988294 0
-2.5905526 -9.4254313 -1.2002116 0
-2.5618894 -9.4449511 -1.2015966 0
-2.5323694 -9.4615641 -1.2026232 0
-2.4932158 -9.4419136 -1.1990563 0
-2.4625516 -9.4540854 -1.1995467 0
-2.4276783 -9.4499817 -1.1979866 0
-2.3959622 -9.4579954 -1.1979773 0
-2.3690219 -9.4851294 -1.2004014 0
-2.3347285 -9.4829531 -1.1991285 0
-2.3099537 -9.5197115 -1.2027906 0
-2.2775018 -9.5252237 -1.2025155 0
-2.2409625 -9.51332 -1.2000574 0
-2.2066953 -9.5106153 -1.1987762 0
-2.182514 -9.5517397 -1.2030307 0
-2.1455715 -9.5372009 -1.2002866 0
-2.1146061 -9.5489607 -1.2008677 0
-2.0814369 -9.5507593 -1.2002095 0
-2.0489893 -9.5557537 -1.199967 0
-2.0143309 -9.5502043 -1.1984153 0
-1.9838637 -9.5644455 -1.199361 0
-1.9519712 -9.5719566 -1.1994755 0
-1.9157082 -9.5576982 -1.1968771 0
-1.8874354 -9.5832758 -1.1992809 0
-1.8562697 -9.594593 -1.1999116 0
-1.8189545 -9.5737314 -1.1965332 0
-1.7901821 -9.5976658 -1.1987675 0
-1.7629368 -9.6306219 -1.2021388 0
-1.7293985 -9.6295805 -1.2012783 0
-1.6966629 -9.6328287 -1.2009671 0
-1.6653295 -9.6440983 -1.2016692 0
-1.6299518 -9.6317024 -1.199437 0
-1.5920849 -9.603548 -1.1952595 0
-1.5655613 -9.6438475 -1.1996151 0
-1.5350012 -9.6602602 -1.2010099 0
-1.5014046 -9.6576414 -1.2000517 0
-1.4715149 -9.6790581 -1.2020931 0
-1.4327046 -9.6412058 -1.1967887 0
-1.4071361 -9.6925516 -1.20257 0
-1.367607 -9.647666 -1.1964252 0
-1.3390684 -9.679781 -1.1998444 0
-1.3061332 -9.6807089 -1.1994098 0
-1.2734449 -9.6833353 -1.1991996 0
-1.2402015 -9.6815405 -1.1984556 0
-1.2112215 -9.7136116 -1.2019161 0
-1.1746098 -9.6843348 -1.1977994 0
-1.1448267 -9.7110634 -1.200624 0
-1.1142303 -9.732048 -1.2027497 0
-1.0808178 -9.7287407 -1.2018864 0
-1.0448385 -9.7011633 -1.1980399 0
-1.0139909 -9.7207594 -1.2000333 0
-0.97858024 -9.6962309 -1.1965935 0
-0.94722706 -9.7113705 -1.1980631 0
-0.91571641 -9.7256975 -1.1994451 0
-0.88501173 -9.7497425 -1.2020378 0
-0.85097021 -9.737236 -1.2001374 0
-0.81934071 -9.752203 -1.2016369 0
-0.78599775 -9.7469454 -1.2006576 0
-0.75090092 -9.7183008 -1.1968122 0
-0.71958315 -9.7379513 -1.1989282 0
-0.68849128 -9.7624531 -1.201654 0
-0.65315229 -9.7259388 -1.1968832 0
-0.61962444 -9.7137308 -1.1951184 0
-0.58845496 -9.7389622 -1.1979733 0
-0.55668563 -9.756423 -1.1998848 0
-0.52372301 -9.7536154 -1.1993167 0
-0.49148908 -9.7646751 -1.2004673 0
-0.45858356 -9.762785 -1.2000391 0
-0.42667946 -9.7833261 -1.2023815 0
-0.39328989 -9.7701569 -1.2005942 0
-0.35899651 -9.7298527 -1.1954868 0
-0.32638994 -9.7315331 -1.1955521 0
-0.29518127 -9.7796574 -1.201336 0
-0.26174107 -9.7563934 -1.1983638 0
-0.22927983 -9.7679338 -1.19968 0
-0.19705343 -9.7947397 -1.2028843 0
-0.16348544 -9.7519808 -1.1975592 0
-0.13088551 -9.7597485 -1.1984524 0
-0.098341554 -9.7779665 -1.2006422 0
-0.065484509 -9.7673807 -1.1993086 0
-0.032780156 -9.7807322 -1.2009279 0
1.2943382e-05 -9.7553759 -1.1978077 0
0.032801189 -9.7792645 -1.2007476 0
0.065526724 -9.7698097 -1.1996069 0
0.098051667 -9.7465715 -1.1967872 0
0.13147537 -9.8017921 -1.2036153 0
0.16394216 -9.7776766 -1.2007147 0
0.19661503 -9.7716589 -1.2000499 0
0.22947209 -9.7750187 -1.2005502 0
0.26207525 -9.7678823 -1.199775 0
0.29552391 -9.7901478 -1.2026248 0
0.32711586 -9.7524042 -1.1981163 0
0.3601056 -9.7592106 -1.1990941 0
0.39163098 -9.728303 -1.1954511 0
0.42644423 -9.7773371 -1.2016456 0
0.45845139 -9.7594185 -1.1996255 0
0.49181733 -9.7706804 -1.2012057 0
0.52339005 -9.746932 -1.1984951 0
0.5571875 -9.7647638 -1.2009107 0
0.59189397 -9.7954464 -1.2049215 0
0.62364298 -9.7763205 -1.2028192 0
0.65683448 -9.7803812 -1.2035831 0
0.68624699 -9.7302618 -1.1976918 0
0.7210533 -9.757494 -1.2013346 0
0.7537837 -9.7552729 -1.2013655 0
0.78705215 -9.7596979 -1.2022288 0
0.81713641 -9.7256565 -1.1983662 0
0.85012007 -9.727211 -1.1989021 0
0.8822853 -9.7194204 -1.1982998 0
0.91936886 -9.7642117 -1.2041954 0
0.95026875 -9.7422876 -1.2018776 0
0.97965485 -9.7066212 -1.1978761 0
1.0139599 -9.720212 -1.1999661 0
1.0497094 -9.7461452 -1.2035953 0
1.0816901 -9.7363567 -1.2028276 0
1.1113664 -9.7068062 -1.1996305 0
1.1435422 -9.6999454 -1.1992497 0
1.1741008 -9.6799221 -1.1972541 0
1.2085283 -9.691803 -1.199218 0
1.2401394 -9.6808519 -1.1983707 0
1.2759343 -9.7020655 -1.2015195 0
1.3073593 -9.6896029 -1.2005122 0
1.3401618 -9.6874952 -1.2008011 0
1.3737953 -9.6911345 -1.2018164 0
1.4026829 -9.6616974 -1.1987423 0
1.4332203 -9.6444998 -1.197198 0
1.4665416 -9.6461735 -1.1980095 0
1.4997283 -9.6466894 -1.1986914 0
1.5348994 -9.6594553 -1.2009102 0
1.5682346 -9.6601524 -1.2016438 0
1.5983479 -9.6411686 -1.1999424 0
1.6318765 -9.6429205 -1.2008345 0
1.6546084 -9.5818596 -1.1939148 0
1.6973308 -9.6364708 -1.2014217 0
1.7275376 -9.6190729 -1.1999681 0
1.7575846 -9.6012392 -1.1984718 0
1.7959552 -9.6284752 -1.2026163 0
1.8270406 -9.6161518 -1.2018355 0
1.8597478 -9.6124334 -1.2021434 0
1.8933408 -9.6131248 -1.203017 0
1.9187599 -9.5727921 -1.1987678 0
1.9559296 -9.591238 -1.2018923 0
1.9866872 -9.5779295 -1.2010525 0
2.0130301 -9.543911 -1.1976264 0
2.0496781 -9.5588427 -1.2003556 0
2.0849257 -9.5666456 -1.2022066 0
2.1113644 -9.5342026 -1.1990125 0
2.142163 -9.5219326 -1.1983659 0
2.1806214 -9.5433416 -1.2019736 0
2.2118328 -9.5326424 -1.2015533 0
2.2475822 -9.5413074 -1.2035887 0
2.2700584 -9.4939814 -1.198572 0
2.3095043 -9.5177488 -1.2025435 0
2.3369358 -9.4918098 -1.2002493 0
2.3722649 -9.4980068 -1.202032 0
2.3955412 -9.4562283 -1.1977543 0
2.424325 -9.4368248 -1.1963195 0
2.4687269 -9.4776897 -1.2025425 0
2.4924285 -9.4388313 -1.1986656 0
2.5228269 -9.4258099 -1.1980795 0
2.5622439 -9.4461584 -1.2017511 0
2.5904253 -9.4248705 -1.2001411 0
2.6214201 -9.414012 -1.1998708 0
2.6525195 -9.4035759 -1.1996675 0
2.6804783 -9.3821888 -1.1980788 0
2.7151103 -9.3841753 -1.1994882 0
2.7431307 -9.3633194 -1.1979913 0
2.772964 -9.3488607 -1.1973242 0
2.8101604 -9.3590517 -1.1998292 0
2.8405561 -9.3463936 -1.1994207 0
2.8781028 -9.3570585 -1.2020209 0
2.898577 -9.3123941 -1.197525 0
2.9354734 -9.3206911 -1.1998508 0
2.9701068 -9.3214645 -1.2012256 0
3.0005445 -9.3089762 -1.2009059 0
3.0259676 -9.2811623 -1.1986198 0
3.0602589 -9.2806396 -1.1998707 0
3.0877554 -9.2595234 -1.1984725 0
3.1124873 -9.2304468 -1.196053 0
3.147155 -9.2309208 -1.197475 0
3.1955061 -9.270854 -1.2040384 0
3.2105689 -9.2141619 -1.1980668 0
3.2413099 -9.2029638 -1.1980172 0
3.281781 -9.2191067 -1.2015442 0
3.3163707 -9.2183323 -1.2028856 0
3.338485 -9.1830254 -1.1997324 0
3.3762631 -9.1908569 -1.2022278 0
3.3962102 -9.1502552 -1.1983995 0
3.4418836 -9.1788549 -1.2036499 0
3.4657943 -9.1491938 -1.2012774 0
3.491698 -9.125103 -1.1996446 0
3.5297329 -9.1326456 -1.2021853 0
3.5562737 -9.1103601 -1.2008146 0
3.5876939 -9.1006556 -1.2011142 0
3.6135447 -9.0769157 -1.1995733 0
3.6481979 -9.0752974 -1.2009691 0
3.6749487 -9.0540066 -1.1997753 0
3.7076004 -9.047286 -1.2005253 0
3.7327807 -9.022398 -1.1988769 0
3.7620714 -9.0075846 -1.1985778 0
3.7978959 -9.0083094 -1.2003618 0
3.838124 -9.0191326 -1.2035121 0
3.8439355 -8.9493904 -1.1959188 0
3.8905568 -8.9748325 -1.2010549 0
3.9135647 -8.9455967 -1.1988918 0
3.9393709 -8.9229918 -1.1976256 0
3.9741442 -8.9206839 -1.1990975 0
4.0011082 -8.9008064 -1.1982222 0
4.0381613 -8.9032888 -1.2003722 0
4.0594254 -8.8709841 -1.1978451 0
4.1028247 -8.8869534 -1.2018522 0
4.1295137 -8.8665257 -1.2009553 0
4.1550241 -8.8437033 -1.1997442 0
4.1885576 -8.8379641 -1.2008641 0
4.2172203 -8.8218918 -1.2005947 0
4.2477808 -8.8097897 -1.2008792 0
4.2743506 -8.789444 -1.2000526 0
4.3168502 -8.8016806 -1.2036926 0
4.3292966 -8.7527075 -1.1989735 0
4.3738852 -8.7687502 -1.2031732 0
4.390574 -8.7288132 -1.1997066 0
4.4240685 -8.7224293 -1.200861 0
4.4495692 -8.7002745 -1.1998582 0
4.4758615 -8.6797752 -1.1990939 0
4.5154829 -8.6850014 -1.2019006 0
4.5509734 -8.6820164 -1.2035924 0
4.5627131 -8.6338892 -1.1990346 0
4.5827341 -8.6018362 -1.1967102 0
4.6130276 -8.5891752 -1.1970938 0
4.6428418 -8.5755854 -1.1973627 0
4.6729279 -8.5624628 -1.1977112 0
4.7068386 -8.5562525 -1.1990433 0
4.7444749 -8.5566101 -1.2013159 0
4.7658215 -8.527564 -1.1994746 0
4.7912555 -8.5059805 -1.1986914 0
4.8138585 -8.479495 -1.1972268 0
4.8475995 -8.4726372 -1.1985465 0
4.8928957 -8.4856739 -1.2027047 0
4.9108305 -8.4511709 -1.2001414 0
4.9446721 -8.444109 -1.2014861 0
4.9685092 -8.4199476 -1.2004118 0
4.9917064 -8.394824 -1.1992093 0
5.0341101 -8.4018831 -1.2026221 0
5.0504546 -8.3654165 -1.1998194 0
5.0784888 -8.3484612 -1.199823 0
5.1097736 -8.3368082 -1.2006037 0
5.1333833 -8.312644 -1.1995957 0
5.1576986 -8.2897177 -1.198776 0
5.1972842 -8.2912359 -1.2015088 0
5.2236786 -8.2715864 -1.2011925 0
5.2544837 -8.2589006 -1.2019018 0
5.2664375 -8.2167311 -1.1983279 0
5.3084002 -8.2213955 -1.2015971 0
5.3372707 -8.2056046 -1.201898 0
5.36024 -8.1807766 -1.200887 0
5.3830347 -8.1557837 -1.1998607 0
5.4133425 -8.1421919 -1.2005246 0
5.4403477 -8.1236019 -1.2004664 0
5.4871392 -8.1343508 -1.2047666 0
5.4896917 -8.0795698 -1.1993724 0
5.5047669 -8.0436087 -1.1967672 0
5.5504069 -8.0522385 -1.2008134 0
5.5724773 -8.0265322 -1.1997594 0
5.5997219 -8.0083246 -1.1998374 0
5.6353102 -8.0019569 -1.2017075 0
5.6527119 -7.9697709 -1.1997133 0
5.6745896 -7.9440379 -1.198697 0
5.6941257 -7.915144 -1.197211 0
5.7337222 -7.9140768 -1.1999507 0
5.765223 -7.901659 -1.200992 0
5.7827868 -7.8701768 -1.1991471 0
5.8182783 -7.8630919 -1.2010332 0
5.8278942 -7.8211088 -1.1975985 0
5.8648281 -7.8158431 -1.1997963 0
5.87921 -7.7805324 -1.1973951 0
5.8995328 -7.7532454 -1.196233 0
5.9467669 -7.7611837 -1.2005274 0
5.9808745 -7.7517252 -1.2021594 0
5.9813743 -7.698863 -1.1970648 0
6.0193009 -7.6942925 -1.1994853 0
6.0441036 -7.6728477 -1.1992947 0
6.0817094 -7.6675606 -1.2016487 0
6.0969191 -7.6340251 -1.19959 0
6.1206088 -7.6112127 -1.1992233 0
6.1678557 -7.6175265 -1.2034695 0
6.1800952 -7.5805316 -1.2008916 0
6.1931772 -7.544785 -1.1985115 0
6.2330298 -7.5416322 -1.2013237 0
6.2511983 -7.5121808 -1.1999643 0
6.2768822 -7.4918146 -1.200066 0
6.2871308 -7.4531412 -1.1972411 0
6.3293505 -7.4523492 -1.200516 0
6.3582211 -7.4356704 -1.2012565 0
6.3664589 -7.3949628 -1.1981218 0
6.4072561 -7.3920803 -1.2011286 0
6.4272676 -7.365128 -1.2002439 0
6.4570966 -7.3494234 -1.201206 0
6.4891768 -7.336184 -1.2025914 0
6.5158253 -7.31673 -1.2029768 0
6.5225344 -7.2750053 -1.1997055 0
6.5289063 -7.2331724 -1.1964101 0
6.5738077 -7.2340055 -1.2001868 0
6.5996752 -7.213728 -1.200487 0
6.6248474 -7.1926713 -1.2006725 0
6.644568 -7.165719 -1.1998855 0
6.6897354 -7.1660881 -1.2036964 0
6.6969914 -7.125814 -1.2006963 0
6.7094297 -7.0912552 -1.198657 0
6.7168107 -7.051548 -1.1957451 0
6.7645612 -7.0541673 -1.2000285 0
6.7985125 -7.0421557 -1.201856 0
6.810246 -7.0071406 -1.1997703 0
6.8340354 -6.9846096 -1.199829 0
6.8659453 -6.9703164 -1.2013215 0
6.898541 -6.9565992 -1.2029369 0
6.8945289 -6.9060879 -1.198193 0
6.921145 -6.886415 -1.1987991 0
6.9308362 -6.8499684 -1.196493 0
6.9846306 -6.8569946 -1.201804 0
6.994091 -6.8203826 -1.1994904 0
7.0018954 -6.7823415 -1.1969222 0
7.0604386 -6.793314 -1.2030295 0
7.0565825 -6.7441874 -1.1985128 0
7.0805569 -6.7218213 -1.1987501 0
7.1074452 -6.7021847 -1.1994913 0
7.1356025 -6.6836805 -1.2004546 0
7.1741362 -6.674758 -1.2031655 0
7.1859856 -6.6409731 -1.2014118 0
7.210052 -6.6185327 -1.2017187 0
7.206203 -6.5706148 -1.1973985 0
7.2439194 -6.5606604 -1.2000037 0
7.2629251 -6.5336819 -1.1995165 0
7.2993274 -6.522284 -1.2019103 0
7.3128581 -6.4904103 -1.2005482 0
7.3196197 -6.4526687 -1.1980997 0
7.3488541 -6.434782 -1.1993468 0
7.3665409 -6.4067612 -1.1987209 0
7.4094677 -6.400588 -1.2022073 0
7.4149137 -6.3620052 -1.1996232 0
7.4248466 -6.3274312 -1.1977912 0
7.4217677 -6.2819738 -1.19389 0
7.4820623 -6.2900724 -1.2001899 0
7.4959073 -6.2589369 -1.1990378 0
7.5296869 -6.2444153 -1.2010854 0
7.5317225 -6.2036014 -1.1980855 0
7.5797944 -6.2006588 -1.2024187 0
7.5767932 -6.1559157 -1.1986617 0
7.6102753 -6.1408749 -1.2006946 0
7.6129651 -6.1010141 -1.1978848 0
7.6388721 -6.0798283 -1.198747 0
7.6753497 -6.0669365 -1.2012725 0
7.6800351 -6.0289125 -1.1988354 0
7.7158637 -6.015336 -1.2012732 0
7.7202029 -5.9772105 -1.1988219 0
7.7542591 -5.9621024 -1.2009995 0
7.7701635 -5.9329839 -1.200375 0
7.7855859 -5.9035425 -1.199693 0
7.8294749 -5.8955827 -1.2034032 0
7.8013859 -5.8335471 -1.1960729 0
7.8471885 -5.8268776 -1.2000933 0
7.8571391 -5.793499 -1.1986376 0
7.8663874 -5.7597046 -1.1970958 0
7.9053235 -5.7475977 -1.2000816 0
7.9397445 -5.7320304 -1.2023827 0
7.9630389 -5.7083316 -1.2030052 0
7.9735785 -5.6755118 -1.2017159 0
7.9592981 -5.625236 -1.1967144 0
7.992919 -5.6089082 -1.1989353 0
8.0276852 -5.5932293 -1.2013304 0
8.0119781 -5.5424752 -1.1961923 0
8.0777912 -5.5480518 -1.2032342 0
8.0778065 -5.5082941 -1.2004788 0
8.0891933 -5.4764161 -1.1994355 0
8.1110649 -5.4516535 -1.1999615 0
8.1324472 -5.4265294 -1.2004263 0
8.1486883 -5.3979692 -1.2001455 0
8.1655102 -5.3698087 -1.1999646 0
8.1831608 -5.3422003 -1.1999195 0
8.1667223 -5.2925029 -1.1949004 0
8.2215252 -5.2889605 -1.2003174 0
8.2255077 -5.2526145 -1.198321 0
8.2567129 -5.2336526 -1.2003039 0
8.2683153 -5.202229 -1.1994483 0
8.2741051 -5.1672292 -1.1977682 0
8.2980299 -5.143579 -1.1987283 0
8.3312626 -5.1255932 -1.2010399 0
8.355011 -5.1016669 -1.2019907 0
8.3648024 -5.069222 -1.2009475 0
8.3629951 -5.0298672 -1.1982602 0
8.3965921 -5.0118146 -1.2006594 0
8.4183807 -4.9866152 -1.2013776 0
8.4206734 -4.9499092 -1.1993296 0
8.447094 -4.9274073 -1.2007329 0
8.4746294 -4.9054613 -1.2023023 0
8.4815168 -4.8715563 -1.2009554 0
8.4733267 -4.8291426 -1.1974964 0
8.4938869 -4.8032036 -1.1981194 0
8.5005751 -4.7694416 -1.1968004 0
8.5196915 -4.7426805 -1.1972463 0
8.5597496 -4.727457 -1.2006414 0
8.5705957 -4.6960158 -1.1999475 0
8.5797129 -4.6636772 -1.199028 0
8.5963297 -4.6354399 -1.1991715 0
8.618926 -4.6103911 -1.2001605 0
8.6114635 -4.5693316 -1.1969814 0
8.638732 -4.5467472 -1.1986459 0
8.6585169 -4.5201535 -1.1992817 0
8.6547976 -4.4813499 -1.1966786 0
8.6791334 -4.4571133 -1.1979705 0
8.7041826 -4.4331603 -1.1993697 0
8.7349319 -4.4120002 -1.2015616 0
8.7448292 -4.3802619 -1.200896 0
8.7696009 -4.3559513 -1.2022855 0
8.7541027 -4.3117213 -1.198172 0
8.767107 -4.2816615 -1.1979804 0
8.7836571 -4.2533293 -1.1982864 0
8.8135443 -4.2313814 -1.2004216 0
8.846549 -4.2107878 -1.2029872 0
8.8422775 -4.1724491 -1.2004972 0
8.8704176 -4.1494222 -1.2024223 0
8.8583555 -4.1076369 -1.1989135 0
8.8796978 -4.0814157 -1.1999432 0
8.8963795 -4.053009 -1.2003543 0
8.8838701 -4.0113964 -1.1968451 0
5.1445394 -2.3022161 -0.69203442 0
5.1460047 -2.2821939 -0.69119835 0
5.1261034 -2.252831 -0.68750679 0
5.1628489 -2.2483571 -0.6914202 0
5.1318736 -2.2144279 -0.68627375 0
5.1519203 -2.2026181 -0.68796307 0
5.1582084 -2.18488 -0.68782067 0
5.1243663 -2.1503103 -0.68234277 0
5.1442003 -2.1383772 -0.68402529 0
5.1522264 -2.1214821 -0.68414289 0
5.1449928 -2.0983565 -0.6822443 0
5.1864972 -2.0950296 -0.68681264 0
5.209868 -2.0841794 -0.68897825 0
5.2441235 -2.0775139 -0.69258326 0
5.3171339 -2.0858397 -0.70129812 0
5.3908081 -2.0939126 -0.71008533 0
5.4162374 -2.0829175 -0.712511 0
5.4367018 -2.0698903 -0.71428615 0
9.1531572 -3.4497466 -1.2010361 0
9.1597033 -3.4171846 -1.200385 0
9.1734695 -3.3873265 -1.2006938 0
9.1879005 -3.3576925 -1.2011025 0
9.1593571 -3.3124928 -1.1959124 0
9.2094746 -3.2957437 -1.2010067 0
9.2354259 -3.2701423 -1.2029543 0
9.2344055 -3.2349792 -1.2014019 0
9.2355299 -3.2006485 -1.2001452 0
9.2358322 -3.1661084 -1.1987984 0
9.2176266 -3.12537 -1.1950685 0
9.2663889 -3.1073024 -1.2000329 0
9.2937374 -3.0818479 -1.2022299 0
9.287468 -3.045244 -1.2000914 0
9.306675 -3.0170209 -1.2012593 0
9.3157368 -2.9854798 -1.2011303 0
9.3142643 -2.9506083 -1.199658 0
9.3330708 -2.9221699 -1.2008116 0
9.326869 -2.8859272 -1.1987621 0
9.3238535 -2.8507755 -1.1971393 0
9.3420362 -2.8221197 -1.1982523 0
9.3635187 -2.7943847 -1.1997992 0
9.3720798 -2.7627523 -1.1997026 0
9.3705559 -2.7281885 -1.1983297 0
9.396553 -2.7016151 -1.2004892 0
9.4288235 -2.6766999 -1.2034588 0
9.4247952 -2.6414423 -1.2018075 0
9.4272051 -2.6080592 -1.2009931 0
9.4042091 -2.5677848 -1.1969599 0
9.4597082 -2.5488884 -1.2029293 0
9.4507771 -2.5125251 -1.2007155 0
9.4534979 -2.4793425 -1.1999983 0
9.4877005 -2.454344 -1.2032886 0
9.4606352 -2.4135294 -1.198823 0
9.4921551 -2.3877025 -1.2017958 0
9.4804611 -2.3509917 -1.1993105 0
9.4818907 -2.3176281 -1.1985016 0
9.4969082 -2.2875824 -1.1994236 0
9.5386429 -2.2638257 -1.2037292 0
9.5492754 -2.2325554 -1.2041196 0
9.5263376 -2.1935332 -1.2002931 0
9.5289574 -2.1605196 -1.1997038 0
9.5359888 -2.1285231 -1.1996837 0
9.5193081 -2.0913181 -1.1966963 0
9.555788 -2.0657718 -1.2004049 0
9.5791941 -2.0372379 -1.2024804 0
9.5529528 -1.9982027 -1.1983385 0
9.5827417 -1.9709221 -1.2012396 0
9.554143 -1.9316747 -1.1968361 0
9.5877924 -1.9050404 -1.2002444 0
9.5755234 -1.8692521 -1.1979172 0
9.617897 -1.8440697 -1.2024379 0
9.6009979 -1.8074774 -1.1995609 0
9.6291399 -1.7793672 -1.2023247 0
9.5948715 -1.7397869 -1.1973108 0
9.6231585 -1.7116107 -1.2001178 0
9.6415377 -1.6815504 -1.2017001 0
9.6525831 -1.6501483 -1.2023804 0
9.6278591 -1.6127168 -1.1986203 0
9.662035 -1.585156 -1.2022066 0
9.6464491 -1.5494038 -1.1996143 0
9.6548662 -1.5175674 -1.2000215 0
9.6373873 -1.4817266 -1.1972249 0
9.6659822 -1.4529656 -1.2001652 0
9.6397085 -1.4159822 -1.1963067 0
9.6716013 -1.3875563 -1.1996806 0
9.6732817 -1.3547131 -1.1993189 0
9.6789446 -1.3224332 -1.1994646 0
9.6988182 -1.2920382 -1.2013837 0
9.7057276 -1.2598543 -1.2017096 0
9.6827831 -1.2238785 -1.1983539 0
9.728219 -1.1964974 -1.2034739 0
9.6916981 -1.1590331 -1.1984684 0
9.7068806 -1.127851 -1.1998714 0
9.6879473 -1.0927434 -1.1970716 0
9.729125 -1.0643653 -1.2017119 0
9.6877451 -1.0269804 -1.1961688 0
9.7322865 -0.99871635 -1.201248 0
9.7020311 -0.96275115 -1.1971086 0
9.7287197 -0.93247056 -1.2000092 0
9.721076 -0.89885587 -1.1986878 0
9.7452478 -0.86814761 -1.2013028 0
9.7325926 -0.83413941 -1.1993912 0
9.7300386 -0.80106711 -1.1987387 0
9.7297802 -0.76821154 -1.1983829 0
9.7305975 -0.73545635 -1.1981732 0
9.7448406 -0.70368177 -1.1996297 0
9.7400036 -0.67051357 -1.1987507 0
9.7328701 -0.63724273 -1.1976031 0
9.7553825 -0.60587555 -1.2001165 0
9.7180147 -0.57085299 -1.1952773 0
9.779892 -0.54159081 -1.2026578 0
9.7627735 -0.5078156 -1.2003366 0
9.7866354 -0.47616085 -1.2030674 0
9.7446995 -0.44137615 -1.1977236 0
9.7414141 -0.40850401 -1.1971447 0
9.7738886 -0.37704262 -1.2009734 0
9.7505436 -0.34340569 -1.1979567 0
9.7744856 -0.31143996 -1.2007631 0
9.7654743 -0.27838114 -1.1995348 0
9.7611895 -0.24550791 -1.1989007 0
9.7457447 -0.21242571 -1.1969094 0
9.7765465 -0.18030481 -1.2006114 0
9.801301 -0.14789011 -1.2035837 0
9.7835951 -0.11481439 -1.2013553 0
9.7498446 -0.08172553 -1.1971706 0
9.760479 -0.049088068 -1.1984495 0
9.7597923 -0.016361417 -1.1983517 0
9.7929564 0.016417013 -1.2024238 0
9.7644196 0.049107891 -1.1989334 0
9.782711 0.082001038 -1.2012063 0
9.7668219 0.11461756 -1.1992958 0
9.7697439 0.14741394 -1.1997085 0
9.7703867 0.1801912 -1.1998549 0
9.7717772 0.21299313 -1.2001066 0
9.7634563 0.24556492 -1.1991791 0
9.7915068 0.27912322 -1.2027324 0
9.7728577 0.31138811 -1.2005632 0
9.8126507 0.34559307 -1.2055871 0
9.7279034 0.37526864 -1.195323 0
9.7549629 0.40907216 -1.1988097 0
9.7796288 0.44295824 -1.2020167 0
9.7597094 0.47485074 -1.1997573 0
9.780777 0.50875205 -1.2025502 0
9.7694273 0.54101127 -1.201371 0
9.7705021 0.57393622 -1.201733 0
9.7577133 0.60602033 -1.2004032 0
9.7361927 0.63746023 -1.1980119 0
9.7596159 0.67186368 -1.2011645 0
9.7424459 0.70350879 -1.1993349 0
9.7464037 0.736651 -1.2001194 0
9.7518883 0.76995701 -1.2011058 0
9.7413549 0.80199885 -1.200133 0
9.7672443 0.83710927 -1.2036616 0
9.7414665 0.86781079 -1.2008367 0
9.7477808 0.90132517 -1.2019808 0
9.7087317 0.93055469 -1.1975436 0
9.7298298 0.96550965 -1.2005386 0
9.7201958 0.99747574 -1.1997559 0
9.7327671 1.0317531 -1.2017277 0
9.702179 1.0614175 -1.1983836 0
9.7171516 1.0960374 -1.2006801 0
9.7136097 1.1286329 -1.2007033 0
9.7211094 1.1625503 -1.2021054 0
9.684701 1.1911451 -1.1980902 0
9.6906395 1.2248715 -1.1993262 0
9.7062845 1.2599266 -1.2017785 0
9.7080593 1.2932693 -1.2025285 0
9.6794672 1.3225046 -1.1995292 0
9.680234 1.3556867 -1.2001809 0
9.6608953 1.3860205 -1.1983526 0
9.6739149 1.4210068 -1.2005517 0
9.6684561 1.4533376 -1.2004724 0
9.662075 1.4855224 -1.2002918 0
9.6853275 1.5223553 -1.2038076 0
9.6500807 1.5499871 -1.2000659 0
9.6438408 1.582171 -1.1999428 0
9.6492186 1.6162946 -1.2012795 0
9.6294441 1.6461927 -1.1994981 0
9.618598 1.6775495 -1.1988409 0
9.6194353 1.7109485 -1.1996535 0
9.6259441 1.7454211 -1.2011882 0
9.6223822 1.7781184 -1.201481 0
9.5836401 1.8042095 -1.1973922 0
9.61028 1.8426094 -1.2014858 0
9.5954409 1.8731403 -1.2004089 0
9.5793476 1.9033624 -1.1991873 0
9.5682821 1.9345334 -1.1986073 0
9.5531216 1.96483 -1.1975266 0
9.5681314 2.0013778 -1.2002426 0
9.5526085 2.0315838 -1.1991431 0
9.5376463 2.0618501 -1.198126 0
9.5174494 2.0909097 -1.1964626 0
9.5529003 2.132298 -1.2018113 0
9.5325594 2.1613362 -1.2001573 0
9.5348368 2.1954901 -1.2013639 0
9.5378647 2.2298877 -1.2026807 0
9.5284605 2.2614093 -1.2024443 0
9.4932089 2.2866914 -1.1989565 0
9.5028038 2.3227398 -1.2011451 0
9.4977846 2.3552878 -1.2015021 0
9.4793224 2.3844745 -1.2001711 0
9.4487448 2.4104958 -1.1973162 0
9.4505892 2.4447436 -1.1985818 0
9.4764433 2.4853604 -1.202911 0
9.455842 2.5138717 -1.2013589 0
9.4523582 2.5469079 -1.2019945 0
9.4057188 2.568197 -1.197152 0
9.4296284 2.6087296 -1.2013017 0
9.4213495 2.6404765 -1.201368 0
9.4095745 2.6712353 -1.2010019 0
9.4249821 2.7097888 -1.2041212 0
9.3783131 2.7304468 -1.1993217 0
9.3682575 2.7616255 -1.1992133 0
9.3600941 2.7933624 -1.1993604 0
9.3457069 2.8232286 -1.1987231 0
9.3414974 2.8561699 -1.1994046 0
9.3252325 2.885421 -1.1985518 0
9.3161211 2.9168632 -1.1986309 0
9.3113956 2.9496996 -1.1992887 0
9.2888584 2.9768658 -1.1976646 0
9.3044796 3.0163097 -1.200976 0
9.2819128 3.0434225 -1.1993735 0
9.2661476 3.0726988 -1.1986609 0
9.2732601 3.1096067 -1.200923 0
9.2559834 3.1383753 -1.2000414 0
4.7480497 1.6276649 -0.61629039 0
4.6684952 1.6179053 -0.60666502 0
4.6591067 1.6321692 -0.60615265 0
4.5687747 1.6177429 -0.59510279 0
4.5596509 1.6317371 -0.59462363 0
4.4940524 1.6252797 -0.58677626 0
4.4416552 1.6231905 -0.58064222 0
4.4676247 1.6496814 -0.58475691 0
4.4513888 1.6606671 -0.58335733 0
4.4353762 1.6716552 -0.58199006 0
4.4503846 1.6943744 -0.5847016 0
4.4413166 1.7079931 -0.58425927 0
4.4310522 1.7211217 -0.58366489 0
2.08847 0.81927854 -0.2754567 0
2.0836835 0.82547283 -0.27518886 0
2.0961204 0.83854151 -0.27720112 0
2.0400317 0.8240487 -0.27014753 0
2.0600526 0.84018087 -0.27317029 0
4.4316483 1.8247766 -0.58846027 0
9.0386505 3.7572494 -1.2018712 0
9.0278225 3.7882967 -1.2021134 0
9.0170403 3.8193786 -1.2023761 0
8.9739819 3.8366771 -1.1983432 0
8.9666548 3.8691545 -1.1990902 0
8.9592094 3.9016252 -1.1998372 0
8.9441347 3.9307878 -1.1995766 0
8.9655352 3.9761117 -1.2042279 0
8.9074564 3.9861469 -1.1982154 0
8.9080448 4.0223126 -1.200102 0
8.9038038 4.0563917 -1.2013562 0
8.9026384 4.09196 -1.2030432 0
8.8720484 4.113986 -1.2007667 0
8.8416834 4.1359811 -1.1985271 0
8.8418436 4.1722445 -1.2004384 0
8.8226681 4.1994209 -1.1997397 0
8.8055067 4.2275224 -1.1993268 0
8.8091202 4.2656593 -1.2017602 0
8.7911835 4.2934194 -1.2012702 0
8.7720394 4.3205562 -1.2006271 0
8.7492113 4.3458233 -1.1994901 0
8.7235355 4.3695955 -1.1979718 0
8.7107992 4.3998113 -1.1982419 0
8.7088089 4.4355164 -1.2000071 0
8.7081671 4.472023 -1.2019778 0
8.6650267 4.4866467 -1.1980931 0
8.6340942 4.5074039 -1.1958989 0
8.6639223 4.5600052 -1.2021412 0
8.6363544 4.5825391 -1.2004412 0
8.6062994 4.6036367 -1.1984023 0
8.6084557 4.6419783 -1.200863 0
8.5999584 4.6746821 -1.2018573 0
8.5630312 4.6918712 -1.1988884 0
8.5615005 4.7284241 -1.200887 0
8.5428886 4.7555938 -1.2005061 0
8.5212669 4.7810516 -1.1997137 0
8.4825296 4.7967811 -1.1965172 0
8.4928007 4.840241 -1.2002485 0
8.4746904 4.8676357 -1.1999888 0
8.4965734 4.9181633 -1.2054156 0
8.4373045 4.9216967 -1.1993414 0
8.4395676 4.9610162 -1.2020208 0
8.4401312 4.9994993 -1.2044816 0
8.3904581 5.0081534 -1.1997824 0
8.3766212 5.0380626 -1.2002125 0
8.3352032 5.0512843 -1.1966978 0
8.3561897 5.1023865 -1.2021604 0
8.3340883 5.1273313 -1.2014472 0
8.3078413 5.1496606 -1.2001457 0
8.2800217 5.1709247 -1.1986247 0
8.2653923 5.2003894 -1.1990242 0
8.250618 5.2297893 -1.1994179 0
8.2402554 5.2620325 -1.2004696 0
8.2334061 5.2966037 -1.202052 0
8.1989136 5.3133645 -1.1996105 0
8.2135735 5.3620543 -1.2043791 0
8.1647167 5.3692865 -1.1998479 0
8.15273 5.4006467 -1.2007407 0
8.1377535 5.4300704 -1.2012097 0
8.1058512 5.4481492 -1.1991901 0
8.0978136 5.4822521 -1.2007136 0
8.0647554 5.4993944 -1.1985391 0
8.0548582 5.5323005 -1.1998183 0
8.0237713 5.5506334 -1.197953 0
8.0485497 5.6077662 -1.2044528 0
7.986022 5.6040683 -1.1979008 0
7.976831 5.6376276 -1.1993506 0
7.9678135 5.6714082 -1.200847 0
7.9509974 5.6996994 -1.2011861 0
7.9175019 5.7159724 -1.1990143 0
7.9177117 5.7566047 -1.2019622 0
7.8770804 5.7675333 -1.198723 0
7.8566751 5.7931566 -1.1985668 0
7.8630366 5.8386455 -1.2025169 0
7.8416429 5.8636494 -1.2022449 0
7.8031406 5.8757529 -1.1993556 0
7.7923341 5.9086595 -1.2007328 0
7.7685437 5.931747 -1.2001247 0
7.7601285 5.9666147 -1.2019085 0
7.7145829 5.9728594 -1.1979492 0
7.6870437 5.9928675 -1.1967862 0
7.7047367 6.0483036 -1.2026913 0
7.6625371 6.0568089 -1.1992673 0
7.6369147 6.07827 -1.1984398 0
7.6072125 6.0964041 -1.1969798 0
7.6032643 6.1352172 -1.1995884 0
7.5723014 6.152266 -1.197951 0
7.5666609 6.1899147 -1.2003353 0
7.5397024 6.2101741 -1.1993549 0
7.5294561 6.2442236 -1.2010486 0
7.5068173 6.2680464 -1.200783 0
7.4688115 6.2789326 -1.1980643 0
7.4780097 6.3295789 -1.2029372 0
7.4215889 6.3246546 -1.1972656 0
7.3950577 6.3449688 -1.1964108 0
7.3860588 6.3803663 -1.1984091 0
7.3990431 6.4350286 -1.2040098 0
7.3739424 6.4567494 -1.2034413 0
7.3352532 6.4664507 -1.2006587 0
7.3056593 6.4840217 -1.1993665 0
7.277472 6.5027547 -1.1983114 0
7.2607265 6.5317044 -1.1991534 0
7.243876 6.5606213 -1.1999966 0
7.209693 6.5737972 -1.1979784 0
7.1912465 6.6012692 -1.1985842 0
7.1903811 6.6450353 -1.2021466 0
7.1547823 6.6567512 -1.1999197 0
7.1411533 6.68888 -1.2013885 0
7.1026564 6.697669 -1.198683 0
7.0993748 6.7396855 -1.201936 0
7.0358324 6.7243562 -1.1949885 0
7.0586634 6.7916059 -1.202727 0
7.0123758 6.7924933 -1.1987138 0
7.0236034 6.8491621 -1.2045518 0
6.9552979 6.828198 -1.196757 0
6.9424033 6.8614006 -1.1984899 0
6.9353681 6.9005666 -1.2012627 0
6.8856344 6.8971782 -1.1966472 0
6.8766336 6.9345078 -1.1991168 0
6.8710871 6.9755368 -1.2022212 0
6.8127437 6.9628487 -1.1960908 0
6.8087049 7.0055547 -1.1994988 0
6.7862425 7.0294461 -1.1996869 0
6.7757449 7.0658298 -1.2020124 0
6.747633 7.0839062 -1.2012321 0
6.7179732 7.1002846 -1.2001833 0
6.6988006 7.127739 -1.2010207 0
6.6737833 7.1490006 -1.2008262 0
6.6558709 7.1779084 -1.2019267 0
6.6201658 7.1875877 -1.199824 0
6.5898123 7.2029476 -1.198693 0
6.5823865 7.2434459 -1.2017531 0
6.5450048 7.2510076 -1.1993601 0
6.5314546 7.2849541 -1.2013462 0
6.5031719 7.3025217 -1.2006408 0
6.4810386 7.3269835 -1.2010832 0
6.4404178 7.3304396 -1.1981033 0
6.4201145 7.3569317 -1.1989082 0
6.4006062 7.384408 -1.1998819 0
6.3730507 7.4026194 -1.1993624 0
6.339488 7.413763 -1.1977173 0
6.3225188 7.4443059 -1.1992202 0
6.2962995 7.4640102 -1.198987 0
6.2724571 7.4865327 -1.1992199 0
6.2424636 7.5016842 -1.1982876 0
6.2224822 7.5288701 -1.1992909 0
6.2079782 7.5628161 -1.2013758 0
6.1798468 7.5802264 -1.2008433 0
6.1412497 7.5846667 -1.1982782 0
6.1202364 7.6107492 -1.1991502 0
6.0919194 7.6277647 -1.1986063 0
6.0698843 7.6526518 -1.1993122 0
6.0379324 7.6650138 -1.1980702 0
6.0274396 7.7046962 -1.2011071 0
6.0040445 7.7280421 -1.2016017 0
5.9735732 7.7422619 -1.2006918 0
5.9371443 7.7486258 -1.1985849 0
5.9125242 7.770319 -1.1988673 0
5.8922591 7.7978015 -1.2000527 0
5.8713369 7.8245173 -1.2011279 0
5.8381319 7.8348475 -1.1997021 0
5.8152566 7.8590088 -1.2004095 0
5.7869139 7.8757935 -1.2000029 0
5.7505865 7.8815989 -1.197943 0
5.7457571 7.9306879 -1.2024693 0
5.7069178 7.9329257 -1.1999006 0
5.6739702 7.9431705 -1.1985661 0
5.6653457 7.9875832 -1.2023947 0
5.625989 7.9887209 -1.1997197 0
5.5854759 7.9879518 -1.196785 0
5.5808368 8.0385733 -1.2015592 0
5.5501204 8.0518236 -1.2007514 0
5.5287399 8.0786381 -1.201979 0
5.4942679 8.0863047 -1.2003723 0
5.4670682 8.1045961 -1.2003598 0
5.4499884 8.1379986 -1.2025938 0
5.4119267 8.1400623 -1.2002106 0
5.3878446 8.1630707 -1.2009329 0
5.3544264 8.1719036 -1.1995845 0
5.3230748 8.1837797 -1.1987011 0
5.3118052 8.2266693 -1.2023679 0
5.2861619 8.2475052 -1.202816 0
5.2362266 8.2302046 -1.1977258 0
5.2171044 8.2611761 -1.1996807 0
5.1833062 8.2689371 -1.1982774 0
5.1659808 8.30303 -1.200701 0
5.1449833 8.3314285 -1.2023064 0
5.1181765 8.3505173 -1.2025781 0
5.077611 8.3470182 -1.1996156 0
5.0641632 8.3881235 -1.2030762 0
5.0191345 8.3768892 -1.1990445 0
4.9952841 8.4008408 -1.2000688 0
4.9612694 8.4076786 -1.1986626 0
4.9308977 8.4205866 -1.1981392 0
4.9084454 8.4470663 -1.1995586 0
4.8833365 8.4690952 -1.2003551 0
4.8588686 8.4923334 -1.2013328 0
4.8319592 8.5113783 -1.2017285 0
4.7863965 8.4973545 -1.1974758 0
4.7587948 8.5149918 -1.1977061 0
4.7425427 8.5531244 -1.2008265 0
4.7127366 8.5669737 -1.2005457 0
4.6703062 8.5576591 -1.1970392 0
4.6627269 8.6123152 -1.202491 0
4.64013 8.6396389 -1.2041271 0
4.6008334 8.635808 -1.2014365 0
4.5590754 8.6270056 -1.1980785 0
4.5422087 8.6652956 -1.2012744 0
4.5112038 8.6767712 -1.2007617 0
4.4740686 8.6762981 -1.1986135 0
4.44628 8.6938438 -1.1989713 0
4.416069 8.7066584 -1.1986897 0
4.3981881 8.7439518 -1.2017871 0
4.3659382 8.7528181 -1.2009871 0
4.3392134 8.7727566 -1.20172 0
4.2965603 8.7603111 -1.1980351 0
4.2777309 8.7963963 -1.2010018 0
4.2400723 8.7938023 -1.1986998 0
4.2097936 8.8063564 -1.1984804 0
4.1864491 8.8335152 -1.2002594 0
4.1575141 8.8490038 -1.2004633 0
4.1205511 8.8472824 -1.1983488 0
4.0901837 8.8595724 -1.1981492 0
4.0739241 8.902668 -1.2021234 0
4.0397301 8.9067478 -1.2008386 0
4.0027413 8.904439 -1.1987113 0
3.9727361 8.9175234 -1.1986727 0
3.9530199 8.953908 -1.2017751 0
3.9195387 8.9592524 -1.2007219 0
3.9005198 8.9978151 -1.2041306 0
3.8542919 8.9735022 -1.1991409 0
3.8331618 9.007472 -1.201956 0
3.8042541 9.0233898 -1.2023715 0
3.759599 9.0016642 -1.19779 0
3.7402153 9.0403671 -1.2012646 0
3.7015238 9.0324574 -1.1985577 0
3.6754508 9.0552435 -1.1999394 0
3.6479337 9.0746403 -1.2008822 0
3.6112118 9.0710554 -1.1987988 0
3.5899386 9.1063499 -1.2018657 0
3.553797 9.1040163 -1.1999784 0
3.5252705 9.1210995 -1.2006655 0
3.5017934 9.1514854 -1.203113 0
3.4586401 9.1303082 -1.1987976 0
3.4289823 9.1444492 -1.1991382 0
3.3978484 9.1546688 -1.1989776 0
3.3694377 9.1722775 -1.1997974 0
3.3437216 9.1974297 -1.2016143 0
3.3133991 9.2100716 -1.2018077 0
3.2804549 9.2153816 -1.2010587 0
3.2531195 9.2364941 -1.2023821 0
3.2186549 9.2373676 -1.2010843 0
3.1831565 9.2350254 -1.1993852 0
3.1534781 9.2494678 -1.199881 0
3.1241252 9.2649603 -1.2005252 0
3.0863848 9.255414 -1.1979405 0
3.0609589 9.2827625 -1.2001451 0
3.0338936 9.3054724 -1.2017595 0
3.0059073 9.325614 -1.2030523 0
2.9704607 9.3225746 -1.2013687 0
2.9301262 9.3037119 -1.1976651 0
