# .PCD v0.7 - Point Cloud Data file format
VERSION 0.7
FIELDS x y z intensity
SIZE 4 4 4 4
TYPE F F F F
COUNT 1 1 1 1
WIDTH 1398
HEIGHT 1
VIEWPOINT 0 0 0 1 0 0 0
POINTS 1398
DATA ascii
2.1551638 3.9490252 -1.2054578 0
2.1419528 3.9563055 -1.2054812 0
2.1288123 3.9637187 -1.2055583 0
2.0977407 3.9374793 -1.1954317 0
2.0934024 3.9612846 -1.2005215 0
2.0725515 3.9538629 -1.1961595 0
2.0687501 3.9789982 -1.2016585 0
2.0440004 3.9638097 -1.1949952 0
2.0474818 4.0034561 -1.2048713 0
2.0282848 3.9989371 -1.2014579 0
2.0201995 4.0163193 -1.2046384 0
1.9989741 4.0075364 -1.1999871 0
1.9829533 4.0090141 -1.1984321 0
1.9653246 4.0071254 -1.195891 0
1.957096 4.0244212 -1.1990877 0
1.9490041 4.0421848 -1.2024267 0
1.9252707 4.0274234 -1.1961086 0
1.9189668 4.0490689 -1.2006196 0
1.8962626 4.0360742 -1.1948744 0
1.8845934 4.046432 -1.1960635 0
1.8825167 4.0776396 -1.2034156 0
1.8749626 4.0973196 -1.2073616 0
1.8458824 4.0697789 -1.1974158 0
1.8440509 4.1022487 -1.2051431 0
1.822946 4.0919313 -1.2003099 0
1.796682 4.0696292 -1.1919941 0
1.8030454 4.1213875 -1.2053767 0
1.7812159 4.1089525 -1.1999863 0
1.7710023 4.12322 -1.2024122 0
1.7489475 4.1098175 -1.1967871 0
1.7444448 4.1376853 -1.2031922 0
1.7298323 4.1417632 -1.2026849 0
1.7169029 4.1498771 -1.2033625 0
1.6956238 4.1376605 -1.1981648 0
1.689203 4.1617055 -1.2034808 0
1.6784765 4.1753964 -1.2058058 0
1.6471213 4.1374283 -1.1932395 0
1.6441331 4.1705589 -1.2011979 0
1.6281008 4.1708221 -1.1996946 0
1.6169083 4.1835036 -1.2017763 0
1.6048212 4.1939936 -1.2032372 0
1.5894034 4.1957941 -1.2022182 0
1.5703974 4.1879539 -1.1984563 0
1.5484802 4.1720004 -1.1923984 0
1.5440364 4.2031732 -1.1998216 0
1.5326515 4.2157979 -1.2019519 0
1.5201414 4.2254529 -1.2032446 0
1.5089879 4.2390156 -1.2056593 0
1.4911795 4.2338657 -1.2027658 0
1.4787709 4.2439938 -1.2042277 0
1.461706 4.2407255 -1.201903 0
1.4445885 4.237123 -1.1995025 0
1.4360435 4.2587557 -1.2042568 0
1.4249489 4.2731199 -1.2069608 0
1.4117196 4.2812262 -1.2079067 0
1.38263 4.2407632 -1.1951759 0
1.375369 4.2669845 -1.2012594 0
1.3611573 4.2718935 -1.2013499 0
1.3411386 4.2583723 -1.1962761 0
1.3367864 4.2947564 -1.2052314 0
1.3106389 4.2610445 -1.194531 0
1.3090917 4.3073554 -1.2062764 0
1.2823188 4.2706771 -1.1947939 0
1.2744576 4.2967482 -1.2008855 0
1.2549214 4.2835107 -1.1960031 0
1.2454628 4.3046651 -1.200737 0
1.2344756 4.3209014 -1.2041047 0
1.2074785 4.2806911 -1.1917644 0
1.2013155 4.3141494 -1.1999513 0
1.1902341 4.3304863 -1.2033784 0
1.1685666 4.3081241 -1.1960689 0
1.1595764 4.3324203 -1.2017281 0
1.142949 4.3283496 -1.1995293 0
1.1298243 4.3375087 -1.2010109 0
1.1138643 4.3357811 -1.1994919 0
1.0997065 4.341013 -1.1999124 0
1.0856409 4.3466582 -1.20046 0
1.0729432 4.3579173 -1.2025692 0
1.0573999 4.3576741 -1.201517 0
1.0398428 4.348896 -1.1981287 0
1.0236846 4.3456879 -1.1962925 0
1.0174429 4.385015 -1.2061727 0
0.99921876 4.373013 -1.201943 0
0.9806264 4.3588924 -1.1971515 0
0.96976274 4.3791184 -1.2018068 0
0.95294333 4.3725643 -1.1991245 0
0.93531072 4.3618984 -1.1953329 0
0.92593658 4.3899279 -1.2021564 0
0.91004527 4.3873792 -1.2006161 0
0.89444357 4.3860583 -1.1994274 0
0.88200474 4.4003668 -1.2025247 0
0.86588037 4.3963647 -1.2006309 0
0.85187745 4.4030786 -1.2016778 0
0.83637452 4.4020395 -1.200622 0
0.81828886 4.3870101 -1.1957679 0
0.8125158 4.4385681 -1.2090716 0
0.7922979 4.4115801 -1.2009897 0
0.77586168 4.4048977 -1.1984557 0
0.76310831 4.4191704 -1.2016361 0
0.74642795 4.410717 -1.1986501 0
0.73882878 4.4565849 -1.2104352 0
0.7146244 4.4020076 -1.1949542 0
0.70272487 4.4224 -1.1998435 0
0.68534309 4.4083266 -1.1953951 0
0.67275906 4.4250708 -1.1993171 0
0.66118568 4.449285 -1.2052723 0
0.64731532 4.4587159 -1.2072324 0
0.62870705 4.4350753 -1.200254 0
0.61651731 4.4565578 -1.2055016 0
0.59863728 4.4368501 -1.199621 0
0.58591783 4.4552555 -1.2040595 0
0.56804228 4.4342866 -1.197871 0
0.55080938 4.4172206 -1.1927552 0
0.53907317 4.4444113 -1.1996025 0
0.52436167 4.4478292 -1.2000438 0
0.51169109 4.4691706 -1.2053323 0
0.49215266 4.4298954 -1.1942879 0
0.48166496 4.4720726 -1.2052166 0
0.46444809 4.4523792 -1.1994829 0
0.44980949 4.4568048 -1.2002621 0
0.4345305 4.4548669 -1.1993412 0
0.42045805 4.4654999 -1.2018174 0
0.40588307 4.4712839 -1.203001 0
0.39219582 4.4875679 -1.2070217 0
0.37539059 4.4679446 -1.2013984 0
0.35920396 4.4542437 -1.1973838 0
0.34457663 4.4594212 -1.1984583 0
0.33070862 4.4752412 -1.2024051 0
0.31457454 4.4603367 -1.1981105 0
0.30088723 4.4802637 -1.2031854 0
0.2850785 4.4689331 -1.1998791 0
0.26995933 4.4676447 -1.1992834 0
0.25578493 4.482655 -1.2030758 0
0.2388566 4.448153 -1.1935942 0
0.2245602 4.4612212 -1.1968923 0
0.20967984 4.4636211 -1.1973407 0
0.19658275 4.5071683 -1.2088383 0
0.17981137 4.4666018 -1.1977899 0
0.16522177 4.4776697 -1.2006027 0
0.15057036 4.4889998 -1.2034985 0
0.13522691 4.4798117 -1.2009068 0
0.11986098 4.4673738 -1.197458 0
0.10545669 4.492229 -1.204019 0
0.089823909 4.4641991 -1.1964188 0
0.075151853 4.4821324 -1.2011508 0
0.060040377 4.4761486 -1.1994865 0
0.045337968 4.5067029 -1.2076267 0
0.030144576 4.494453 -1.2043103 0
0.015043389 4.4849987 -1.2017567 0
5.9433164e-06 4.4794536 -1.2002641 0
-0.014976354 4.4685483 -1.1973488 0
-0.030063726 4.4841723 -1.2015556 0
-0.045112595 4.4854836 -1.2019407 0
-0.059799295 4.4590578 -1.1949065 0
-0.075691007 4.5150032 -1.2099595 0
-0.090311818 4.4890399 -1.2030761 0
-0.10481261 4.4652977 -1.1968006 0
-0.12004698 4.4747486 -1.1994349 0
-0.13537924 4.4852524 -1.2023653 0
-0.14938362 4.4539723 -1.1941074 0
-0.16507533 4.4740233 -1.1996248 0
-0.18115933 4.5003824 -1.2068486 0
-0.19520815 4.4759245 -1.2004586 0
-0.21034721 4.4780812 -1.2012194 0
-0.22592989 4.4886694 -1.2042561 0
-0.24031384 4.4755125 -1.2009356 0
-0.25602025 4.4869885 -1.2042385 0
-0.27250332 4.5099449 -1.2106382 0
-0.28360945 4.4460897 -1.1937456 0
-0.30009326 4.4686189 -1.2000579 0
-0.31638238 4.4861398 -1.2050413 0
-0.32789004 4.4372592 -1.1921999 0
-0.34427774 4.4557071 -1.1974598 0
-0.35892156 4.4508891 -1.1964817 0
-0.37416923 4.4535494 -1.1975274 0
-0.38956407 4.4575911 -1.1989585 0
-0.40686461 4.4822288 -1.2059456 0
-0.42079687 4.4692254 -1.2028198 0
-0.43246335 4.4337964 -1.1936681 0
-0.44948408 4.4536986 -1.1994252 0
-0.46317643 4.4403028 -1.1962291 0
-0.47997448 4.4564881 -1.2010163 0
-0.49599054 4.4645481 -1.2036299 0
-0.50978631 4.4526391 -1.2008733 0
-0.52462554 4.4501686 -1.2006747 0
-0.53935295 4.4468164 -1.2002513 0
-0.55521792 4.4526711 -1.2023274 0
-0.56723094 4.4280457 -1.1961848 0
-0.58276957 4.4314075 -1.1976138 0
-0.59721047 4.4263639 -1.1967852 0
-0.61015809 4.410676 -1.19309 0
-0.62474823 4.4072328 -1.1927185 0
-0.64501053 4.4429235 -1.202956 0
-0.65895379 4.4343472 -1.2012253 0
-0.67021668 4.4084268 -1.1948057 0
-0.69058841 4.4421439 -1.2045648 0
-0.69785661 4.3918381 -1.1915513 0
-0.71379852 4.3969941 -1.1935928 0
-0.72958809 4.4009175 -1.1953151 0
-0.74531561 4.4042149 -1.1968826 0
-0.75900054 4.395452 -1.1951861 0
-0.77940923 4.4251075 -1.2039536 0
-0.79113197 4.4051557 -1.1992402 0
-0.80714506 4.4092951 -1.2010971 0
-0.82501674 4.4231448 -1.2056166 0
-0.83373356 4.3882027 -1.1968476 0
-0.85317749 4.4098611 -1.2035282 0
-0.87310088 4.4330878 -1.2106591 0
-0.87842995 4.3825922 -1.1976668 0
-0.89570618 4.3923092 -1.2011361 0
-0.90665871 4.3711104 -1.1961635 0
-0.92813534 4.4004102 -1.2050263 0
-0.93715823 4.3705711 -1.1977087 0
-0.9562211 4.3876605 -1.2032638 0
-0.970469 4.3823628 -1.2026964 0
-0.98550588 4.3806357 -1.2031226 0
-1.0012251 4.3818474 -1.2043705 0
-1.0137291 4.3690619 -1.2017838 0
-1.0287386 4.3671942 -1.2022121 0
-1.0459036 4.3742952 -1.2051255 0
-1.0598375 4.3677702 -1.2043 0
-1.0675336 4.3359952 -1.196519 0
-1.0840232 4.34023 -1.1986839 0
-1.096018 4.3265009 -1.1959003 0
-1.1097888 4.3199644 -1.1951153 0
-1.1262362 4.3237805 -1.197209 0
-1.1448532 4.335608 -1.20154 0
-1.1538447 4.3110518 -1.1957999 0
-1.1742784 4.3292274 -1.2019268 0
-1.1916126 4.335547 -1.2047839 0
-1.2053219 4.3285818 -1.2039646 0
-1.2148553 4.3068867 -1.1990564 0
-1.2299291 4.3050308 -1.1996812 0
-1.2489481 4.3167543 -1.2041082 0
-1.2574011 4.2920175 -1.1983774 0
-1.2777939 4.3080382 -1.2040399 0
-1.291303 4.3006401 -1.2031755 0
-1.305397 4.2952399 -1.2028825 0
-1.3208013 4.2941241 -1.2038034 0
-1.3329602 4.2825036 -1.201792 0
-1.3447928 4.2700143 -1.1995456 0
-1.367052 4.2904329 -1.2065625 0
-1.3723035 4.2575126 -1.1985918 0
-1.3863639 4.252254 -1.1984133 0
-1.4041249 4.2582321 -1.2014182 0
-1.4200563 4.2584853 -1.2028261 0
-1.4336474 4.251687 -1.2022569 0
-1.4437622 4.234736 -1.1988257 0
-1.4584501 4.2313156 -1.199235 0
-1.4741915 4.2308869 -1.2005076 0
-1.4871802 4.2225466 -1.1995492 0
-1.4973533 4.2063675 -1.1963723 0
-1.5222117 4.2312427 -1.2048922 0
-1.5350772 4.2225051 -1.2038629 0
-1.5444344 4.2042909 -1.2001395 0
-1.5588115 4.1998696 -1.2003627 0
-1.5782344 4.2088881 -1.2044457 0
-1.579538 4.1697845 -1.1947645 0
-1.6005232 4.1827946 -1.2000231 0
-1.6136055 4.1749911 -1.1993297 0
-1.630227 4.1763015 -1.2012695 0
-1.6432081 4.1682453 -1.2005302 0
-1.6535758 4.1536732 -1.1979233 0
-1.6642307 4.1399903 -1.1955796 0
-1.6705221 4.1157126 -1.1901793 0
-1.7095608 4.171701 -1.2080208 0
-1.7099494 4.133101 -1.1984966 0
-1.7193581 4.1167159 -1.1954101 0
-1.74384 4.1362815 -1.2027826 0
-1.7486511 4.1091514 -1.1965917 0
-1.7622941 4.1029758 -1.1965072 0
-1.7827848 4.1126018 -1.2010508 0
-1.8013552 4.1175542 -1.204254 0
-1.8132288 4.1071386 -1.2029792 0
-1.8211225 4.0878673 -1.1991163 0
-1.8328536 4.0773678 -1.1978323 0
-1.8478229 4.0740862 -1.1986816 0
-1.8705765 4.0877633 -1.2045443 0
-1.8690374 4.0484705 -1.1948056 0
-1.8814559 4.0397234 -1.1940792 0
-1.9034946 4.0514946 -1.1994382 0
-1.9251466 4.0621362 -1.2044928 0
-1.9448719 4.0684543 -1.2082928 0
-1.9460025 4.0359869 -1.2005814 0
-1.970515 4.0520425 -1.2073159 0
-1.9667721 4.0101032 -1.1967782 0
-1.9872155 4.0176578 -1.2010144 0
-2.0071621 4.0239782 -1.2049087 0
-2.0042238 3.9845843 -1.1951184 0
-2.0344124 4.011044 -1.2050937 0
-2.0410233 3.990854 -1.201077 0
-2.0479822 3.9715574 -1.1973293 0
-2.0724196 3.9860818 -1.2037961 0
-2.089025 3.9853158 -1.2056732 0
-2.0852618 3.9459059 -1.1958591 0
-2.0963013 3.9348025 -1.1946174 0
-2.1207209 3.9486778 -1.200982 0
-2.139524 3.9518445 -1.2041202 0
-2.1480889 3.9360862 -1.2015064 0
-2.1605568 3.9275589 -1.2011079 0
-2.1794722 3.9306793 -1.20429 0
-2.1857429 3.911011 -1.2005026 0
-2.1924105 3.89224 -1.1969904 0
-2.2073588 3.8882332 -1.1980275 0
-2.2224553 3.8844326 -1.1991456 0
-2.23947 3.8839023 -1.2012931 0
-2.2421634 3.8586187 -1.1957914 0
-2.2738245 3.8830762 -1.2057265 0
-2.2694702 3.84601 -1.1965731 0
-2.3000913 3.868212 -1.2058733 0
-2.288888 3.8201559 -1.1932778 0
-2.3214719 3.8452373 -1.203537 0
-2.3302019 3.8306112 -1.2013977 0
-2.3410914 3.8196108 -1.2004026 0
-2.3524656 3.809442 -1.1996789 0
-2.3633518 3.7985229 -1.1987289 0
-2.3826742 3.8011067 -1.2020586 0
-2.3937562 3.7904854 -1.2012311 0
-2.4148421 3.7956266 -1.2054194 0
-2.4158361 3.7692254 -1.1996005 0
-2.4274654 3.7595639 -1.1991092 0
-2.4464934 3.7612996 -1.2022723 0
-2.4449193 3.7314477 -1.1953439 0
-2.4768195 3.7526269 -1.204782 0
-2.4786482 3.7281487 -1.1995845 0
-2.5101998 3.7482865 -1.2087655 0
-2.5024006 3.7096779 -1.1990137 0
-2.534301 3.7299323 -1.2082998 0
-2.5322578 3.7001758 -1.2014039 0
-2.5350437 3.6777291 -1.1968687 0
-2.5570009 3.6830957 -1.2013984 0
-2.5653517 3.6688046 -1.1995356 0
-2.5758142 3.6575933 -1.198687 0
-2.5918744 3.65431 -1.2004522 0
-2.6052136 3.6471417 -1.20096 0
-2.6237774 3.6472132 -1.2038736 0
-2.619813 3.6160655 -1.196485 0
-2.6397214 3.6179509 -1.2000306 0
-2.6510589 3.6080215 -1.1996787 0
-2.6715138 3.6104279 -1.2034503 0
-2.6741619 3.5887794 -1.1992161 0
-2.6667109 3.553848 -1.1905246 0
-2.7094131 3.5856504 -1.2042146 0
-2.7089322 3.5601346 -1.198689 0
-2.7088807 3.5354061 -1.1934142 0
-2.7448099 3.5575278 -1.2039814 0
-2.7358744 3.521471 -1.1948763 0
-2.7586877 3.5263674 -1.1996694 0
-2.7679651 3.513886 -1.1985737 0
-2.7808518 3.5059991 -1.1990571 0
-2.8067462 3.5143793 -1.2051347 0
-2.8159783 3.5017965 -1.2040508 0
-2.8136544 3.4749844 -1.1980687 0
-2.8220255 3.4615276 -1.1966846 0
-2.8390572 3.4586759 -1.1989827 0
-2.8606212 3.4612172 -1.2031819 0
-2.8620327 3.4393761 -1.1989185 0
-2.8718271 3.427707 -1.1982005 0
-2.8864944 3.4218416 -1.1995265 0
-2.9033821 3.4185393 -1.2017746 0
-2.9111328 3.404465 -1.2002512 0
-2.9223716 3.3945003 -1.2001859 0
-2.9267807 3.3766582 -1.1973403 0
-2.9376802 3.3663619 -1.1971751 0
-2.9734411 3.3843684 -1.2071174 0
-2.9638307 3.3507059 -1.1986485 0
-2.977365 3.3433514 -1.1995819 0
-2.9776528 3.3211868 -1.1952047 0
-3.0026965 3.326612 -1.2007734 0
-3.0163496 3.3192949 -1.2017759 0
-3.0124283 3.2927308 -1.1958083 0
-3.0270126 3.286479 -1.1972169 0
-3.0633638 3.3036489 -1.2072065 0
-3.0579398 3.2757025 -1.2007341 0
-3.0604684 3.2564542 -1.1974331 0
-3.083555 3.2590537 -1.2021838 0
-3.0782764 3.2317016 -1.1958948 0
-3.0941155 3.2265987 -1.1978387 0
-3.1317768 3.24403 -1.2082011 0
-3.1220901 3.2123716 -1.2003021 0
-3.1360612 3.2051749 -1.2015352 0
-3.1454411 3.1932728 -1.2010201 0
-3.1540098 3.1805708 -1.2002134 0
-3.1725557 3.1778915 -1.2032095 0
-3.1613929 3.145546 -1.1949694 0
-3.1818497 3.1447411 -1.1987096 0
-3.1894767 3.1312094 -1.1976211 0
-3.2176838 3.1377845 -1.2042555 0
-3.2153387 3.1145339 -1.1994629 0
-3.2296512 3.1074769 -1.2009087 0
-3.21435 3.072067 -1.1913824 0
-3.2335334 3.0697231 -1.1946712 0
-3.2405381 3.0557816 -1.1934671 0
-3.2726188 3.0653691 -1.2014903 0
-3.287272 3.0584674 -1.2030983 0
-3.2753973 3.0269947 -1.1950313 0
-3.3065701 3.0353119 -1.2026849 0
-3.3271565 3.0337172 -1.2064662 0
-3.3033295 2.9917698 -1.1941823 0
-3.3153701 2.9825022 -1.1949133 0
-3.3364897 2.9813225 -1.1989157 0
-3.365031 2.9865956 -1.2055666 0
-3.3432884 2.9473183 -1.1942301 0
-3.3888655 2.9673643 -1.2069497 0
-3.3941748 2.9519668 -1.2053089 0
-3.4035432 2.9401295 -1.2051283 0
-3.3968894 2.9145513 -1.1993055 0
-3.4088738 2.9050472 -1.2000911 0
-3.4162519 2.8916185 -1.1992686 0
-3.4215338 2.8764544 -1.1977305 0
-3.4475598 2.8786612 -1.2034557 0
-3.444901 2.8568926 -1.1991771 0
-3.4773118 2.8641486 -1.2071098 0
-3.4483001 2.8209007 -1.1937488 0
-3.4687858 2.8182988 -1.1975627 0
-3.4625373 2.7940018 -1.1921647 0
-3.4879248 2.7952309 -1.1976721 0
-3.5165749 2.7988799 -1.2042809 0
-3.5120375 2.7760854 -1.1995327 0
-3.5257158 2.767741 -1.2010282 0
-3.5384908 2.7586446 -1.2022225 0
-3.5203493 2.7255738 -1.1929473 0
-3.5653822 2.7413697 -1.2050862 0
-3.5638478 2.7212255 -1.2014771 0
-3.5762217 2.7117412 -1.2025768 0
-3.5848653 2.6994128 -1.202433 0
-3.5669978 2.6672652 -1.1934336 0
-3.5837169 2.6610796 -1.1960356 0
-3.6000025 2.6544938 -1.1984937 0
-3.6178064 2.6489429 -1.2014574 0
-3.6505833 2.6541865 -1.2093804 0
-3.6383715 2.6267056 -1.2024103 0
-3.6426103 2.6112323 -1.2009112 0
-3.6469791 2.5958972 -1.1994753 0
-3.6598809 2.5866365 -1.2008595 0
-3.6699069 2.5753152 -1.2013093 0
-3.6686764 2.5561373 -1.1980944 0
-3.6931212 2.5548184 -1.2032732 0
-3.6821923 2.5290463 -1.1969429 0
-3.7147915 2.5331481 -1.2047722 0
-3.7164755 2.5160832 -1.2025756 0
-3.7457974 2.5176604 -1.2093254 0
-3.7113423 2.4764779 -1.1955142 0
-3.7482498 2.4829829 -1.2047145 0
-3.7356052 2.4566255 -1.1979964 0
-3.7534618 2.450381 -1.2010815 0
-3.771374 2.4440801 -1.2041843 0
-3.756901 2.416853 -1.196969 0
-3.8015487 2.4275932 -1.208594 0
-3.7846551 2.3989797 -1.2006593 0
-3.7899246 2.3845451 -1.1997879 0
-3.7961793 2.3707514 -1.1992449 0
-3.8127677 2.3633788 -1.2019752 0
-3.8212335 2.3509285 -1.2021525 0
-3.8239415 2.3349571 -1.2005347 0
-3.8266962 2.319061 -1.1989517 0
-3.858964 2.3209617 -1.2066166 0
-3.8449268 2.2949998 -1.1998149 0
-3.8662527 2.2901828 -1.2040668 0
-3.8559122 2.2666278 -1.198473 0
-3.8856621 2.2666204 -1.2053508 0
-3.8719273 2.2412431 -1.1987524 0
-3.8906722 2.2347116 -1.2022294 0
-3.9078259 2.2271731 -1.2052157 0
-3.8969469 2.203696 -1.1995751 0
-3.9071288 2.1921976 -1.2004399 0
-3.9134481 2.1785238 -1.2001307 0
-3.9180663 2.1639192 -1.1993152 0
-3.9237783 2.1499369 -1.1988504 0
-3.930342 2.1364307 -1.1986605 0
-3.942812 2.1261146 -1.2002828 0
-3.95629 2.1162915 -1.202219 0
-3.9778888 2.1107225 -1.2066251 0
-3.958549 2.0834816 -1.198633 0
-3.9522529 2.0632753 -1.1946251 0
-3.9594309 2.050159 -1.1947104 0
-3.9867847 2.047401 -1.200886 0
-4.003489 2.0390456 -1.2038516 0
-3.9773059 2.0089443 -1.1939461 0
-4.0176167 2.0124269 -1.2040149 0
-4.0204077 1.9969913 -1.2028379 0
-4.016376 1.978228 -1.1996406 0
-4.0158257 1.9612536 -1.1975054 0
-4.0279984 1.9504997 -1.1991785 0
-4.0430775 1.9410942 -1.2017232 0
-4.0282736 1.9173943 -1.1954057 0
-4.0512242 1.9116844 -1.2003075 0
-4.0428014 1.8911631 -1.1959267 0
-4.0660691 1.8854573 -1.2009327 0
-4.0778933 1.8743535 -1.2025622 0
-4.0543008 1.8470699 -1.1937718 0
-4.0594578 1.8330085 -1.1934739 0
-4.0820942 1.8267776 -1.1983216 0
-4.0999084 1.8182752 -1.2017547 0
-4.1007953 1.8022394 -1.2002367 0
-4.0557561 1.7662445 -1.1853145 0
-4.1202788 1.777933 -1.2024227 0
-4.1119099 1.7579918 -1.1982536 0
-4.1107264 1.7412072 -1.1962007 0
-4.1217065 1.7295825 -1.1977017 0
-4.1393614 1.7206913 -1.2011486 0
-4.1321998 1.7014885 -1.1974084 0
-4.1618047 1.6973816 -1.2043314 0
-4.1514006 1.6769261 -1.1996869 0
-4.1626716 1.665267 -1.2013237 0
-4.1933651 1.6612579 -1.2085675 0
-4.1620154 1.6327151 -1.1979477 0
-4.1864433 1.6261227 -1.2034028 0
-4.1915407 1.6119498 -1.2033077 0
-4.17766 1.5905538 -1.1977851 0
-4.1882062 1.5785117 -1.1992847 0
-4.1918721 1.5638626 -1.1988262 0
-4.1940341 1.5486702 -1.1979529 0
-4.2197971 1.5421258 -1.2038281 0
-4.1902523 1.5154226 -1.1939433 0
-4.2081952 1.5059763 -1.1976104 0
-4.2262926 1.496487 -1.2013259 0
-4.2365808 1.4841635 -1.2028292 0
-4.2075872 1.4581864 -1.1932026 0
-4.2600284 1.4603803 -1.2066787 0
-4.2364607 1.436446 -1.1986321 0
-4.2422318 1.4225621 -1.1989088 0
-4.2416277 1.4065566 -1.1973984 0
-4.2592444 1.3965652 -1.2010431 0
-4.2689013 1.3838974 -1.2024511 0
-4.261714 1.3657941 -1.1991299 0
-4.2626772 1.3503597 -1.1981202 0
-4.2694569 1.3367728 -1.1987593 0
-4.2802062 1.3243973 -1.200524 0
-4.2914386 1.3121232 -1.2024338 0
-4.2914071 1.2963961 -1.2012004 0
-4.285368 1.2789084 -1.198303 0
-4.3010731 1.2679058 -1.201499 0
-4.2785912 1.2457018 -1.1940452 0
-4.293273 1.2343768 -1.1969808 0
-4.3203039 1.2264811 -1.2033639 0
-4.3025703 1.2058731 -1.1972916 0
-4.3081675 1.1918774 -1.1977304 0
-4.3238263 1.1806172 -1.2009765 0
-4.3200598 1.1640387 -1.1988395 0
-4.3378377 1.1532429 -1.2026932 0
-4.3355398 1.1370822 -1.2009923 0
-4.3218174 1.1180098 -1.196146 0
-4.3349948 1.105925 -1.1987602 0
-4.3337059 1.0901335 -1.1973863 0
-4.3414021 1.0766056 -1.1985086 0
-4.349843 1.0632304 -1.1998479 0
-4.3576913 1.049678 -1.2010353 0
-4.3602405 1.034837 -1.2007749 0
-4.3659248 1.0207356 -1.201391 0
-4.3754153 1.0074948 -1.2030663 0
-4.3458543 0.98535633 -1.1940231 0
-4.3867822 0.97918355 -1.2043592 0
-4.3686757 0.95977628 -1.198498 0
-4.3521471 0.94085997 -1.1930915 0
-4.3683395 0.92904079 -1.1966697 0
-4.382493 0.91670352 -1.1996983 0
-4.3875666 0.90242112 -1.2002522 0
-4.3799195 0.88555247 -1.1973412 0
-4.3870759 0.87169933 -1.1984918 0
-4.3944879 0.85786659 -1.1997242 0
-4.373414 0.83854055 -1.1931968 0
-4.4027128 0.8288638 -1.2004254 0
-4.3873029 0.81074107 -1.1954759 0
-4.4247012 0.80231959 -1.2049266 0
-4.4195762 0.78609425 -1.2028064 0
-4.4146328 0.76995432 -1.2007518 0
-4.4003124 0.75226331 -1.1961639 0
-4.4127355 0.73916829 -1.1988605 0
-4.4234962 0.72573203 -1.2011163 0
-4.4177737 0.70959079 -1.1989098 0
-4.4133501 0.69370943 -1.1970712 0
-4.4189777 0.67941988 -1.1979731 0
-4.4225636 0.66480041 -1.1983341 0
-4.4305344 0.65081573 -1.1998959 0
-4.4489536 0.63829046 -1.2042979 0
-4.4207039 0.61911774 -1.1960822 0
-4.418797 0.60375178 -1.1950121 0
-4.4460478 0.5922969 -1.2018379 0
-4.4485559 0.57745785 -1.2019857 0
-4.4325752 0.56027794 -1.1971536 0
-4.4434257 0.5465197 -1.1995822 0
-4.439846 0.53097445 -1.1981286 0
-4.4281154 0.51451856 -1.1944908 0
-4.4666138 0.50381976 -1.2044133 0
-4.4627976 0.48824164 -1.2029362 0
-4.4544249 0.47221747 -1.2002456 0
-4.4440355 0.45605391 -1.1970277 0
-4.4437308 0.44097182 -1.1965406 0
-4.4347005 0.42506549 -1.1937186 0
-4.4427681 0.41081089 -1.1955127 0
-4.4588919 0.39722875 -1.1994863 0
-4.4653873 0.38272142 -1.2008817 0
-4.4477582 0.36619267 -1.1958039 0
-4.4781704 0.35358441 -1.2036548 0
-4.4487877 0.33625937 -1.1954474 0
-4.4550023 0.32171071 -1.1968209 0
-4.4970093 0.3095915 -1.2078202 0
-4.4442363 0.29099047 -1.1933775 0
-4.4702945 0.27764755 -1.2001181 0
-4.4868979 0.26358011 -1.2043315 0
-4.4715686 0.24763842 -1.1999874 0
-4.4942827 0.23378435 -1.2058657 0
-4.4796977 0.21796799 -1.2017496 0
-4.4880118 0.2032918 -1.2037903 0
-4.4891 0.18826133 -1.2039062 0
-4.4897757 0.17321186 -1.2039249 0
-4.4835291 0.15791792 -1.202101 0
-4.479888 0.14275251 -1.2009897 0
-4.4707689 0.1274586 -1.1984239 0
-4.4803238 0.11269846 -1.200877 0
-4.4682279 0.097404771 -1.1975406 0
-4.4897876 0.082815208 -1.2032377 0
-4.4758224 0.067546777 -1.1994277 0
-4.4866681 0.052664753 -1.20228 0
-4.4771128 0.037540112 -1.199679 0
-4.4861164 0.02257379 -1.2020646 0
-4.4806185 0.0075232447 -1.200578 0
-4.4795313 1.1886838e-05 -1.200285 0
-5.1912036 -0.0087163635 -1.1984837 0
-5.1938505 -0.026135052 -1.1991082 0
-5.2054567 -0.043647204 -1.2018148 0
-5.2169228 -0.061236519 -1.2045026 0
-5.2124686 -0.078663856 -1.2035284 0
-5.199934 -0.095914043 -1.2007018 0
-5.1965756 -0.11328233 -1.2000072 0
-5.2058492 -0.13094838 -1.2022432 0
-5.2112627 -0.14856957 -1.2036017 0
-5.1829453 -0.16515557 -1.1971827 0
-5.2207923 -0.18388565 -1.2060604 0
-5.1779103 -0.19975953 -1.1963023 0
-5.2039666 -0.21824099 -1.2024845 0
-5.1814833 -0.23470375 -1.1974645 0
-5.1604877 -0.25109306 -1.1928 0
-5.2090287 -0.27096412 -1.2042232 0
-5.1926866 -0.28757438 -1.2006613 0
-5.1669993 -0.30353224 -1.1949505 0
-5.1686788 -0.32102385 -1.1955811 0
-5.1861067 -0.3395651 -1.1998689 0
-5.1676412 -0.3557604 -1.195866 0
-5.1691484 -0.3732816 -1.1964977 0
-5.1871376 -0.39206719 -1.2009592 0
-5.1621981 -0.4075934 -1.1954947 0
-5.208035 -0.42878771 -1.206436 0
-5.179522 -0.44392878 -1.2001691 0
-5.159224 -0.45961919 -1.1958162 0
-5.1704483 -0.47809756 -1.1987826 0
-5.1693354 -0.49548015 -1.1989028 0
-5.1500802 -0.51106614 -1.1948278 0
-5.1699643 -0.53054988 -1.199847 0
-5.1778178 -0.54890496 -1.2020899 0
-5.167212 -0.56530637 -1.2000608 0
-5.1498322 -0.58088458 -1.1964703 0
-5.1854405 -0.60251486 -1.2052057 0
-5.1354022 -0.61415809 -1.1940476 0
-5.1553974 -0.63408881 -1.1991843 0
-5.1874928 -0.65569961 -1.2071545 0
-5.1488609 -0.66836303 -1.1986794 0
-5.1698041 -0.6887148 -1.2040859 0
-5.135726 -0.70170766 -1.1966902 0
-5.1272655 -0.7180714 -1.1952729 0
-5.1541214 -0.73946071 -1.2021048 0
-5.1475053 -0.75613391 -1.2011462 0
-5.1187391 -0.76944959 -1.1950291 0
-5.1486697 -0.79161036 -1.2026297 0
-5.1384573 -0.8076849 -1.20087 0
-5.1289835 -0.82382655 -1.1992948 0
-5.129673 -0.84158951 -1.2001091 0
-5.1286564 -0.85909081 -1.2005384 0
-5.1338387 -0.87766469 -1.2024336 0
-5.1296296 -0.8946566 -1.2021434 0
-5.1308503 -0.91260612 -1.2031399 0
-5.1100268 -0.92658794 -1.1989788 0
-5.093967 -0.94132733 -1.1959443 0
-5.126204 -0.96506971 -1.2042657 0
-5.0993218 -0.97772312 -1.1987138 0
-5.0967741 -0.99496287 -1.1988924 0
-5.1128173 -1.015902 -1.2034607 0
-5.0946217 -1.0300542 -1.1999838 0
-5.0812144 -1.0450884 -1.1976446 0
-5.0940013 -1.0655324 -1.2014937 0
-5.0770802 -1.0797729 -1.1983498 0
-5.097281 -1.1019452 -1.2039831 0
-5.0822978 -1.1165556 -1.2013216 0
-5.1021347 -1.138859 -1.2069062 0
-5.0780711 -1.1513754 -1.2021205 0
-5.0765262 -1.1689345 -1.2026758 0
-5.0712109 -1.1856288 -1.2023516 0
-5.0619121 -1.2013682 -1.2010951 0
-5.068285 -1.2208452 -1.2035718 0
-5.0405612 -1.2320623 -1.1979623 0
-5.052423 -1.2529285 -1.2017732 0
-5.0408545 -1.2680151 -1.200026 0
-5.044683 -1.2869775 -1.2019578 0
-5.031004 -1.3014692 -1.1997316 0
-5.0239034 -1.3176193 -1.1990851 0
-4.9990335 -1.3290263 -1.1942061 0
-5.0116162 -1.3503784 -1.1982868 0
-5.0353847 -1.3749076 -1.2050653 0
-4.9934158 -1.3814548 -1.1961231 0
-5.0164256 -1.405944 -1.2027572 0
-5.0140514 -1.4234273 -1.2033255 0
-5.0347486 -1.4475615 -1.2094506 0
-4.9788294 -1.4495746 -1.1971785 0
-4.9608655 -1.4624048 -1.1940312 0
-4.9726176 -1.4840084 -1.1980507 0
-4.9674335 -1.5006177 -1.1980072 0
-4.9825792 -1.5234419 -1.202885 0
-4.9764895 -1.5398438 -1.2026545 0
-4.955874 -1.5516909 -1.198923 0
-4.9490151 -1.5677824 -1.1985285 0
-4.9307475 -1.5802058 -1.195381 0
-4.9387579 -1.6010522 -1.1986177 0
-4.948184 -1.6224618 -1.2022188 0
-4.9442449 -1.6395499 -1.2025906 0
-4.9403415 -1.6566615 -1.2029854 0
-4.9133935 -1.6659719 -1.1977769 0
-4.9269938 -1.6890228 -1.2024661 0
-4.9207692 -1.7053474 -1.2023356 0
-4.9073782 -1.7191579 -1.2004654 0
-4.8990736 -1.734712 -1.1998498 0
-4.8682175 -1.7421767 -1.1937166 0
-4.8781176 -1.7641919 -1.1975878 0
-4.862813 -1.7771161 -1.1952866 0
-4.8897161 -1.8055545 -1.2033807 0
-4.8852777 -1.8225515 -1.2037855 0
-4.8453135 -1.8261719 -1.1954399 0
-4.8727999 -1.8552134 -1.2037493 0
-4.8653369 -1.8710731 -1.2034488 0
-4.8699808 -1.8916262 -1.2061594 0
-4.8111863 -1.887378 -1.1931581 0
-4.8392811 -1.9171462 -1.201713 0
-4.8323216 -1.9331588 -1.2015874 0
-4.8092723 -1.9426683 -1.197469 0
-4.8167934 -1.964517 -1.2009749 0
-4.7895961 -1.9721802 -1.1958358 0
-4.78163 -1.9876761 -1.1955041 0
-4.8126469 -2.0195203 -1.204945 0
-4.7835956 -2.0262189 -1.1993657 0
-4.7656841 -2.0375042 -1.1965809 0
-4.7698827 -2.0582423 -1.1993611 0
-4.7832742 -2.0830719 -1.2044777 0
-4.7470722 -2.0862687 -1.1971163 0
-4.7182999 -2.0925267 -1.191623 0
-4.7498574 -2.1256084 -1.2013861 0
-4.7542119 -2.146718 -1.2043012 0
-4.7394133 -2.1591952 -1.2023796 0
-4.716054 -2.1676762 -1.1982905 0
-4.7097926 -2.1839552 -1.1985534 0
-4.718132 -2.2070727 -1.2025521 0
-4.6885495 -2.2124245 -1.196896 0
-4.7108974 -2.2423124 -1.2045134 0
-4.6581793 -2.2364066 -1.1929446 0
-4.7011847 -2.2764802 -1.205906 0
-4.6690378 -2.2802701 -1.1996144 0
-4.6492252 -2.2899318 -1.1964898 0
-4.6673651 -2.3183439 -1.2031519 0
-4.6390638 -2.32371 -1.197858 0
-4.6273761 -2.337296 -1.1968569 0
-4.6145582 -2.3502736 -1.195573 0
-4.6095505 -2.3672204 -1.1963251 0
-4.6291556 -2.3969367 -1.2034923 0
-4.6188951 -2.4112964 -1.2029198 0
-4.5898275 -2.4157388 -1.1974523 0
-4.6052475 -2.4436076 -1.203606 0
-4.595881 -2.4584205 -1.2033056 0
-4.5738502 -2.4663944 -1.1996957 0
-4.5502653 -2.4734049 -1.195678 0
-4.5612602 -2.4992294 -1.2007624 0
-4.5551872 -2.5157964 -1.2013774 0
-4.5400872 -2.5273588 -1.199623 0
-4.5254588 -2.5391278 -1.1980006 0
-4.5482607 -2.5720096 -1.2063128 0
-4.5083308 -2.5694165 -1.1980006 0
-4.5174084 -2.5946944 -1.2027177 0
-4.5262823 -2.6200128 -1.2074122 0
-4.4820385 -2.6145041 -1.1979417 0
-4.4841218 -2.6359093 -1.2008538 0
-4.4809594 -2.6543055 -1.2023834 0
-4.4727535 -2.6697435 -1.2025766 0
-4.4615083 -2.6833601 -1.2019655 0
-4.4321051 -2.6859522 -1.1964635 0
-4.4368744 -2.7092233 -1.2001963 0
-4.429471 -2.7251332 -1.2006584 0
-4.4145451 -2.7363961 -1.1990927 0
-4.3914485 -2.7425029 -1.1953101 0
-4.4177008 -2.7795293 -1.2049855 0
-4.3937812 -2.7850864 -1.2010014 0
-4.3820286 -2.7982762 -1.2003468 0
-4.3715601 -2.8122694 -1.2000552 0
-4.3667088 -2.8298934 -1.2013215 0
-4.33148 -2.8277297 -1.1942313 0
-4.3380113 -2.8527825 -1.1986624 0
-4.3345442 -2.8713665 -1.2003577 0
-4.2996383 -2.8690317 -1.1933485 0
-4.3222547 -2.9051142 -1.2023222 0
-4.3129764 -2.9199188 -1.2024578 0
-4.2772689 -2.9167061 -1.1952223 0
-4.2840095 -2.9423933 -1.1998558 0
-4.2616367 -2.9481046 -1.1963514 0
-4.2633967 -2.9705064 -1.1996347 0
-4.257462 -2.9876254 -1.2007767 0
-4.2422547 -2.9982316 -1.199316 0
-4.2216678 -3.0049567 -1.1963375 0
-4.2372131 -3.0374775 -1.203622 0
-4.203517 -3.0347099 -1.1969339 0
-4.2117972 -3.0622218 -1.2022084 0
-4.1918211 -3.0692341 -1.199437 0
-4.1839132 -3.0850456 -1.2001272 0
-4.1772447 -3.1018023 -1.2011907 0
-4.1783586 -3.1244175 -1.2045166 0
-4.1688085 -3.1391237 -1.2047909 0
-4.1343522 -3.1349547 -1.1978639 0
-4.1458015 -3.1655846 -1.2042496 0
-4.1220307 -3.1693685 -1.2004247 0
-4.1021156 -3.175997 -1.1977193 0
-4.0853119 -3.1849523 -1.1959243 0
-4.0991712 -3.2179122 -1.203133 0
-4.0847974 -3.2288225 -1.2020849 0
-4.0590534 -3.2306445 -1.1976898 0
-4.0609455 -3.254451 -1.201461 0
-4.0660167 -3.2809634 -1.2062091 0
-4.0428028 -3.2846732 -1.2025828 0
-4.0266066 -3.2939875 -1.2010435 0
-4.0055885 -3.299273 -1.1980672 0
-4.0320787 -3.3438456 -1.2093369 0
-3.9983611 -3.3385718 -1.2025745 0
-3.9798954 -3.3458641 -1.2003878 0
-3.9645634 -3.355726 -1.1991503 0
-3.9500227 -3.366215 -1.1981592 0
-3.9187992 -3.3623526 -1.192101 0
-3.929498 -3.3944724 -1.1988111 0
-3.9195406 -3.4088855 -1.1992534 0
-3.9185972 -3.4312086 -1.2024779 0
-3.9032562 -3.4409649 -1.2013038 0
-3.8874199 -3.4502361 -1.1999835 0
-3.8839953 -3.4705465 -1.2025114 0
-3.8478739 -3.4615419 -1.1949146 0
-3.8513525 -3.4881048 -1.1996198 0
-3.8491271 -3.5096524 -1.2025852 0
-3.83131 -3.5170043 -1.200696 0
-3.817714 -3.5281827 -1.2001356 0
-3.8184452 -3.5526693 -1.2041032 0
-3.8075576 -3.566431 -1.2044339 0
-3.7660968 -3.5513761 -1.1950785 0
-3.7686086 -3.5776913 -1.1996752 0
-3.7599673 -3.5935328 -1.2007532 0
-3.7511573 -3.6092551 -1.2017975 0
-3.7331085 -3.616071 -1.1998925 0
-3.7418535 -3.6489384 -1.2066289 0
-3.7242982 -3.6562603 -1.2049142 0
-3.696944 -3.6538279 -1.200021 0
-3.6773376 -3.6589043 -1.1976322 0
-3.6743665 -3.680546 -1.2006768 0
-3.6591706 -3.689986 -1.1997472 0
-3.6551123 -3.7106946 -1.202489 0
-3.6231458 -3.7029941 -1.1960503 0
-3.634783 -3.7398899 -1.2040244 0
-3.596715 -3.7256329 -1.1955454 0
-3.5920188 -3.7458212 -1.1981523 0
-3.5901465 -3.769084 -1.2017363 0
-3.5736742 -3.7770679 -1.2004548 0
-3.5475609 -3.7747388 -1.1959275 0
-3.5542767 -3.8073847 -1.2024882 0
-3.5328405 -3.8099508 -1.1995509 0
-3.5470977 -3.8511441 -1.2087692 0
-3.5002427 -3.8259358 -1.1971668 0
-3.4916651 -3.8423483 -1.1986325 0
-3.4849098 -3.8608437 -1.2007505 0
-3.4876504 -3.8900232 -1.206182 0
-3.4489214 -3.8728728 -1.1972718 0
-3.4406021 -3.8897111 -1.1989044 0
-3.4448042 -3.9208736 -1.2049427 0
-3.4084079 -3.9057806 -1.1967857 0
-3.3999851 -3.9225991 -1.1984394 0
-3.3914015 -3.9393051 -1.2000626 0
-3.3913488 -3.9660604 -1.2047427 0
-3.3408015 -3.9335716 -1.1914645 0
-3.3496003 -3.9708383 -1.199344 0
-3.3276052 -3.9717071 -1.1962299 0
-3.3143604 -3.9829497 -1.1962625 0
-3.3213756 -4.0187082 -1.203651 0
-3.2980287 -4.017817 -1.2000653 0
-3.281976 -4.0257077 -1.1991287 0
-3.2546663 -4.0196533 -1.1940681 0
-3.2567949 -4.0499721 -1.1998241 0
-3.2255967 -4.0388298 -1.1933125 0
-3.2297986 -4.0720148 -1.1999111 0
-3.2033248 -4.0665679 -1.1951345 0
-3.2007718 -4.0914736 -1.1992933 0
-3.1952722 -4.1127834 -1.2023927 0
-3.1780932 -4.1191034 -1.2011185 0
-3.1794434 -4.1495457 -1.2068801 0
-3.151813 -4.1421776 -1.2016568 0
-3.1404197 -4.1560469 -1.2026188 0
-3.1287243 -4.1695604 -1.203487 0
-3.1183887 -4.1849408 -1.2049018 0
-3.1047075 -4.1958694 -1.2050445 0
-3.0665927 -4.173552 -1.1956754 0
-3.0619752 -4.1966839 -1.1993545 0
-3.0434704 -4.20083 -1.1976163 0
-3.0410373 -4.227231 -1.2022295 0
-3.017581 -4.224431 -1.198549 0
-3.0094452 -4.2430472 -1.2009614 0
-2.9955735 -4.2536407 -1.2011102 0
-2.9774368 -4.2581425 -1.1995558 0
-2.9779141 -4.2893777 -1.2055354 0
-2.9536245 -4.2849879 -1.2015117 0
-2.9338377 -4.2869711 -1.1993028 0
-2.9191046 -4.296278 -1.1991618 0
-2.8958204 -4.292902 -1.1955028 0
-2.8850734 -4.3080564 -1.1970223 0
-2.8743944 -4.3233929 -1.1985992 0
-2.8572893 -4.3290763 -1.1975123 0
-2.8321178 -4.322392 -1.1930298 0
-2.8366196 -4.3610897 -1.201079 0
-2.8011425 -4.3383002 -1.1922094 0
-2.8110452 -4.3858371 -1.2026761 0
-2.7914357 -4.3875527 -1.2005734 0
-2.786418 -4.412261 -1.2047712 0
-2.7645535 -4.4103231 -1.2017044 0
-2.7498577 -4.4197388 -1.201751 0
-2.7297788 -4.4204407 -1.1994464 0
-2.7166111 -4.4322901 -1.2001835 0
-2.7079229 -4.4515457 -1.2029324 0
-2.6953321 -4.4644914 -1.2039819 0
-2.6816447 -4.475667 -1.2045642 0
-2.6539371 -4.4632974 -1.1988335 0
-2.6451991 -4.4827476 -1.2016689 0
-2.6245883 -4.4820857 -1.1991258 0
-2.6142895 -4.4990239 -1.2013055 0
-2.5975971 -4.5050006 -1.2005692 0
-2.5788717 -4.507381 -1.1988926 0
-2.5610075 -4.5111804 -1.1976125 0
-2.5639205 -4.5517907 -1.2061048 0
-2.5441666 -4.5523481 -1.2039853 0
-2.5374694 -4.5763273 -1.2080704 0
-2.5101976 -4.5631518 -1.2023637 0
-2.4907198 -4.5639119 -1.2003568 0
-2.4789727 -4.5788288 -1.2020874 0
-2.4636478 -4.5871911 -1.2021074 0
-2.4459872 -4.5911708 -1.2009944 0
-2.4143901 -4.5687094 -1.1929946 0
-2.4113133 -4.6001577 -1.1990886 0
-2.404532 -4.6248651 -1.2034206 0
-2.3796263 -4.6146994 -1.1986927 0
-2.3783998 -4.6505332 -1.2059225 0
-2.3588748 -4.650754 -1.2039222 0
-2.3395784 -4.6513009 -1.2020264 0
-2.311758 -4.6346354 -1.1957098 0
-2.3076241 -4.6654444 -1.2016555 0
-2.2909455 -4.6710691 -1.2011191 0
-2.2744029 -4.6769381 -1.2006606 0
-2.2557838 -4.6784701 -1.1991055 0
-2.2398887 -4.685596 -1.1990004 0
-2.2208588 -4.686101 -1.1972173 0
-2.207839 -4.6992769 -1.1986856 0
-2.1947651 -4.7124376 -1.2001588 0
-2.1740284 -4.7091031 -1.1974466 0
-2.1598606 -4.7199345 -1.1983527 0
-2.1515942 -4.7438416 -1.2025841 0
-2.1300359 -4.7384801 -1.1994078 0
-2.1138802 -4.7450194 -1.1992623 0
-2.1023214 -4.7619615 -1.201756 0
-2.0899858 -4.777308 -1.2038537 0
-2.0675378 -4.7694817 -1.200128 0
-2.0549519 -4.7843418 -1.2021267 0
-2.0334399 -4.7783761 -1.198908 0
-2.024168 -4.8012023 -1.2029254 0
-2.0133426 -4.8206124 -1.2060906 0
-1.9806709 -4.7874589 -1.1961277 0
-1.9736687 -4.8161821 -1.2016439 0
-1.9506891 -4.8059678 -1.1974568 0
-1.9360614 -4.8162045 -1.1983833 0
-1.9214544 -4.8265667 -1.1993519 0
-1.9029132 -4.8270264 -1.1978741 0
-1.8820732 -4.8214793 -1.1949247 0
-1.8828447 -4.8716116 -1.205778 0
-1.8557189 -4.8497205 -1.198813 0
-1.833904 -4.841279 -1.1951997 0
-1.8277172 -4.874217 -1.2018116 0
-1.8055764 -4.8647227 -1.1979712 0
-1.794121 -4.8839931 -1.2012286 0
-1.7840716 -4.9074087 -1.2055098 0
-1.7588298 -4.8889627 -1.1995231 0
-1.7498988 -4.9158182 -1.204666 0
-1.7305365 -4.913507 -1.2026709 0
-1.7027451 -4.8868294 -1.194737 0
-1.6977518 -4.9255877 -1.2028142 0
-1.6762085 -4.9165301 -1.1992233 0
-1.6600865 -4.9232249 -1.1994919 0
-1.6430718 -4.9272676 -1.1991278 0
-1.6366036 -4.9632607 -1.2065452 0
-1.6115125 -4.9428301 -1.2002584 0
-1.5984415 -4.959096 -1.2029001 0
-1.5760584 -4.9463902 -1.1985296 0
-1.5600321 -4.9534469 -1.1989653 0
-1.5442652 -4.9613795 -1.1996254 0
-1.5318882 -4.9804001 -1.2029757 0
-1.5119784 -4.9749694 -1.2004328 0
-1.5000405 -4.9958329 -1.2042468 0
-1.4833803 -5.0011659 -1.2043266 0
-1.4595354 -4.9819827 -1.198522 0
-1.4435278 -4.9892826 -1.1991071 0
-1.4248219 -4.9872003 -1.1974517 0
-1.411885 -5.0053935 -1.2006767 0
-1.3876045 -4.9831991 -1.19423 0
-1.3767184 -5.0090337 -1.1993083 0
-1.3579329 -5.006309 -1.1975592 0
-1.3471997 -5.033474 -1.20297 0
-1.3244888 -5.0158949 -1.1977007 0
-1.3056639 -5.0126295 -1.1958688 0
-1.2880311 -5.0137906 -1.1951089 0
-1.2707618 -5.0162973 -1.1946843 0
-1.2639383 -5.0605774 -1.2042139 0
-1.2438847 -5.052279 -1.2012401 0
-1.2266387 -5.0551863 -1.2009467 0
-1.2090716 -5.0567145 -1.20034 0
-1.1892365 -5.0485396 -1.1974461 0
-1.1675951 -5.032208 -1.1926373 0
-1.1575238 -5.0658855 -1.1996924 0
-1.1432861 -5.0819788 -1.202589 0
-1.11843 -5.0505123 -1.1942488 0
-1.1029843 -5.0610895 -1.1958686 0
-1.0948675 -5.106071 -1.205623 0
-1.0748281 -5.0958996 -1.2023638 0
-1.0584816 -5.1030669 -1.2032107 0
-1.0354896 -5.0777707 -1.196421 0
-1.0189896 -5.0838609 -1.1970444 0
-1.005149 -5.1035495 -1.2008799 0
-0.98734057 -5.1033163 -1.2000394 0
-0.96828663 -5.0963984 -1.1976424 0
-0.95265293 -5.1074381 -1.1994793 0
-0.93279696 -5.0957098 -1.1959839 0
-0.91484892 -5.0940318 -1.1948634 0
-0.90732825 -5.1513691 -1.2075921 0
-0.88405341 -5.1196465 -1.1994541 0
-0.86672866 -5.1216683 -1.1992402 0
-0.84655565 -5.1064725 -1.1950108 0
-0.83154577 -5.1223164 -1.1980593 0
-0.81300986 -5.1165352 -1.1960629 0
-0.80026108 -5.1476026 -1.2026914 0
-0.78234816 -5.1459846 -1.2016938 0
-0.76667178 -5.1592216 -1.2041779 0
-0.74740708 -5.1482453 -1.2010243 0
-0.73404741 -5.1782742 -1.2074486 0
-0.71254045 -5.1507711 -1.2004719 0
-0.69613832 -5.1595907 -1.2019767 0
-0.6794619 -5.1666603 -1.2030861 0
-0.65943539 -5.1478333 -1.1981806 0
-0.64033252 -5.1352634 -1.1947484 0
-0.62469345 -5.1504254 -1.1977819 0
-0.61025113 -5.1764932 -1.2033616 0
-0.5898881 -5.1522741 -1.197265 0
-0.57170838 -5.1461058 -1.1953795 0
-0.55917913 -5.1918912 -1.2055726 0
-0.53400904 -5.119349 -1.1883057 0
-0.52119547 -5.1642489 -1.1983155 0
-0.50651509 -5.1930056 -1.2045875 0
-0.4878749 -5.1816516 -1.2015675 0
-0.4706907 -5.18537 -1.202057 0
-0.45275456 -5.1806493 -1.2006041 0
-0.4340114 -5.1658211 -1.1968237 0
-0.4192346 -5.1988153 -1.2041354 0
-0.39893425 -5.1630816 -1.1955423 0
-0.38287202 -5.1813178 -1.199461 0
-0.36557823 -5.1837115 -1.1997247 0
-0.34825695 -5.1858134 -1.1999341 0
-0.3310861 -5.190372 -1.2007254 0
-0.31374019 -5.1924176 -1.2009485 0
-0.29732907 -5.2109632 -1.2050005 0
-0.27857131 -5.188005 -1.1994689 0
-0.26043376 -5.1741762 -1.196063 0
-0.24411213 -5.1969028 -1.2011206 0
-0.22608754 -5.1839581 -1.1979468 0
-0.20891243 -5.1898289 -1.1991349 0
-0.19133089 -5.1856256 -1.1980088 0
-0.17442507 -5.2005992 -1.2013263 0
-0.1574678 -5.2170691 -1.205002 0
-0.13887115 -5.1764193 -1.1954987 0
-0.12226623 -5.2088685 -1.2028915 0
-0.10423284 -5.1809983 -1.196368 0
-0.086966544 -5.1875944 -1.197817 0
-0.069805086 -5.2051601 -1.2018121 0
-0.052017137 -5.1719928 -1.1941072 0
-0.034828775 -5.1949062 -1.1993637 0
-0.017400265 -5.1917791 -1.1986215 0
6.9074904e-06 -5.2061481 -1.2019321 0
0.017381746 -5.1821508 -1.1963986 0
0.034823008 -5.1919909 -1.1986907 0
0.052068271 -5.1757112 -1.1949657 0
0.06978666 -5.2027564 -1.2012571 0
0.087204181 -5.2009459 -1.2008998 0
0.10447094 -5.1921482 -1.1989427 0
0.12222144 -5.2063713 -1.2023149 0
0.13930054 -5.1919107 -1.1990767 0
0.15680307 -5.1945891 -1.1998098 0
0.17448443 -5.2019572 -1.20164 0
0.19116803 -5.1808386 -1.196903 0
0.209574 -5.2059197 -1.202853 0
0.22655666 -5.1943974 -1.2003595 0
0.24345857 -5.1826954 -1.1978371 0
0.26162764 -5.1976209 -1.2014827 0
0.2799271 -5.212996 -1.205247 0
0.29683447 -5.2020521 -1.2029401 0
0.31418616 -5.1995687 -1.2026027 0
0.33180308 -5.2013946 -1.2032756 0
0.34806141 -5.1826959 -1.199213 0
0.36513159 -5.1771827 -1.1982138 0
0.38071299 -5.1519141 -1.1926544 0
0.40097177 -5.1892724 -1.2016072 0
0.41786054 -5.1816044 -1.2001493 0
0.43592164 -5.1883926 -1.2020533 0
0.45440903 -5.1994209 -1.2049547 0
0.46787158 -5.154161 -1.1948225 0
0.48732743 -5.1756902 -1.2001854 0
0.50566125 -5.1841092 -1.2025241 0
0.5208258 -5.160449 -1.1974341 0
0.53931361 -5.1700687 -1.2000792 0
0.55671608 -5.1688933 -1.2002327 0
0.57269317 -5.1548452 -1.1974099 0
0.59144694 -5.1657681 -1.2004011 0
0.60676455 -5.1468005 -1.1964595 0
0.62636214 -5.1640692 -1.2009553 0
0.64621454 -5.1823235 -1.2056975 0
0.66241258 -5.1709657 -1.2035651 0
0.67734396 -5.1504498 -1.1993117 0
0.69395882 -5.1433334 -1.1981899 0
0.70961428 -5.1295185 -1.1955191 0
0.72707897 -5.1290178 -1.1959639 0
0.75067693 -5.1706719 -1.2062565 0
0.76564294 -5.1522045 -1.2025404 0
0.78354764 -5.1537824 -1.2035152 0
0.79959434 -5.1432238 -1.2016689 0
0.81583726 -5.1342406 -1.2002023 0
0.83242297 -5.1276336 -1.1993035 0
0.84947324 -5.1239872 -1.1991102 0
0.86746144 -5.125916 -1.2002354 0
0.88554358 -5.1281953 -1.2014575 0
0.89622098 -5.0882287 -1.1927912 0
0.91721469 -5.1071272 -1.1979357 0
0.93679118 -5.1174531 -1.2010876 0
0.9553929 -5.1220522 -1.2029121 0
0.97036678 -5.1072726 -1.2001985 0
0.9854793 -5.0936232 -1.1977607 0
1.0057914 -5.10674 -1.2016312 0
1.0215137 -5.096384 -1.1999936 0
1.0360265 -5.0803347 -1.1970258 0
1.0560954 -5.0914946 -1.200483 0
1.0742126 -5.0929141 -1.20166 0
1.0867276 -5.0680432 -1.1966448 0
1.109835 -5.0924592 -1.2032816 0
1.120717 -5.0607767 -1.1966766 0
1.1364154 -5.0513754 -1.1953478 0
1.1521769 -5.0424237 -1.194137 0
1.1822466 -5.0952921 -1.207589 0
1.190776 -5.0550141 -1.1989826 0
1.2061237 -5.0443263 -1.1974001 0
1.2276468 -5.0592823 -1.2019205 0
1.2424976 -5.0465875 -1.1998875 0
1.2542698 -5.0218101 -1.1949896 0
1.2698272 -5.0125523 -1.1937931 0
1.2919947 -5.0291638 -1.1987742 0
1.3168732 -5.0556083 -1.2061232 0
1.3273758 -5.0267744 -1.2002994 0
1.3431628 -5.0183377 -1.1993535 0
1.3562158 -4.9999261 -1.1960331 0
1.3763629 -5.007688 -1.198987 0
1.3944426 -5.0077047 -1.2001038 0
1.4169074 -5.0231476 -1.2049364 0
1.4244959 -4.9860091 -1.1971666 0
1.4467446 -5.000351 -1.2017682 0
1.4608526 -4.9864302 -1.1995928 0
1.4747975 -4.9721804 -1.1973475 0
1.4974289 -4.9870868 -1.2021395 0
1.5104679 -4.9699516 -1.199223 0
1.534327 -4.9882817 -1.2048805 0
1.5390429 -4.9445558 -1.1955584 0
1.557892 -4.9466052 -1.1973103 0
1.5729679 -4.9366455 -1.1961694 0
1.587479 -4.9250407 -1.1946404 0
1.6092288 -4.935781 -1.1985477 0
1.6267409 -4.9333067 -1.1992646 0
1.6388835 -4.9146638 -1.1960616 0
1.6511825 -4.8967757 -1.1930488 0
1.6772881 -4.9196544 -1.1999863 0
1.691946 -4.9087014 -1.1986917 0
1.7162092 -4.9254289 -1.204175 0
1.7336854 -4.9224062 -1.2048503 0
1.7375324 -4.8810377 -1.1961439 0
1.7561864 -4.8815742 -1.1977115 0
1.784336 -4.9080954 -1.2056797 0
1.7849152 -4.8588929 -1.1950563 0
1.8157017 -4.891963 -1.2046806 0
1.8261913 -4.8701081 -1.2007997 0
1.8472103 -4.8763671 -1.2038633 0
1.8516498 -4.8390484 -1.1961761 0
1.878305 -4.8598275 -1.2028625 0
1.8944299 -4.8530965 -1.2027619 0
1.9060748 -4.8350081 -1.199856 0
1.9230756 -4.8306017 -1.2003558 0
1.9381119 -4.8212686 -1.1996447 0
1.954103 -4.8143425 -1.1995448 0
1.9668382 -4.7994781 -1.1974775 0
1.9922558 -4.8154244 -1.2031161 0
2.0051627 -4.8009915 -1.2011828 0
2.0163467 -4.7826152 -1.19827 0
2.0304444 -4.7713013 -1.1971343 0
2.0557051 -4.7860603 -1.2025599 0
2.0614583 -4.7554226 -1.1965917 0
2.0864835 -4.769268 -1.2018291 0
2.1040304 -4.7657981 -1.2027255 0
2.1131036 -4.7432423 -1.1988145 0
2.1425672 -4.7663231 -1.2064569 0
2.1528487 -4.7465749 -1.2032784 0
2.1625357 -4.7257476 -1.1998299 0
2.1758065 -4.7129216 -1.198419 0
2.1930032 -4.708622 -1.1991886 0
2.2093976 -4.7025619 -1.199525 0
2.2329504 -4.7115827 -1.203729 0
2.2322195 -4.6695213 -1.1948885 0
2.254225 -4.6752052 -1.1982702 0
2.2697759 -4.6673923 -1.1982114 0
2.2723362 -4.6330953 -1.1913559 0
2.2980337 -4.6460242 -1.1966552 0
2.3090196 -4.6291142 -1.1942869 0
2.3402944 -4.6526933 -1.2023878 0
2.349216 -4.63168 -1.1989862 0
2.3606808 -4.6158566 -1.1969322 0
2.378866 -4.6131949 -1.1983035 0
2.3911333 -4.5990644 -1.1967088 0
2.401195 -4.5808253 -1.1940509 0
2.4287987 -4.5959454 -1.2001082 0
2.4514372 -4.6013713 -1.2036644 0
2.4586606 -4.5778756 -1.1996679 0
2.4868205 -4.5932951 -1.205887 0
2.4993212 -4.5796437 -1.2044963 0
2.511477 -4.5654488 -1.2029707 0
2.5141919 -4.534318 -1.1969824 0
2.535279 -4.5364175 -1.1997739 0
2.5520403 -4.5306716 -1.2005104 0
2.5616279 -4.5122452 -1.197897 0
2.5823202 -4.5133805 -1.2004901 0
2.6057608 -4.5191307 -1.2043366 0
2.6120882 -4.4952083 -1.2002885 0
2.6149142 -4.465538 -1.1947005 0
2.6383731 -4.4711528 -1.1985625 0
2.6474197 -4.4523096 -1.1958841 0
2.6664286 -4.4502444 -1.197724 0
2.6863792 -4.4496355 -1.1999774 0
2.6922374 -4.4257336 -1.1959591 0
2.7083063 -4.418714 -1.1965094 0
2.7314961 -4.4231954 -1.2001959 0
2.7375286 -4.3998966 -1.1963578 0
2.7664967 -4.4133968 -1.2025439 0
2.7749736 -4.3941131 -1.1998179 0
2.7761116 -4.363441 -1.1939777 0
2.8063853 -4.378541 -1.2006775 0
2.8185797 -4.3652811 -1.1996261 0
2.8264747 -4.3454671 -1.1967785 0
2.8532679 -4.3546457 -1.2019343 0
2.8623238 -4.336679 -1.1996175 0
2.8933938 -4.3519449 -1.206517 0
2.8799996 -4.3004556 -1.1949126 0
2.8942344 -4.2905264 -1.1948434 0
2.9184878 -4.2953458 -1.1989038 0
2.9442468 -4.3021564 -1.2035533 0
2.9546936 -4.2865143 -1.201942 0
2.9650536 -4.2708287 -1.2003245 0
2.9821668 -4.2648835 -1.2014569 0
3.0044513 -4.266223 -1.2046653 0
2.997278 -4.2258687 -1.1961013 0
3.0305774 -4.2426014 -1.2037066 0
3.0500102 -4.2396798 -1.2057723 0
3.0527637 -4.213634 -1.201269 0
3.0574663 -4.1904807 -1.197584 0
3.0715387 -4.1802602 -1.1975995 0
3.0996892 -4.189064 -1.2030925 0
3.116725 -4.1826849 -1.2042546 0
3.1131046 -4.1487212 -1.1974745 0
3.1268392 -4.1380515 -1.197414 0
3.1371996 -4.1229496 -1.1960812 0
3.1622956 -4.1271434 -1.2003667 0
3.1658199 -4.1031733 -1.1964757 0
3.1902277 -4.1062679 -1.2004904 0
3.1975529 -4.0873365 -1.1980832 0
3.2198179 -4.0874834 -1.2012838 0
3.2309287 -4.0734177 -1.2003269 0
3.2589138 -4.0805244 -1.2056342 0
3.2716384 -4.0684085 -1.2052885 0
3.269151 -4.0375204 -1.1993783 0
3.2737634 -4.0156121 -1.1961242 0
3.2778139 -3.9931684 -1.1927058 0
3.2993171 -3.991997 -1.1956532 0
3.3309538 -4.0028691 -1.2022477 0
3.3533092 -4.0023646 -1.2054663 0
3.3634024 -3.9871786 -1.2042822 0
3.3654709 -3.9625969 -1.200259 0
3.3750267 -3.9469509 -1.1989406 0
3.4015572 -3.9510801 -1.2036526 0
3.4176743 -3.9429862 -1.2046709 0
3.4324288 -3.9332857 -1.2052164 0
3.4561548 -3.9337721 -1.2089094 0
3.442059 -3.8913376 -1.1994085 0
3.4325366 -3.8544533 -1.1915804 0
3.4826264 -3.8843989 -1.2044408 0
3.4855497 -3.8615322 -1.2009676 0
3.4925625 -3.8433156 -1.1989371 0
3.5214622 -3.8491092 -1.2044208 0
3.5249798 -3.8271101 -1.2012285 0
3.5376687 -3.8151374 -1.2011868 0
3.5502729 -3.8030756 -1.2011302 0
3.5594764 -3.7873974 -1.199941 0
3.5758505 -3.7793477 -1.2011824 0
3.6065078 -3.7862406 -1.2072096 0
3.5936654 -3.7475183 -1.1986983 0
3.6143084 -3.7438371 -1.2013903 0
3.6343429 -3.7394173 -1.2038754 0
3.6339467 -3.7140133 -1.1996125 0
3.666121 -3.7218509 -1.2061075 0
3.6421185 -3.6727707 -1.1941531 0
3.6681485 -3.674298 -1.1986417 0
3.6715 -3.6530764 -1.1957278 0
3.6888647 -3.6458237 -1.1973954 0
3.693907 -3.6264052 -1.1950787 0
3.7348661 -3.6421051 -1.2043726 0
3.7249408 -3.6081402 -1.1972642 0
3.7511277 -3.6092076 -1.201785 0
3.7642233 -3.5975811 -1.2021092 0
3.7816224 -3.5900271 -1.203815 0
3.7806671 -3.5650966 -1.199699 0
3.7868695 -3.547034 -1.1978867 0
3.8136749 -3.5482121 -1.2025959 0
3.8066223 -3.5179133 -1.1966459 0
3.8292146 -3.5150621 -1.2000364 0
3.8459251 -3.5067141 -1.2015818 0
3.8376241 -3.4756527 -1.1953409 0
3.8478663 -3.4615164 -1.1949093 0
3.882273 -3.4689889 -1.2019753 0
3.903542 -3.4645267 -1.2049572 0
3.8840523 -3.4240172 -1.1953907 0
3.8987222 -3.4137876 -1.1963762 0
3.9234262 -3.4122465 -1.2004395 0
3.9388123 -3.4025002 -1.2016499 0
3.9752181 -3.410742 -1.2092609 0
3.9611261 -3.3756592 -1.2015245 0
3.9593966 -3.3513346 -1.1975847 0
3.9762297 -3.3427644 -1.1992795 0
4.002727 -3.3421993 -1.203885 0
4.0061002 -3.3222833 -1.2015425 0
4.007164 -3.3005528 -1.1985357 0
4.0271945 -3.2944508 -1.2012163 0
4.0384655 -3.2811313 -1.20129 0
4.0356331 -3.2564285 -1.197193 0
4.0584378 -3.2524233 -1.2007164 0
4.0573606 -3.2292795 -1.1971877 0
4.0903234 -3.2331731 -1.2037085 0
4.1012235 -3.2195058 -1.2037328 0
4.1247978 -3.2157183 -1.2074808 0
4.1309772 -3.1983252 -1.2061437 0
4.1218243 -3.1691923 -1.2003621 0
4.1256237 -3.1501601 -1.198386 0
4.1385407 -3.1381133 -1.199075 0
4.1488118 -3.1240489 -1.1990094 0
4.1542773 -3.1063931 -1.1975721 0
4.184639 -3.1072757 -1.2033147 0
4.1599889 -3.0673878 -1.1932625 0
4.1992702 -3.0746713 -1.2015662 0
4.2066975 -3.0584967 -1.2007505 0
4.2035618 -3.0347252 -1.1969442 0
4.2360067 -3.0365958 -1.203277 0
4.2480836 -3.0237427 -1.2038211 0
4.2446408 -2.9999013 -1.1999884 0
4.2551022 -2.9859526 -1.2001089 0
4.2811303 -2.9828455 -1.2046224 0
4.286221 -2.9650946 -1.2032506 0
4.3031354 -2.955513 -1.2052104 0
4.3011751 -2.9329913 -1.2019004 0
4.2876625 -2.9027646 -1.1953981 0
4.3062377 -2.8943322 -1.1978647 0
4.3404555 -2.8962514 -1.2046751 0
4.3328691 -2.8702402 -1.1998918 0
4.3605895 -2.8676138 -1.204899 0
4.3651004 -2.8496616 -1.2034986 0
4.3530788 -2.8210437 -1.1975696 0
4.3702617 -2.8114178 -1.1996968 0
4.3678036 -2.789176 -1.1964482 0
4.3652244 -2.766969 -1.1931937 0
4.405508 -2.7718415 -1.2016578 0
4.4216809 -2.7613668 -1.2035371 0
4.4009304 -2.7279408 -1.1953928 0
4.4064069 -2.7109272 -1.1944047 0
4.448348 -2.7162132 -1.203298 0
4.4565649 -2.7007589 -1.2030644 0
4.4661517 -2.686137 -1.2032145 0
4.4661174 -2.6657662 -1.2007905 0
4.470335 -2.6479962 -1.1995307 0
4.4785666 -2.6326277 -1.1993642 0
