# .PCD v0.7 - Point Cloud Data file format
VERSION 0.7
FIELDS x y z intensity
SIZE 4 4 4 4
TYPE F F F F
COUNT 1 1 1 1
WIDTH 1403
HEIGHT 1
VIEWPOINT 0 0 0 1 0 0 0
POINTS 1403
DATA ascii
3.9343693 4.7603765 -1.2004511 0
3.9206166 4.7762575 -1.2011343 0
3.8966815 4.7796865 -1.1987044 0
3.887908 4.8017077 -1.2009512 0
3.8809495 4.8261104 -1.2037932 0
3.8487046 4.8190088 -1.1987964 0
3.8338959 4.8336134 -1.1992251 0
3.8156543 4.8438835 -1.1985924 0
3.8167734 4.8788671 -1.2040756 0
3.7784841 4.8634357 -1.1971339 0
3.7633331 4.8776016 -1.1975083 0
3.7553453 4.9011383 -1.2001888 0
3.7364464 4.9104881 -1.1994038 0
3.7139194 4.9149919 -1.1974558 0
3.6898978 4.9173927 -1.1950197 0
3.7025259 4.9688373 -1.2044982 0
3.6739261 4.9651146 -1.200603 0
3.6571982 4.9773231 -1.2005833 0
3.6309652 4.9765029 -1.1974423 0
3.6203861 4.9971051 -1.1994721 0
3.6066344 5.0134177 -1.2004782 0
3.5868855 5.0213947 -1.1995019 0
3.5826809 5.05123 -1.2037526 0
3.5526593 5.0446606 -1.1993419 0
3.5328805 5.052475 -1.1983768 0
3.5139782 5.0614939 -1.1977147 0
3.511174 5.0938268 -1.2025733 0
3.4809046 5.0863252 -1.1980402 0
3.4690154 5.1055965 -1.1998332 0
3.4517953 5.1170764 -1.1998044 0
3.4407899 5.1378355 -1.2019601 0
3.4244683 5.150732 -1.2022843 0
3.3982885 5.1487141 -1.199147 0
3.3982964 5.1864662 -1.2052791 0
3.3765411 5.1911483 -1.2037295 0
3.3554184 5.1967115 -1.202404 0
3.3291869 5.1942196 -1.1992381 0
3.3214476 5.2205901 -1.2027487 0
3.2910674 5.2113366 -1.1980679 0
3.2892382 5.2473273 -1.2038 0
3.2655239 5.2485175 -1.2015544 0
3.2360902 5.2402997 -1.1971824 0
3.2301581 5.2701373 -1.2015179 0
3.1861098 5.2376041 -1.1916587 0
3.2001684 5.3006597 -1.2035573 0
3.1805975 5.3083878 -1.2028837 0
3.1684239 5.3285108 -1.2050296 0
3.1526055 5.3426032 -1.2058195 0
3.1204 5.3287654 -1.2003282 0
3.1145678 5.3599377 -1.204991 0
3.0831802 5.3471122 -1.1997768 0
3.0676129 5.3615756 -1.2007076 0
3.0395184 5.3540378 -1.1967305 0
3.0337751 5.3859015 -1.2015724 0
3.0095844 5.3850999 -1.1991357 0
2.9861288 5.3854518 -1.1969777 0
2.974725 5.4075565 -1.1996673 0
2.9730544 5.4476914 -1.2063531 0
2.9417446 5.4335651 -1.2010341 0
2.9148579 5.4272876 -1.1974794 0
2.8989856 5.4414239 -1.1984471 0
2.8887856 5.4663653 -1.2018005 0
2.8628037 5.4614487 -1.1986026 0
2.8541942 5.4897075 -1.2026974 0
2.8308082 5.4896197 -1.200592 0
2.8143046 5.50283 -1.2014108 0
2.7947195 5.5100284 -1.2009299 0
2.7698791 5.506742 -1.1981827 0
2.7495375 5.5122633 -1.1973715 0
2.7400727 5.5397115 -1.2013315 0
2.7185879 5.5429635 -1.2000532 0
2.7035182 5.5593057 -1.2016221 0
2.6868782 5.5725174 -1.2025238 0
2.6620846 5.5687447 -1.1997769 0
2.6415498 5.5737376 -1.1989378 0
2.6293671 5.5964403 -1.201918 0
2.600451 5.5834579 -1.1972507 0
2.5949845 5.6208854 -1.2034038 0
2.5673611 5.6104045 -1.1993102 0
2.5640945 5.6532845 -1.2066319 0
2.538049 5.6461067 -1.2032769 0
2.5047944 5.6224632 -1.1964415 0
2.4918225 5.6441784 -1.1992779 0
2.4736032 5.6541438 -1.1996264 0
2.4582939 5.6708531 -1.201416 0
2.4292059 5.6556392 -1.1964607 0
2.4170015 5.6796646 -1.1998221 0
2.3924518 5.6747069 -1.1970736 0
2.3686616 5.6713219 -1.1946775 0
2.3628283 5.7111249 -1.2013865 0
2.3322966 5.6912694 -1.1955581 0
2.3187432 5.7127104 -1.1984222 0
2.3028023 5.7284765 -1.2001033 0
2.2941587 5.7627311 -1.2056613 0
2.2674162 5.7515984 -1.2017349 0
2.2469101 5.7560701 -1.2010883 0
2.2342436 5.7807646 -1.2046713 0
2.2084177 5.7714152 -1.2011732 0
2.1922617 5.7872529 -1.202933 0
2.1674113 5.7800779 -1.1999242 0
2.1571867 5.8120108 -1.2050452 0
2.1349974 5.8118863 -1.2035284 0
2.1098607 5.8035021 -1.2003206 0
2.0857499 5.7976432 -1.1976557 0
2.0640609 5.7983141 -1.196358 0
2.0473857 5.813087 -1.1979829 0
2.0199738 5.7972169 -1.1933099 0
2.016232 5.849525 -1.2026789 0
1.992788 5.845047 -1.2003777 0
1.9715598 5.8468924 -1.1993923 0
1.954332 5.8606272 -1.200859 0
1.9365278 5.8727765 -1.2020112 0
1.9125499 5.8661184 -1.1993294 0
1.8879828 5.8573327 -1.1962321 0
1.8785371 5.8956523 -1.202765 0
1.8483495 5.8688636 -1.1960288 0
1.8319749 5.8856716 -1.1981957 0
1.8184536 5.9120107 -1.2023098 0
1.7945696 5.9047427 -1.1996013 0
1.7702856 5.8958182 -1.1965756 0
1.7587639 5.929554 -1.202219 0
1.7351695 5.9227748 -1.1996582 0
1.7110739 5.9139466 -1.1967013 0
1.6957107 5.9353127 -1.1998676 0
1.6759756 5.9415827 -1.1999924 0
1.655266 5.9443707 -1.1994278 0
1.6351041 5.9490781 -1.1992648 0
1.6133602 5.9479337 -1.1979368 0
1.6009054 5.981318 -1.2035729 0
1.5700216 5.9456744 -1.1953346 0
1.553292 5.963244 -1.197813 0
1.5295172 5.9537334 -1.1948659 0
1.516409 5.9859161 -1.2002976 0
1.4958533 5.9890547 -1.1999145 0
1.4829264 6.0231247 -1.2057375 0
1.4562477 6.0013747 -1.2003994 0
1.4355071 6.0036683 -1.1998887 0
1.411871 5.9935942 -1.1969224 0
1.3963615 6.0180931 -1.2008731 0
1.3730264 6.0089564 -1.1981248 0
1.3551953 6.0238543 -1.2001824 0
1.3338833 6.0233626 -1.1991868 0
1.3137311 6.0280328 -1.1992328 0
1.2986641 6.0564265 -1.2040086 0
1.2688152 6.0155382 -1.1950276 0
1.2565624 6.0579572 -1.2026106 0
1.2337756 6.0500317 -1.2002094 0
1.2164289 6.0688257 -1.2031219 0
1.1947702 6.0662484 -1.20181 0
1.1733935 6.0648909 -1.200755 0
1.1574575 6.0919757 -1.2053423 0
1.1341499 6.0804048 -1.2022938 0
1.1135112 6.08283 -1.2020283 0
1.0940435 6.0917249 -1.2030543 0
1.0713341 6.0824208 -1.2005008 0
1.0506741 6.0844679 -1.2002028 0
1.0270762 6.0690951 -1.1964844 0
1.0089638 6.0860281 -1.199149 0
0.98966891 6.0962515 -1.2005028 0
0.97099864 6.1107049 -1.2027012 0
0.95018172 6.111846 -1.202292 0
0.92493743 6.0837736 -1.1961529 0
0.9065423 6.1003513 -1.1988081 0
0.88484746 6.09484 -1.1971352 0
0.86707914 6.1166182 -1.200835 0
0.84858882 6.1341105 -1.2037039 0
0.82616884 6.123219 -1.2010163 0
0.80058044 6.0875263 -1.1934823 0
0.7836476 6.1173577 -1.198809 0
0.76472169 6.1326928 -1.2013049 0
0.74305266 6.1261282 -1.1995244 0
0.72292441 6.1321111 -1.2002145 0
0.70195389 6.130949 -1.1995196 0
0.68152374 6.1344357 -1.1997479 0
0.66298223 6.1555333 -1.2034327 0
0.64096189 6.1445088 -1.2008504 0
0.6229651 6.1724658 -1.2058992 0
0.60021859 6.1535249 -1.2017988 0
0.57745439 6.1328888 -1.1973836 0
0.557702 6.1437497 -1.1991323 0
0.53771269 6.1525955 -1.2005002 0
0.51895082 6.1766157 -1.2048409 0
0.49648449 6.1565661 -1.2005985 0
0.47456649 6.1417165 -1.1973855 0
0.45476782 6.1540446 -1.1994851 0
0.4335402 6.1471448 -1.1978501 0
0.41450691 6.172081 -1.2024317 0
0.39250863 6.1530237 -1.1984558 0
0.37130222 6.1448011 -1.1966051 0
0.35284472 6.1836371 -1.2039307 0
0.33204004 6.1834793 -1.2036765 0
0.30846107 6.1280365 -1.1926759 0
0.28979835 6.169167 -1.2004851 0
0.26822552 6.1497641 -1.1965277 0
0.24926592 6.1918864 -1.2045538 0
0.22727838 6.1594644 -1.1980915 0
0.2073555 6.1819525 -1.2023238 0
0.18600775 6.1620846 -1.1983317 0
0.16587254 6.1822844 -1.202145 0
0.14507677 6.1799588 -1.2015915 0
0.12384313 6.1549358 -1.1966387 0
0.10374406 6.1874008 -1.2028761 0
0.082657166 6.162282 -1.1979322 0
0.062279992 6.1907811 -1.2034249 0
0.041358151 6.1663585 -1.1986438 0
0.020707473 6.1736746 -1.2000457 0
8.2086553e-06 6.1868305 -1.2025962 0
-0.020659359 6.1642065 -1.1982054 0
-0.041389424 6.1734638 -1.200025 0
-0.062404215 6.2047658 -1.2061435 0
-0.083042927 6.1922669 -1.2037612 0
-0.10372995 6.1875391 -1.2029029 0
-0.12432838 6.1798677 -1.2014859 0
-0.14538184 6.193655 -1.2042544 0
-0.16609612 6.1912293 -1.2038842 0
-0.18583634 6.1569481 -1.1973326 0
-0.20661987 6.1605091 -1.1981533 0
-0.22749527 6.1657858 -1.199321 0
-0.24874343 6.1793156 -1.2021081 0
-0.26940846 6.1772628 -1.2018778 0
-0.28966764 6.1667337 -1.2000115 0
-0.30867115 6.132534 -1.1935511 0
-0.33174646 6.178318 -1.2026715 0
-0.35375896 6.1999483 -1.2071062 0
-0.37367451 6.1843338 -1.2043033 0
-0.39244488 6.1522813 -1.1983111 0
-0.4107812 6.116847 -1.1916709 0
-0.43566334 6.1774826 -1.2037616 0
-0.45382559 6.1415162 -1.1970428 0
-0.47564137 6.1558399 -1.2001388 0
-0.4974806 6.1691227 -1.2030468 0
-0.51713014 6.1551418 -1.2006518 0
-0.5378415 6.1542573 -1.2008243 0
-0.55723423 6.1387777 -1.1981616 0
-0.57984596 6.1584635 -1.2023766 0
-0.59941912 6.1454968 -1.2002306 0
-0.61689556 6.1124897 -1.1941816 0
-0.64007944 6.1362071 -1.1992277 0
-0.66100597 6.1373372 -1.1998749 0
-0.67913556 6.1130872 -1.1955724 0
-0.70190793 6.130692 -1.1994689 0
-0.72378039 6.1395121 -1.2016627 0
-0.74434072 6.1368842 -1.20163 0
-0.76281422 6.117528 -1.198334 0
-0.78401554 6.1203589 -1.1993967 0
-0.80847692 6.1476965 -1.2052785 0
-0.82444406 6.110558 -1.1985326 0
-0.84335661 6.0964079 -1.196305 0
-0.86619258 6.1104808 -1.1996297 0
-0.88708097 6.1103387 -1.200179 0
-0.90514427 6.0910549 -1.1969807 0
-0.92672807 6.0956602 -1.1984895 0
-0.95047814 6.1138597 -1.2026875 0
-0.96836591 6.0942411 -1.1994603 0
-0.98914939 6.0931535 -1.1998922 0
-1.0100462 6.0926576 -1.2004547 0
-1.0286391 6.0784287 -1.198324 0
-1.0486653 6.0729313 -1.1979266 0
-1.0683802 6.0657444 -1.1972088 0
-1.0929188 6.0855546 -1.2018353 0
-1.1164104 6.0987587 -1.2051753 0
-1.1322627 6.0703764 -1.2003102 0
-1.1533275 6.0703263 -1.2010581 0
-1.1684822 6.0395918 -1.1957456 0
-1.1922767 6.0536728 -1.1993181 0
-1.2108674 6.0411625 -1.1976372 0
-1.2341557 6.0519772 -1.2005947 0
-1.2586018 6.0678701 -1.2045779 0
-1.2769383 6.0541301 -1.2026935 0
-1.2927121 6.0287471 -1.1985053 0
-1.3146198 6.0321875 -1.2000587 0
-1.3412865 6.0568695 -1.2058569 0
-1.3555348 6.0254378 -1.2004973 0
-1.3706466 5.9986148 -1.196062 0
-1.3970468 6.0211191 -1.2014763 0
-1.4117405 5.9931121 -1.1968254 0
-1.4293976 5.9781871 -1.1947953 0
-1.4573712 6.006074 -1.2013386 0
-1.4751492 5.9916048 -1.199427 0
-1.491599 5.9720893 -1.1965146 0
-1.524734 6.0188456 -1.2068998 0
-1.5425105 6.0043769 -1.2050288 0
-1.5563928 5.9752131 -1.2002164 0
-1.5737145 5.9597235 -1.1981581 0
-1.5993927 5.9757299 -1.2024474 0
-1.6164607 5.9594264 -1.2002507 0
-1.6412791 5.9716072 -1.2038056 0
-1.6551702 5.944088 -1.1993699 0
-1.6778816 5.9484005 -1.2013685 0
-1.6983457 5.9445953 -1.2017432 0
-1.7124808 5.9188681 -1.1976962 0
-1.7310061 5.9086223 -1.1967906 0
-1.7575669 5.9255762 -1.2014115 0
-1.7696948 5.8939071 -1.1961869 0
-1.7917212 5.8954268 -1.1977078 0
-1.812282 5.8920021 -1.1982397 0
-1.8337183 5.8913279 -1.1993463 0
-1.8535985 5.8855848 -1.1994355 0
-1.8701942 5.8695226 -1.1974334 0
-1.9000283 5.8947568 -1.2038741 0
-1.9176071 5.8816829 -1.2025105 0
-1.9369928 5.8742385 -1.2023095 0
-1.9432745 5.8275199 -1.1940742 0
-1.977 5.8630772 -1.2027113 0
-1.9971155 5.8577905 -1.2029938 0
-2.0134094 5.8413868 -1.2010045 0
-2.0251832 5.8122177 -1.1963966 0
-2.0509734 5.8233232 -1.2000914 0
-2.0691917 5.8127766 -1.1993408 0
-2.0929143 5.8176064 -1.2017784 0
-2.1169324 5.8230019 -1.2043525 0
-2.1315861 5.8026471 -1.201614 0
-2.1457565 5.7812619 -1.1986686 0
-2.1700525 5.7871675 -1.2013949 0
-2.1894035 5.7797537 -1.201373 0
-2.2066298 5.766788 -1.200209 0
-2.2241242 5.7546277 -1.1992234 0
-2.254894 5.7765684 -1.2053645 0
-2.261507 5.7366538 -1.1986111 0
-2.2810328 5.7298036 -1.198771 0
-2.3030446 5.7291231 -1.2002375 0
-2.3255727 5.7295794 -1.2019597 0
-2.3368933 5.7025299 -1.1979222 0
-2.3477969 5.6748357 -1.1937515 0
-2.3850703 5.7106524 -1.2029612 0
-2.3971183 5.6858177 -1.199416 0
-2.4169979 5.679698 -1.1998279 0
-2.4379315 5.6759958 -1.2007657 0
-2.4582231 5.6707306 -1.2013887 0
-2.4729736 5.6527452 -1.1993283 0
-2.4952359 5.6519508 -1.200928 0
-2.5191507 5.6547289 -1.2033062 0
-2.5256588 5.6185832 -1.1974097 0
-2.5510125 5.6244807 -1.2004827 0
-2.5768695 5.6312227 -1.203759 0
-2.5793562 5.5870728 -1.1961632 0
-2.604037 5.5911965 -1.1989086 0
-2.6278841 5.5933223 -1.201247 0
-2.6368313 5.5638199 -1.1968029 0
-2.664351 5.5735235 -1.2008049 0
-2.6900637 5.5791616 -1.2039561 0
-2.7024417 5.5571299 -1.2011503 0
-2.7284935 5.5631971 -1.2044322 0
-2.7376614 5.5348735 -1.2002807 0
-2.7455776 5.5043612 -1.1956533 0
-2.7705667 5.5081458 -1.1984864 0
-2.7808883 5.4827952 -1.1949927 0
-2.8025749 5.4799309 -1.1964097 0
-2.8304749 5.4890089 -1.2004569 0
-2.8469901 5.4758868 -1.1996678 0
-2.8713102 5.4777122 -1.2021701 0
-2.8825738 5.4546456 -1.1992222 0
-2.9093506 5.4609141 -1.202738 0
-2.926527 5.4490495 -1.2022793 0
-2.9435759 5.4369822 -1.2017876 0
-2.9587994 5.4216051 -1.2005748 0
-2.9787185 5.4148507 -1.2012838 0
-2.9950516 5.4015775 -1.2005602 0
-3.0027344 5.3728766 -1.1964121 0
-3.023823 5.3682671 -1.1976364 0
-3.0474386 5.3680224 -1.1998545 0
-3.0708821 5.3673224 -1.2019928 0
-3.0955663 5.3686261 -1.2046022 0
-3.0921764 5.3214364 -1.1963334 0
-3.1242433 5.335361 -1.201812 0
-3.1339312 5.3109889 -1.1986823 0
-3.147814 5.2938819 -1.1971966 0
-3.1879647 5.3207154 -1.2056754 0
-3.1830049 5.2722626 -1.1971074 0
-3.2097907 5.2765646 -1.2005211 0
-3.2181787 5.2506237 -1.1970673 0
-3.2466297 5.2573981 -1.2010866 0
-3.2647607 5.2473221 -1.2012787 0
-3.2970393 5.2598033 -1.20666 0
-3.2986541 5.223381 -1.2008348 0
-3.322495 5.2222667 -1.2031329 0
-3.3295436 5.1948061 -1.1993715 0
-3.3517449 5.191052 -1.2010926 0
-3.3537648 5.1561613 -1.1956146 0
-3.3711207 5.1450205 -1.1956456 0
-3.4125695 5.1703811 -1.2041911 0
-3.4209921 5.1455331 -1.2010688 0
-3.4450955 5.1442938 -1.2034688 0
-3.4719746 5.1470208 -1.2068233 0
-3.4794803 5.1210279 -1.2034574 0
-3.4949505 5.1068778 -1.2028791 0
-3.5114365 5.0942369 -1.2026678 0
-3.5183921 5.0678802 -1.1992238 0
-3.542047 5.0656128 -1.2014906 0
-3.5632265 5.0596943 -1.2029138 0
-3.5765805 5.0426574 -1.2017075 0
-3.5823884 5.0151272 -1.1980025 0
-3.6046209 5.0106468 -1.1998125 0
-3.6029677 4.9730911 -1.1937056 0
-3.6358261 4.9831929 -1.1990497 0
-3.6727264 4.9984841 -1.2056853 0
-3.686018 4.9814839 -1.2045588 0
-3.6855476 4.9460797 -1.1989791 0
-3.7076344 4.9410567 -1.2007682 0
-3.7160079 4.9177833 -1.1981333 0
-3.7558498 4.9360156 -1.2056365 0
-3.7520096 4.8968115 -1.1991268 0
-3.7717445 4.8885303 -1.200189 0
-3.7934873 4.8827739 -1.2018915 0
-3.7894106 4.8439169 -1.1954476 0
-3.8239138 4.8543954 -1.2011909 0
-3.8460789 4.8489995 -1.2030399 0
-3.8467963 4.8166456 -1.1982061 0
-3.8562596 4.7954335 -1.1961389 0
-3.8987627 4.8151398 -1.204308 0
-3.8997471 4.7834725 -1.1996512 0
-3.9340258 4.7926188 -1.2052463 0
-3.939563 4.766686 -1.2020397 0
-3.9491506 4.7457929 -1.2001033 0
-3.9491911 4.7136087 -1.1953062 0
-3.9777577 4.7154975 -1.1991605 0
-4.0075331 4.7186036 -1.2033606 0
-3.9913158 4.6676998 -1.1937848 0
-4.0376301 4.6899362 -1.2029275 0
-4.0288424 4.648119 -1.1956596 0
-4.0651364 4.6583424 -1.2017888 0
-4.079205 4.6429486 -1.201339 0
-4.0947523 4.6292496 -1.20134 0
-4.1005788 4.6046338 -1.1985132 0
-4.1368718 4.6141458 -1.2045925 0
-4.1459846 4.5932317 -1.2027547 0
-4.1558552 4.573246 -1.2011633 0
-4.1467271 4.5325747 -1.1941259 0
-4.1829948 4.5415487 -1.2001783 0
-4.1992874 4.5286722 -1.2004895 0
-4.19836 4.4973345 -1.195907 0
-4.2316871 4.5026751 -1.2010933 0
-4.2309179 4.4717183 -1.1966127 0
-4.2477589 4.4594727 -1.1971403 0
-4.2657609 4.4484115 -1.1980036 0
-4.2685776 4.4215775 -1.1946245 0
-4.2907944 4.4148712 -1.1966928 0
-4.3145008 4.4095855 -1.1991744 0
-4.3168268 4.3824716 -1.1957302 0
-4.3296261 4.3660874 -1.1952139 0
-4.3693175 4.3766661 -1.2021134 0
-4.3836541 4.3616805 -1.2020276 0
-4.3814187 4.3303199 -1.1974267 0
-4.3963408 4.3160257 -1.1975433 0
-4.4119911 4.3024359 -1.1978703 0
-4.4308462 4.291934 -1.1990757 0
-4.4459572 4.2777715 -1.1992769 0
-4.4548063 4.2576146 -1.1978065 0
-4.4741979 4.2475357 -1.1991845 0
-4.4609075 4.2065725 -1.1918356 0
-4.5278878 4.2411442 -1.2059251 0
-4.5164351 4.2020769 -1.1991158 0
-4.5229602 4.179944 -1.1971205 0
-4.5615292 4.1873193 -1.2036062 0
-4.5602856 4.1580896 -1.1995927 0
-4.5614672 4.1312442 -1.1962532 0
-4.6036944 4.1414766 -1.203679 0
-4.6187634 4.127099 -1.2039943 0
-4.6241803 4.1041393 -1.2018125 0
-4.6335492 4.084764 -1.2006813 0
-4.6237822 4.0486841 -1.1946262 0
-4.6717339 4.0630798 -1.2034888 0
-4.6780233 4.0410814 -1.201612 0
-4.6779294 4.0136909 -1.1981244 0
-4.6889868 3.9959612 -1.1975181 0
-4.700182 3.9783754 -1.196964 0
-4.7330451 3.9790308 -1.2019289 0
-4.7561173 3.971287 -1.2043998 0
-4.7421517 3.9327161 -1.1975175 0
-4.7639537 3.9239135 -1.199694 0
-4.7518177 3.8872507 -1.193349 0
-4.7752905 3.8798003 -1.1959703 0
-4.7881246 3.8636491 -1.1959336 0
-4.8219228 3.8642995 -1.2011324 0
-4.8443589 3.8556776 -1.2034943 0
-4.8319345 3.819396 -1.1972196 0
-4.8679137 3.8213871 -1.202953 0
-4.8603044 3.7891448 -1.1979263 0
-4.8845258 3.7817655 -1.2007642 0
-4.8663554 3.7416685 -1.1932067 0
-4.9058394 3.7459223 -1.1998018 0
-4.9346561 3.741801 -1.2037743 0
-4.9181247 3.7033606 -1.1967058 0
-4.9468975 3.6991017 -1.2006825 0
-4.9609308 3.6837263 -1.201084 0
-4.9763827 3.6693797 -1.2018397 0
-4.9983053 3.6597385 -1.204164 0
-4.9830956 3.6230001 -1.1975666 0
-5.0043497 3.6128676 -1.1997567 0
-5.0292125 3.6052284 -1.2028127 0
-5.0368347 3.5851874 -1.2017539 0
-5.0304403 3.5552855 -1.1973776 0
-5.0792041 3.5642736 -1.2061332 0
-5.0738277 3.5351713 -1.2020351 0
-5.0869303 3.5190241 -1.2023373 0
-5.0782228 3.4878845 -1.1975085 0
-5.1092281 3.4840264 -1.2020586 0
-5.0934567 3.4483104 -1.1956211 0
-5.1231198 3.4433992 -1.1998672 0
-5.144063 3.4324932 -1.2020701 0
-5.1339707 3.4009371 -1.1970404 0
-5.1289172 3.3729014 -1.1932187 0
-5.1557341 3.3658292 -1.1968254 0
-5.1899767 3.363421 -1.2021497 0
-5.1728568 3.3277519 -1.1955931 0
-5.2125101 3.3286052 -1.202172 0
-5.2207108 3.3092525 -1.2014977 0
-5.2252445 3.2876198 -1.1999975 0
-5.2572613 3.2832112 -1.2048154 0
-5.2491794 3.2537515 -1.2004564 0
-5.2523656 3.2314005 -1.1987007 0
-5.2794089 3.2236879 -1.202399 0
-5.2995653 3.211652 -1.2045305 0
-5.2751093 3.1726978 -1.1965474 0
-5.3235321 3.1775651 -1.2051077 0
-5.3025942 3.1410027 -1.1979772 0
-5.3069201 3.1195762 -1.1965847 0
-5.327251 3.1075413 -1.1988128 0
-5.3448362 3.0938282 -1.2004291 0
-5.3665619 3.0824285 -1.2029808 0
-5.3717833 3.0615208 -1.2018434 0
-5.361464 3.0318704 -1.1972537 0
-5.3720832 3.0141487 -1.1973615 0
-5.3641567 2.986099 -1.1933566 0
-5.4153781 2.9908733 -1.2025141 0
-5.4123964 2.9655881 -1.1996373 0
-5.4164987 2.9442666 -1.1983519 0
-5.4104838 2.9175391 -1.1948501 0
-5.423955 2.9013724 -1.1956701 0
-5.4481435 2.8908598 -1.1988589 0
-5.4492297 2.8680634 -1.1969752 0
-5.4772744 2.8594139 -1.2010229 0
-5.4624896 2.8284297 -1.1956948 0
-5.5078211 2.8285246 -1.2035348 0
-5.5084443 2.8055451 -1.2016088 0
-5.498662 2.7773838 -1.1974368 0
-5.520555 2.7652495 -1.2001786 0
-5.5275741 2.7456212 -1.1996965 0
-5.5333877 2.7254176 -1.1989683 0
-5.5570045 2.7139363 -1.2021072 0
-5.5439692 2.6845863 -1.1973336 0
-5.5768542 2.6774652 -1.2024902 0
-5.5652657 2.648978 -1.1980696 0
-5.6027966 2.6438375 -1.204234 0
-5.5925398 2.6161079 -1.2001376 0
-5.5818791 2.5883462 -1.1959808 0
-5.6172285 2.5818901 -1.2016932 0
-5.6124129 2.5569189 -1.1988223 0
-5.6288371 2.5416465 -1.2005035 0
-5.6250648 2.5172725 -1.1978922 0
-5.6533284 2.5072041 -1.2021141 0
-5.6456337 2.4811733 -1.1987023 0
-5.6334996 2.4533374 -1.1943728 0
-5.6637816 2.4439666 -1.1990489 0
-5.6589217 2.4193957 -1.196296 0
-5.6784739 2.4052684 -1.1987178 0
-5.698812 2.3913798 -1.2013118 0
-5.7039742 2.3710854 -1.2007174 0
-5.7194781 2.3550715 -1.2023122 0
-5.7210245 2.3333054 -1.2009859 0
-5.7524128 2.3236427 -1.2059329 0
-5.726541 2.2908893 -1.1988922 0
-5.7612877 2.2824116 -1.2045577 0
-5.7657504 2.2618434 -1.2038984 0
-5.7603207 2.2374573 -1.2011915 0
-5.7457542 2.2096572 -1.1966025 0
-5.7632613 2.1942372 -1.1987095 0
-5.7989392 2.1855881 -1.2045994 0
-5.7955761 2.1621568 -1.202388 0
-5.7957931 2.1401284 -1.2009377 0
-5.7957563 2.1180604 -1.1994518 0
-5.8035283 2.0988705 -1.1995971 0
-5.8447666 2.0916519 -1.2066648 0
-5.8188796 2.060406 -1.1998874 0
-5.82587 2.040925 -1.1999111 0
-5.844799 2.0255804 -1.2024041 0
-5.8536034 2.0066738 -1.2028246 0
-5.8351603 1.9785129 -1.197665 0
-5.875751 1.9703356 -1.2046335 0
-5.8725762 1.9473919 -1.2026373 0
-5.8876963 1.9305189 -1.2044014 0
-5.8877053 1.9086831 -1.2030874 0
-5.865664 1.8798279 -1.1972889 0
-5.904563 1.8704872 -1.2039419 0
-5.9017243 1.847838 -1.2020932 0
-5.8953228 1.8241527 -1.1995368 0
-5.8798442 1.797784 -1.1951541 0
-5.9108434 1.7856137 -1.2002314 0
-5.8994179 1.760599 -1.1967061 0
-5.9182549 1.7446321 -1.1993339 0
-5.9352651 1.7280385 -1.2016001 0
-5.9422874 1.7084919 -1.2018553 0
-5.9246693 1.6819407 -1.1971446 0
-5.9454155 1.6663102 -1.200201 0
-5.9358473 1.6421834 -1.1971513 0
-5.9403358 1.6220038 -1.1969529 0
-5.9600687 1.6059386 -1.1998374 0
-5.9777808 1.5892328 -1.2023237 0
-5.9863286 1.5700347 -1.2029774 0
-6.0042262 1.5532317 -1.2055206 0
-5.9905252 1.5282767 -1.2017343 0
-6.0071707 1.5110897 -1.2040503 0
-5.9793501 1.4827931 -1.1974709 0
-6.0220861 1.4719762 -1.2050344 0
-6.0005436 1.4454072 -1.1997472 0
-6.0123825 1.426948 -1.2011509 0
-6.0005984 1.4029157 -1.1978502 0
-6.0151429 1.3850628 -1.1998199 0
-6.0310292 1.3674442 -1.2020674 0
-6.0224833 1.3442922 -1.199459 0
-6.0414186 1.3272696 -1.2023371 0
-6.0504131 1.3079962 -1.2032477 0
-6.044745 1.2855719 -1.2012565 0
-6.0419655 1.263822 -1.1998553 0
-6.0528312 1.2449275 -1.2011775 0
-6.0407925 1.2213556 -1.197969 0
-6.0350661 1.1991503 -1.1960293 0
-6.0533395 1.1816981 -1.1988587 0
-6.0838032 1.1664835 -1.2041107 0
-6.0801454 1.1446607 -1.2026205 0
-6.0838232 1.1242454 -1.2025956 0
-6.0800891 1.1024867 -1.20112 0
-6.0776443 1.081009 -1.1999143 0
-6.0761733 1.0597429 -1.1989156 0
-6.0875783 1.040713 -1.2004708 0
-6.1040878 1.0224832 -1.2030437 0
-6.0889916 0.99897814 -1.1994015 0
-6.1023135 0.98016459 -1.2013716 0
-6.0836949 0.95626146 -1.1970681 0
-6.0975084 0.93749475 -1.1991609 0
-6.0947838 0.91616875 -1.1980143 0
-6.1107502 0.89762813 -1.2005544 0
-6.0753069 0.87162298 -1.1930101 0
-6.1298037 0.85847652 -1.2031397 0
-6.1245899 0.83681864 -1.2015588 0
-6.1630807 0.82103789 -1.2085634 0
-6.1256251 0.79515475 -1.2006888 0
-6.1027598 0.77138942 -1.1956934 0
-6.1433964 0.7556079 -1.2031521 0
-6.1402731 0.73433363 -1.2020514 0
-6.134304 0.71276665 -1.2004082 0
-6.1308451 0.6915397 -1.199271 0
-6.1111712 0.66857797 -1.1949773 0
-6.1221352 0.64901292 -1.1966889 0
-6.123085 0.62836057 -1.1964561 0
-6.1515789 0.61044943 -1.2016171 0
-6.1385841 0.58838248 -1.1986867 0
-6.1579409 0.56940836 -1.2020869 0
-6.1448345 0.54742414 -1.1991634 0
-6.1431794 0.5265224 -1.1984892 0
-6.1682053 0.50784045 -1.2030326 0
-6.1412835 0.48489937 -1.197458 0
-6.1560359 0.46530086 -1.2000235 0
-6.1533613 0.44435492 -1.199205 0
-6.1522684 0.42354593 -1.1987085 0
-6.1430197 0.40221986 -1.196637 0
-6.1544948 0.38225234 -1.198616 0
-6.1338396 0.3603287 -1.1943513 0
-6.1586113 0.34106791 -1.1989453 0
-6.1930408 0.32215065 -1.205431 0
-6.1799116 0.30069503 -1.2026724 0
-6.1669841 0.27934361 -1.1999676 0
-6.1668873 0.25862342 -1.1997733 0
-6.1839771 0.23857275 -1.2029357 0
-6.1369581 0.21615466 -1.1936418 0
-6.1550698 0.19613253 -1.1970298 0
-6.1730618 0.17598981 -1.2004074 0
-6.1513782 0.1547323 -1.1960832 0
-6.1745367 0.13460131 -1.2004917 0
-6.1677213 0.11376511 -1.1990857 0
-6.1825862 0.093304358 -1.201908 0
-6.2023478 0.072803497 -1.2056955 0
-6.1774807 0.05179752 -1.2008209 0
-6.165606 0.031024849 -1.1984857 0
-6.1695409 0.010359053 -1.1992371 0
-6.1911998 1.6428905e-05 -1.2034454 0
-7.5613189 -0.012695937 -1.1975951 0
-7.5954199 -0.038219564 -1.2030097 0
-7.5575824 -0.063369527 -1.1970437 0
-7.5777793 -0.088948384 -1.2002832 0
-7.5370045 -0.11374453 -1.1938784 0
-7.5619049 -0.13948116 -1.19789 0
-7.5709686 -0.16504273 -1.1994067 0
-7.5740929 -0.19051941 -1.1999961 0
-7.5600667 -0.21553238 -1.1978816 0
-7.5731659 -0.24132043 -1.2000786 0
-7.5596299 -0.26626372 -1.1980684 0
-7.5871491 -0.29270598 -1.2025785 0
-7.5785704 -0.31782576 -1.2013808 0
-7.5533757 -0.34214246 -1.197562 0
-7.5802078 -0.36882904 -1.2020055 0
-7.5772352 -0.39415389 -1.2017369 0
-7.5865321 -0.42014712 -1.203428 0
-7.5365834 -0.44273204 -1.1957337 0
-7.5709152 -0.47022545 -1.201424 0
-7.5516286 -0.49444985 -1.1986197 0
-7.5510969 -0.51984668 -1.1988052 0
-7.5292068 -0.54370934 -1.1956127 0
-7.5919538 -0.573834 -1.2058754 0
-7.5420518 -0.59550029 -1.1982596 0
-7.5399604 -0.62077975 -1.1982514 0
-7.5500774 -0.6471054 -1.2001971 0
-7.5520077 -0.67278481 -1.2008559 0
-7.5652156 -0.69953531 -1.2033222 0
-7.5529113 -0.72394562 -1.2017444 0
-7.5344734 -0.74768043 -1.1992029 0
-7.5408149 -0.77385026 -1.2006184 0
-7.5436945 -0.79971367 -1.2014971 0
-7.5593534 -0.82701284 -1.2044259 0
-7.5311203 -0.84948623 -1.2003746 0
-7.5309119 -0.87504357 -1.2008023 0
-7.5316296 -0.90073013 -1.2013915 0
-7.5049639 -0.92307407 -1.1976249 0
-7.4987192 -0.94783884 -1.1971289 0
-7.4973512 -0.9732157 -1.1974247 0
-7.5311003 -1.0032837 -1.2033453 0
-7.5117974 -1.0263565 -1.2008041 0
-7.4973507 -1.0500009 -1.1990507 0
-7.4863715 -1.0740682 -1.1978641 0
-7.4734335 -1.0977972 -1.1963761 0
-7.4981165 -1.127118 -1.2009256 0
-7.503345 -1.1536428 -1.2023758 0
-7.485569 -1.176614 -1.2001526 0
-7.4941225 -1.2037195 -1.2021644 0
-7.4715581 -1.2258061 -1.1991973 0
-7.4739933 -1.2519534 -1.2002552 0
-7.4655309 -1.2762833 -1.1995766 0
-7.4241309 -1.2948397 -1.1936152 0
-7.457561 -1.3264499 -1.1996982 0
-7.4289017 -1.3470635 -1.1958077 0
-7.4406133 -1.3749702 -1.1984282 0
-7.4569073 -1.4038527 -1.2018039 0
-7.4429255 -1.4270761 -1.2003149 0
-7.4592943 -1.4561604 -1.2037354 0
-7.4151049 -1.4733599 -1.1973947 0
-7.4326024 -1.502758 -1.2010272 0
-7.4438467 -1.5310273 -1.2036668 0
-7.4170732 -1.5514587 -1.2001718 0
-7.4121957 -1.5763959 -1.2002312 0
-7.4252853 -1.6052201 -1.2032155 0
-7.3976822 -1.6252339 -1.1996188 0
-7.4071465 -1.653366 -1.2020457 0
-7.387629 -1.6750324 -1.199783 0
-7.3632488 -1.6954812 -1.19674 0
-7.3620338 -1.7212139 -1.1974738 0
-7.370121 -1.7491866 -1.1997365 0
-7.3602052 -1.7729216 -1.1990832 0
-7.336174 -1.7931781 -1.1961409 0
-7.3414187 -1.8205665 -1.1979846 0
-7.3386879 -1.8460296 -1.1985422 0
-7.3359442 -1.8715141 -1.1991122 0
-7.3516293 -1.9017911 -1.2027115 0
-7.3070297 -1.9164151 -1.1964595 0
-7.3253517 -1.9474936 -1.2005221 0
-7.3009105 -1.9672279 -1.1975907 0
-7.2861924 -1.989489 -1.1962639 0
-7.2928591 -2.0176079 -1.1984624 0
-7.2746258 -2.0388455 -1.1965827 0
-7.2837768 -2.0677745 -1.1992215 0
-7.2806401 -2.0932872 -1.1998539 0
-7.3006849 -2.1255774 -1.204325 0
-7.2785044 -2.1456175 -1.201846 0
-7.2704358 -2.1697602 -1.2017082 0
-7.2449236 -2.1886275 -1.1986974 0
-7.2325006 -2.2113638 -1.1978621 0
-7.257328 -2.2455893 -1.2032143 0
-7.2287698 -2.2633376 -1.1997309 0
-7.2296023 -2.2902422 -1.2011367 0
-7.2419405 -2.3208969 -1.2044728 0
-7.2072897 -2.3364675 -1.2000058 0
-7.1846981 -2.3557932 -1.1975527 0
-7.1853318 -2.3827116 -1.1989832 0
-7.1783924 -2.4071548 -1.1991652 0
-7.1730685 -2.4321542 -1.1996313 0
-7.165112 -2.4562721 -1.1996713 0
-7.13515 -2.4727659 -1.196036 0
-7.1482735 -2.5041907 -1.1996365 0
-7.1552854 -2.5336134 -1.2022321 0
-7.1444755 -2.5567756 -1.2018495 0
-7.1242042 -2.5764987 -1.1998858 0
-7.1334577 -2.6069236 -1.2029097 0
-7.1172957 -2.6281006 -1.2016635 0
-7.0883474 -2.6444511 -1.1982661 0
-7.1234078 -2.684773 -1.2057079 0
-7.0891972 -2.6990588 -1.2014425 0
-7.0837502 -2.7242129 -1.2020605 0
-7.0740223 -2.7477329 -1.2019663 0
-7.0307388 -2.7580853 -1.1961764 0
-7.061512 -2.7975128 -1.203001 0
-7.0212364 -2.8088291 -1.1977373 0
-7.0222063 -2.836566 -1.1995184 0
-6.9818373 -2.8475246 -1.1942468 0
-6.9658008 -2.8682616 -1.1931421 0
-6.9829059 -2.9027247 -1.1977321 0
-6.9814315 -2.9296024 -1.1991572 0
-6.9958124 -2.9632621 -1.2033272 0
-6.9861379 -2.9868293 -1.2033788 0
-6.9771647 -3.0107019 -1.2035652 0
-6.9524889 -3.0277452 -1.201053 0
-6.9721193 -3.0641444 -1.2062123 0
-6.9191389 -3.0685804 -1.1988195 0
-6.920558 -3.0970185 -1.2008578 0
-6.9106073 -3.1204176 -1.2009398 0
-6.9112988 -3.148669 -1.2028878 0
-6.8746781 -3.1598616 -1.1983513 0
-6.8841314 -3.1922073 -1.201858 0
-6.862216 -3.2100437 -1.1999042 0
-6.8707767 -3.2421699 -1.2032951 0
-6.8620982 -3.2662497 -1.2036864 0
-6.8357611 -3.2818701 -1.20099 0
-6.8364224 -3.3104379 -1.2030494 0
-6.8017306 -3.3218372 -1.1988977 0
-6.8039689 -3.3512306 -1.2012661 0
-6.7802343 -3.3678348 -1.1990625 0
-6.7664518 -3.3893201 -1.1986279 0
-6.7447367 -3.4067786 -1.196798 0
-6.7566652 -3.4412854 -1.2009552 0
-6.7545705 -3.4687891 -1.2026433 0
-6.7460079 -3.4930243 -1.2031971 0
-6.6823273 -3.488512 -1.1939187 0
-6.7009311 -3.5268643 -1.1993486 0
-6.683413 -3.5463107 -1.1983346 0
-6.6937532 -3.5806105 -1.2023344 0
-6.6600094 -3.5913312 -1.1984293 0
-6.6588182 -3.619559 -1.2003921 0
-6.6605778 -3.6494982 -1.2029083 0
-6.6213675 -3.6569326 -1.1980345 0
-6.6321516 -3.6919615 -1.2022187 0
-6.6035175 -3.7050774 -1.1992732 0
-6.5773821 -3.7194633 -1.1967849 0
-6.5800023 -3.7501168 -1.1995426 0
-6.5538611 -3.7643857 -1.1970713 0
-6.5542116 -3.7938681 -1.1994518 0
-6.5559759 -3.8242927 -1.2021146 0
-6.5244813 -3.8352976 -1.1986908 0
-6.5130639 -3.858027 -1.1989629 0
-6.5082512 -3.8847125 -1.2004679 0
-6.4906411 -3.9037757 -1.1996272 0
-6.4612002 -3.915628 -1.1966054 0
-6.4908366 -3.9634039 -1.2045484 0
-6.4457235 -3.9655876 -1.1986371 0
-6.4424357 -3.9934027 -1.2005088 0
-6.420228 -4.0094957 -1.1988689 0
-6.41432 -4.0357623 -1.2002856 0
-6.402884 -4.0585966 -1.2006853 0
-6.3904014 -4.0807829 -1.2009034 0
-6.3820348 -4.1056285 -1.2019112 0
-6.336751 -4.1066008 -1.1959695 0
-6.3339777 -4.135025 -1.1980559 0
-6.3230953 -4.1582222 -1.1986278 0
-6.3137941 -4.1824965 -1.1995162 0
-6.3127379 -4.2123184 -1.2019919 0
-6.2825785 -4.2227054 -1.1989384 0
-6.2684979 -4.2438221 -1.1989599 0
-6.2420244 -4.2564898 -1.1966194 0
-6.2529249 -4.2947073 -1.2014627 0
-6.2093344 -4.2954783 -1.1958475 0
-6.2434602 -4.3501086 -1.205222 0
-6.2232833 -4.3671179 -1.2041467 0
-6.2090831 -4.3882961 -1.2042394 0
-6.1973867 -4.4112616 -1.2048326 0
-6.1601567 -4.4159541 -1.2004664 0
-6.1462445 -4.437253 -1.2006477 0
-6.113513 -4.4448795 -1.1971582 0
-6.121563 -4.482183 -1.2016706 0
-6.0951562 -4.4943175 -1.1994382 0
-6.0713329 -4.5082526 -1.1977179 0
-6.0715938 -4.5401068 -1.2007656 0
-6.0698624 -4.5706224 -1.2034471 0
-6.0281353 -4.5709534 -1.1982058 0
-6.0309954 -4.6050506 -1.2018366 0
-6.0027175 -4.6154003 -1.1992784 0
-5.9963732 -4.6425958 -1.2011141 0
-5.9838161 -4.6650462 -1.201725 0
-5.9621162 -4.6803527 -1.2005118 0
-5.947331 -4.7010598 -1.2007017 0
-5.9322309 -4.7215271 -1.2008425 0
-5.90977 -4.7361031 -1.1995034 0
-5.9003172 -4.7611032 -1.2008181 0
-5.8668404 -4.7666564 -1.1972508 0
-5.8633046 -4.7965083 -1.1998043 0
-5.8616414 -4.8280435 -1.2027698 0
-5.8322492 -4.8367457 -1.2000594 0
-5.8152356 -4.8556347 -1.1999017 0
-5.792233 -4.8694811 -1.1985176 0
-5.77986 -4.8922477 -1.1993446 0
-5.7616763 -4.910109 -1.1989808 0
-5.7492337 -4.9328766 -1.1998266 0
-5.7276316 -4.9477787 -1.1987735 0
-5.7060695 -4.9626575 -1.1977365 0
-5.7119532 -5.0015101 -1.2024846 0
-5.6840839 -5.0108762 -1.2001477 0
-5.6711116 -5.0333314 -1.2009652 0
-5.6518068 -5.0501757 -1.200456 0
-5.6323962 -5.0668955 -1.1999348 0
-5.6258092 -5.0952005 -1.2021642 0
-5.5922198 -5.0990124 -1.1986331 0
-5.5511246 -5.0957317 -1.19348 0
-5.5780087 -5.1549783 -1.2029693 0
-5.5493584 -5.1631055 -1.2005171 0
-5.5216794 -5.1720004 -1.1982739 0
-5.5226374 -5.2077689 -1.2022642 0
-5.4821024 -5.20438 -1.1972319 0
-5.4916229 -5.2485366 -1.2031473 0
-5.4516482 -5.2454185 -1.1982358 0
-5.4418054 -5.2711983 -1.1999501 0
-5.4108586 -5.2765002 -1.1970205 0
-5.4059615 -5.3072019 -1.1998668 0
-5.4018526 -5.3388529 -1.2029212 0
-5.3558078 -5.3289609 -1.1966395 0
-5.3416276 -5.3506112 -1.1974728 0
-5.3364115 -5.3813515 -1.2003415 0
-5.3123684 -5.3931518 -1.1989939 0
-5.2962003 -5.4129195 -1.1994343 0
-5.2976718 -5.4508648 -1.2038997 0
-5.2596736 -5.4481978 -1.199409 0
-5.234684 -5.4588218 -1.1978773 0
-5.2365236 -5.497519 -1.2025095 0
-5.2065544 -5.5028825 -1.1998576 0
-5.1854711 -5.5175371 -1.1992552 0
-5.1888242 -5.558332 -1.204334 0
-5.1305947 -5.53303 -1.195118 0
-5.1416063 -5.5823293 -1.2020361 0
-5.1205683 -5.5970306 -1.2014982 0
-5.1199226 -5.6341391 -1.2057723 0
-5.075551 -5.6230755 -1.1997558 0
-5.0512252 -5.6339889 -1.1984642 0
-5.0633869 -5.6857929 -1.2058659 0
-5.0191431 -5.6743026 -1.1998532 0
-5.0046496 -5.6962886 -1.2009473 0
-4.9686704 -5.6937246 -1.1968879 0
-4.9682708 -5.7319469 -1.2014141 0
-4.9280634 -5.724225 -1.1963257 0
-4.9252625 -5.7599173 -1.2003272 0
-4.9152303 -5.7873569 -1.2026043 0
-4.8888869 -5.7956104 -1.2009065 0
-4.8638554 -5.8053188 -1.1995323 0
-4.8378768 -5.8137975 -1.1979259 0
-4.8196945 -5.831604 -1.1982585 0
-4.8110485 -5.8610497 -1.2009877 0
-4.7917938 -5.877667 -1.2010939 0
-4.785028 -5.9097157 -1.2043577 0
-4.7578778 -5.9166365 -1.2025105 0
-4.7124448 -5.9005404 -1.1960211 0
-4.7047019 -5.9315205 -1.1990966 0
-4.6821308 -5.9438882 -1.1984165 0
-4.659647 -5.9563203 -1.1977665 0
-4.6411982 -5.9739022 -1.198166 0
-4.621244 -5.9895601 -1.1981922 0
-4.6137819 -6.0215254 -1.2014854 0
-4.5977664 -6.0424795 -1.2025838 0
-4.5581288 -6.0322499 -1.1974995 0
-4.5461106 -6.0584698 -1.199672 0
-4.5213165 -6.0676985 -1.198491 0
-4.5048256 -6.0880647 -1.1995236 0
-4.4800653 -6.0972514 -1.1983674 0
-4.450923 -6.1003489 -1.1960365 0
-4.4390144 -6.1270666 -1.19835 0
-4.4289145 -6.1564665 -1.2011889 0
-4.4062228 -6.1684456 -1.2006371 0
-4.3743048 -6.1673765 -1.1975676 0
-4.3670797 -6.2011466 -1.201275 0
-4.346837 -6.2165732 -1.2014334 0
-4.3060217 -6.2023792 -1.1958933 0
-4.3012538 -6.2400684 -1.2003729 0
-4.2907839 -6.2697625 -1.2033108 0
-4.2544045 -6.2615457 -1.1989894 0
-4.2288327 -6.2690234 -1.1976997 0
-4.2275229 -6.3126321 -1.2033163 0
-4.1865597 -6.2970281 -1.1976595 0
-4.1625872 -6.3067322 -1.196844 0
-4.1280146 -6.3001962 -1.1929704 0
-4.1321001 -6.3527937 -1.2002999 0
-4.1093974 -6.3644748 -1.1998968 0
-4.09442 -6.3881783 -1.2017708 0
-4.0770497 -6.4082689 -1.2029719 0
-4.0397916 -6.3969636 -1.1983004 0
-4.0258851 -6.4225392 -1.2005559 0
-4.0054464 -6.4377975 -1.2008911 0
-3.9759798 -6.4384637 -1.198522 0
-3.9619014 -6.464045 -1.2008045 0
-3.9425001 -6.4810629 -1.2015034 0
-3.9109297 -6.477982 -1.1984947 0
-3.8849154 -6.4839263 -1.1971779 0
-3.8684404 -6.5058055 -1.1988161 0
-3.8518224 -6.5275793 -1.2004418 0
-3.8409739 -6.5593429 -1.2039081 0
-3.8129177 -6.5617857 -1.2020032 0
-3.781074 -6.5574985 -1.198889 0
-3.760428 -6.5725183 -1.1993232 0
-3.7326627 -6.5750351 -1.197492 0
-3.7248034 -6.6127348 -1.2020768 0
-3.6866584 -6.5966411 -1.1968976 0
-3.6752694 -6.6283507 -1.2004085 0
-3.6452034 -6.6264167 -1.1978382 0
-3.6177211 -6.6289911 -1.1961042 0
-3.6013222 -6.6518836 -1.1980493 0
-3.5957367 -6.695085 -1.203652 0
-3.5631382 -6.688087 -1.2002394 0
-3.5470245 -6.7119746 -1.2023853 0
-3.5092094 -6.6946578 -1.1971687 0
-3.4840057 -6.7011194 -1.1962286 0
-3.4816697 -6.7518411 -1.2031924 0
-3.4587309 -6.7629261 -1.2030945 0
-3.4247277 -6.7521882 -1.1991347 0
-3.412168 -6.783709 -1.2026942 0
-3.3752041 -6.7666421 -1.1976553 0
-3.3588798 -6.7908235 -1.1999353 0
-3.3533185 -6.8371692 -1.2061311 0
-3.302043 -6.790112 -1.19587 0
-3.284734 -6.812501 -1.1978668 0
-3.277164 -6.8554597 -1.2034817 0
-3.2353666 -6.8267531 -1.1965312 0
-3.219461 -6.8524647 -1.1991389 0
-3.1938338 -6.8575649 -1.1981508 0
-3.1668727 -6.8596764 -1.1966578 0
-3.142247 -6.8667397 -1.1960454 0
-3.127574 -6.8956857 -1.1992539 0
-3.1026218 -6.9020963 -1.198553 0
-3.0897489 -6.9355483 -1.2025563 0
-3.0499167 -6.9083562 -1.1960616 0
-3.0405264 -6.9500623 -1.2015107 0
-3.014744 -6.9545364 -1.2005298 0
-2.9866648 -6.9535575 -1.1986254 0
-2.9602118 -6.9561949 -1.1973627 0
-2.9434118 -6.9815927 -1.2000288 0
-2.9320769 -7.0203681 -1.2049972 0
-2.8987486 -7.0065351 -1.2009479 0
-2.881623 -7.0317893 -1.2036138 0
-2.8448861 -7.0090261 -1.198078 0
-2.824405 -7.0260754 -1.1993669 0
-2.8045352 -7.044807 -1.2009525 0
-2.7783053 -7.0475898 -1.1998322 0
-2.7587399 -7.0673165 -1.2016091 0
-2.7244432 -7.0491366 -1.1969583 0
-2.7092016 -7.0802054 -1.2006847 0
-2.6884034 -7.0970516 -1.2020062 0
-2.6534317 -7.0762591 -1.1969712 0
-2.6377676 -7.1068754 -1.2006472 0
-2.6106868 -7.1068649 -1.19916 0
-2.5911074 -7.127305 -1.2011364 0
-2.5573664 -7.1086287 -1.196537 0
-2.541126 -7.1385355 -1.2001302 0
-2.5223026 -7.1615667 -1.2025737 0
-2.4987953 -7.1714706 -1.2028232 0
-2.4757502 -7.1827483 -1.2033157 0
-2.4479876 -7.1802549 -1.2015162 0
-2.4223356 -7.1837835 -1.2007409 0
-2.3977995 -7.1905556 -1.2005223 0
-2.3765142 -7.2071571 -1.201957 0
-2.3464675 -7.197084 -1.1989582 0
-2.331825 -7.2343874 -1.2038634 0
-2.2976694 -7.2111349 -1.1987053 0
-2.2777932 -7.2324967 -1.2009799 0
-2.2460356 -7.216011 -1.1969854 0
-2.2247291 -7.2329302 -1.1985477 0
-2.2080626 -7.2653441 -1.2026855 0
-2.1832824 -7.2713461 -1.2024605 0
-2.1500108 -7.2486877 -1.1975147 0
-2.1240165 -7.2501249 -1.1965688 0
-2.1010072 -7.2617364 -1.1973159 0
-2.0842741 -7.2954321 -1.2017127 0
-2.0533946 -7.2796636 -1.1979744 0
-2.0316002 -7.2959328 -1.1995242 0
-2.0065866 -7.3007369 -1.1992011 0
-1.9792502 -7.2969275 -1.1974787 0
-1.9536147 -7.299192 -1.1967685 0
-1.9372053 -7.3362784 -1.2017776 0
-1.9090395 -7.3290739 -1.199542 0
-1.8889329 -7.3528609 -1.202392 0
-1.8704196 -7.38343 -1.2063587 0
-1.833253 -7.3400092 -1.1982532 0
-1.8152401 -7.3729501 -1.2026304 0
-1.7842133 -7.3530459 -1.1984013 0
-1.7631165 -7.3739038 -1.2008305 0
-1.7376722 -7.3767548 -1.2003393 0
-1.7093734 -7.3672123 -1.1978472 0
-1.6942197 -7.4147277 -1.2046425 0
-1.6682075 -7.415288 -1.203818 0
-1.6421564 -7.4155121 -1.2029538 0
-1.615546 -7.4130001 -1.2016609 0
-1.5918605 -7.4238687 -1.2025508 0
-1.5641114 -7.4156547 -1.200364 0
-1.5325559 -7.3886361 -1.195152 0
-1.5120879 -7.4148841 -1.198571 0
-1.4873166 -7.4204011 -1.19865 0
-1.4612762 -7.4194922 -1.197705 0
-1.4341644 -7.4128366 -1.1958476 0
-1.4142351 -7.4435658 -1.2000332 0
-1.3881688 -7.4423599 -1.1990818 0
-1.3647701 -7.4555049 -1.2004557 0
-1.3405076 -7.4641714 -1.2011206 0
-1.3133411 -7.4565139 -1.1991731 0
-1.288123 -7.4596558 -1.198977 0
-1.264852 -7.474257 -1.2006356 0
-1.2367618 -7.4602189 -1.1977077 0
-1.2166729 -7.4946966 -1.2025813 0
-1.1870815 -7.4706888 -1.1980836 0
-1.1618828 -7.4736991 -1.1979349 0
-1.1435792 -7.5220237 -1.2050594 0
-1.1136237 -7.4939919 -1.1999636 0
-1.0874435 -7.4904633 -1.1988081 0
-1.0642099 -7.5073767 -1.2009372 0
-1.0379345 -7.5029616 -1.1996675 0
-1.0109115 -7.4926047 -1.1974628 0
-0.98850465 -7.5166359 -1.2007669 0
-0.96007705 -7.4947701 -1.196753 0
-0.93749791 -7.5184355 -1.2000232 0
-0.91073823 -7.5087857 -1.197989 0
-0.88932592 -7.5437627 -1.2030867 0
-0.862755 -7.5355816 -1.2013141 0
-0.83838224 -7.5465107 -1.2026014 0
-0.81404901 -7.5583181 -1.2040414 0
-0.78465611 -7.5222106 -1.1978636 0
-0.76029092 -7.5333185 -1.1992197 0
-0.73498017 -7.535326 -1.1991403 0
-0.710159 -7.5425005 -1.1998963 0
-0.68149656 -7.5077147 -1.1939923 0
-0.66052532 -7.5580678 -1.2016413 0
-0.63348037 -7.5400004 -1.1984243 0
-0.60846126 -7.5453644 -1.1989459 0
-0.58310974 -7.5467157 -1.1988432 0
-0.55664814 -7.532989 -1.1963595 0
-0.5316565 -7.5386167 -1.1969633 0
-0.50842625 -7.570857 -1.201805 0
-0.48324323 -7.5757093 -1.2023113 0
-0.45738637 -7.5697694 -1.2011185 0
-0.4337706 -7.6022258 -1.2060308 0
-0.40511996 -7.5447979 -1.1966982 0
-0.38128152 -7.5751228 -1.2012986 0
-0.35581347 -7.5749125 -1.2010694 0
-0.32994273 -7.5652523 -1.1993555 0
-0.30407086 -7.5537663 -1.1973661 0
-0.27837205 -7.5446954 -1.1957736 0
-0.25465402 -7.5926795 -1.2032367 0
-0.22827825 -7.5630918 -1.1984198 0
-0.20306633 -7.5692935 -1.1992879 0
-0.1782344 -7.5932617 -1.202984 0
-0.15250015 -7.5801744 -1.2008228 0
-0.12669978 -7.5576997 -1.1971884 0
-0.10179351 -7.5904427 -1.2023143 0
-0.076033458 -7.5599031 -1.1974298 0
-0.05060162 -7.5475144 -1.1954339 0
-0.025384385 -7.5740299 -1.1996135 0
1.0082425e-05 -7.5990829 -1.2035748 0
0.025310321 -7.5459566 -1.1951669 0
0.050726172 -7.5630984 -1.1979022 0
0.076230861 -7.5775309 -1.2002219 0
0.10135674 -7.5563784 -1.1969186 0
0.12666941 -7.5546918 -1.196712 0
0.15227117 -7.5677934 -1.1988616 0
0.17835289 -7.5974507 -1.2036477 0
0.20320585 -7.5737448 -1.1999931 0
0.22860353 -7.5732021 -1.2000219 0
0.2534714 -7.5568199 -1.197554 0
0.27981031 -7.5831299 -1.2018653 0
0.30489349 -7.5737023 -1.2005264 0
0.32942894 -7.5530109 -1.1974149 0
0.356015 -7.5787735 -1.2016816 0
0.38132367 -7.5755601 -1.2013681 0
0.40787694 -7.5957665 -1.2047827 0
0.43075672 -7.5490522 -1.1975955 0
0.45630458 -7.5515332 -1.198225 0
0.48310325 -7.5731983 -1.201913 0
0.50503206 -7.5200162 -1.1937348 0
0.5321725 -7.5456471 -1.1980799 0
0.55811292 -7.5525393 -1.1994646 0
0.58324862 -7.5482516 -1.1990875 0
0.60839164 -7.544251 -1.1987692 0
0.63449174 -7.5517979 -1.2002997 0
0.65904284 -7.540874 -1.198908 0
0.68537968 -7.550271 -1.2007605 0
0.70973849 -7.5378199 -1.1991521 0
0.73480952 -7.5333691 -1.1988292 0
0.75872731 -7.5176258 -1.1967219 0
0.78455865 -7.5210829 -1.1976843 0
0.81327647 -7.5509572 -1.2028691 0
0.83744156 -7.5378609 -1.2012234 0
0.86342627 -7.5412679 -1.2022209 0
0.88651901 -7.5197806 -1.1992625 0
0.91169071 -7.5164719 -1.1992155 0
0.93758392 -7.5189629 -1.2001078 0
0.96258938 -7.5142241 -1.1998597 0
0.98708147 -7.5056601 -1.1990141 0
1.0132856 -7.5100508 -1.2002515 0
1.0353276 -7.4839702 -1.1966313 0
1.065991 -7.5197978 -1.2029246 0
1.0878137 -7.4928746 -1.1991944 0
1.1139191 -7.4958429 -1.2002604 0
1.1389852 -7.491672 -1.2001973 0
1.1622918 -7.4761996 -1.1983361 0
1.1895145 -7.4858727 -1.2005192 0
1.2160726 -7.4908733 -1.2019683 0
1.240218 -7.4809437 -1.2010355 0
1.2666986 -7.4850478 -1.2023695 0
1.2878036 -7.4576888 -1.1986614 0
1.3160859 -7.471981 -1.2016611 0
1.3368584 -7.443738 -1.1978331 0
1.3598211 -7.4283581 -1.1960851 0
1.390571 -7.4551291 -1.2011397 0
1.4190391 -7.4687428 -1.2040927 0
1.4363511 -7.4240336 -1.1976546 0
1.4670404 -7.4486551 -1.2024133 0
1.4880115 -7.4237652 -1.1991941 0
1.5194103 -7.4506903 -1.2043594 0
1.5408092 -7.4283271 -1.2015729 0
1.5597521 -7.3948898 -1.1970035 0
1.5961939 -7.4439816 -1.2058094 0
1.6117587 -7.3955278 -1.1988292 0
1.6377641 -7.3955851 -1.1997219 0
1.6665089 -7.4076457 -1.2025781 0
1.6930237 -7.4094028 -1.203778 0
1.713637 -7.3854995 -1.2008213 0
1.7405648 -7.3889465 -1.2023238 0
1.7621102 -7.3696089 -1.2001318 0
1.7759187 -7.3187776 -1.192817 0
1.8099048 -7.3511958 -1.1990829 0
1.8339405 -7.3426785 -1.1986898 0
1.8655022 -7.3639369 -1.2031745 0
1.8865443 -7.3434825 -1.2008592 0
1.9192255 -7.3680987 -1.2059301 0
1.9336461 -7.322721 -1.1995575 0
1.9629122 -7.3338513 -1.2024522 0
1.9850008 -7.3180513 -1.2009461 0
2.0053935 -7.2963204 -1.1984766 0
2.0334198 -7.302392 -1.200587 0
2.0579853 -7.2958646 -1.2006415 0
2.0796607 -7.279211 -1.1990416 0
2.1051562 -7.2760038 -1.1996692 0
2.1273122 -7.2613029 -1.1984146 0
2.1544478 -7.2635756 -1.1999751 0
2.1788397 -7.2564802 -1.200003 0
2.2082345 -7.2658401 -1.2027686 0
2.2340353 -7.2631168 -1.2035509 0
2.2549012 -7.2444267 -1.2016999 0
2.2721417 -7.2144847 -1.1979901 0
2.2996147 -7.2171736 -1.1997101 0
2.3215833 -7.2025471 -1.198566 0
2.3473065 -7.1995916 -1.1993771 0
2.3708439 -7.1898975 -1.1990795 0
2.395488 -7.1835604 -1.1993554 0
2.4187076 -7.1729617 -1.1989331 0
2.44227 -7.1634226 -1.1987007 0
2.473495 -7.1761436 -1.2022103 0
2.4972064 -7.1668491 -1.2020491 0
2.5213912 -7.1589179 -1.20213 0
2.5408125 -7.1375947 -1.1999731 0
2.5659795 -7.1325111 -1.2005582 0
2.5950315 -7.1380405 -1.2029467 0
2.6124794 -7.1116872 -1.1999748 0
2.635473 -7.1006355 -1.1995943 0
2.6540697 -7.0779037 -1.1972506 0
2.6882739 -7.096653 -1.2019399 0
2.7165411 -7.0993299 -1.2039292 0
2.7313473 -7.0669446 -1.1999834 0
2.7590461 -7.0680456 -1.2017343 0
2.7842765 -7.0626822 -1.2024028 0
2.8052192 -7.0464716 -1.2012376 0
2.8305726 -7.0413637 -1.201978 0
2.850265 -7.0222249 -1.2003355 0
2.8741152 -7.0134153 -1.2004701 0
2.9048831 -7.0213099 -1.2034817 0
2.9208095 -6.9933376 -1.200359 0
2.9464948 -6.988853 -1.2012781 0
2.9699554 -6.9790401 -1.2012962 0
2.9954135 -6.973875 -1.2021291 0
3.0124922 -6.9492908 -1.1996257 0
3.0339024 -6.9348712 -1.1988858 0
3.0596147 -6.9302731 -1.1998576 0
3.0854487 -6.9258466 -1.2008755 0
3.1110215 -6.920733 -1.2017907 0
3.1304815 -6.9020472 -1.2003617 0
3.1519685 -6.8879361 -1.1997389 0
3.1763644 -6.880188 -1.2002375 0
3.2012393 -6.8734174 -1.200922 0
3.2235672 -6.8611569 -1.2006615 0
3.2419186 -6.8405309 -1.1989474 0
3.2508187 -6.800302 -1.1938002 0
3.293855 -6.8313718 -1.2011864 0
3.3111227 -6.8087368 -1.1991518 0
3.3396993 -6.8093548 -1.201226 0
3.357605 -6.7882004 -1.1994734 0
3.3808107 -6.7778373 -1.1996384 0
3.3954306 -6.7503886 -1.1967883 0
3.4427814 -6.7877378 -1.2054498 0
3.4401412 -6.7265334 -1.1966219 0
3.4704647 -6.7300682 -1.199314 0
3.4892399 -6.7111435 -1.1980196 0
3.5150247 -6.7057085 -1.1991465 0
3.5492346 -6.7161136 -1.2031285 0
3.5736294 -6.7077365 -1.2037674 0
3.5847969 -6.6746731 -1.1999841 0
3.6152411 -6.6775508 -1.2026739 0
3.6327803 -6.6565433 -1.2010772 0
3.648361 -6.6321154 -1.1988699 0
3.6698697 -6.6185708 -1.198639 0
3.695338 -6.6121306 -1.1997099 0
3.7035677 -6.5749936 -1.195218 0
3.7334323 -6.5763507 -1.1977334 0
3.7606862 -6.5729294 -1.1993999 0
3.7825091 -6.5599475 -1.1993386 0
3.7926896 -6.5269346 -1.195621 0
3.8203726 -6.5241218 -1.1974455 0
3.8457932 -6.5173225 -1.1985575 0
3.8773894 -6.5208168 -1.201584 0
3.9025226 -6.5132742 -1.2025985 0
3.9067793 -6.4710684 -1.1972175 0
3.9247611 -6.4518633 -1.1960921 0
3.9725046 -6.4813061 -1.2040129 0
3.9922612 -6.4647903 -1.2034247 0
4.0119696 -6.4482436 -1.2028418 0
4.0327082 -6.4333863 -1.2025856 0
4.0362992 -6.3913956 -1.1972594 0
4.0670118 -6.3924546 -1.2000053 0
4.0890517 -6.3797655 -1.2001903 0
4.1156306 -6.3740911 -1.2017119 0
4.121789 -6.336904 -1.1972997 0
4.1596661 -6.3484654 -1.2021124 0
4.1526175 -6.2915902 -1.1939726 0
4.1962719 -6.3115997 -1.200433 0
4.2269287 -6.3117089 -1.2031425 0
4.2313609 -6.2727356 -1.198411 0
4.2652011 -6.2774 -1.2020274 0
4.2749891 -6.2466478 -1.1988767 0
4.3029642 -6.2425151 -1.2008457 0
4.3218551 -6.2251501 -1.2002861 0
4.3565531 -6.230433 -1.2041143 0
4.3655515 -6.1989408 -1.20085 0
4.371603 -6.1635323 -1.1968235 0
4.4059029 -6.167963 -1.2005454 0
4.4201488 -6.1442471 -1.1988071 0
4.4553032 -6.1495147 -1.2027427 0
4.4673233 -6.1227927 -1.2004391 0
4.4964523 -6.1195197 -1.2027464 0
4.5143967 -6.100966 -1.2020679 0
4.5197201 -6.0655222 -1.1980635 0
4.5451493 -6.0571547 -1.199414 0
4.5672975 -6.0443501 -1.1999041 0
4.5918083 -6.034616 -1.2010212 0
4.6120315 -6.019208 -1.2010254 0
4.6246305 -5.993917 -1.1990662 0
4.6621428 -6.0008278 -1.2035689 0
4.6573167 -5.9533086 -1.1971633 0
4.6731167 -5.9324117 -1.1961051 0
4.711606 -5.9401927 -1.2008523 0
4.7197137 -5.9096093 -1.1978619 0
4.7500477 -5.906867 -1.2005274 0
4.7619371 -5.8811655 -1.1985421 0
4.7887096 -5.8738523 -1.200317 0
4.812716 -5.8630495 -1.2014002 0
4.8326564 -5.8472552 -1.2014772 0
4.8331475 -5.8080831 -1.1967511 0
4.8550806 -5.7948141 -1.1973644 0
4.8799348 -5.7849665 -1.1987038 0
4.8955569 -5.7641621 -1.1977872 0
4.9349952 -5.7712679 -1.2026954 0
4.9433193 -5.7419147 -1.2000254 0
4.9370317 -5.6958756 -1.1938564 0
4.9856615 -5.7131648 -1.2009771 0
5.0241976 -5.7185073 -1.2056345 0
5.0107284 -5.6647592 -1.1978379 0
5.0482669 -5.6687841 -1.2022613 0
5.0699711 -5.6548672 -1.2029083 0
5.0938706 -5.6433411 -1.2040827 0
5.0879521 -5.598928 -1.1982396 0
5.1114321 -5.5870147 -1.199351 0
5.1388211 -5.5792756 -1.2013814 0
5.1451945 -5.5487461 -1.1985154 0
5.1609383 -5.5284309 -1.1978583 0
5.186851 -5.5189762 -1.199571 0
5.1987686 -5.4946241 -1.1980599 0
5.2194586 -5.4795742 -1.1985874 0
5.249135 -5.4738622 -1.2011809 0
5.2626314 -5.4512324 -1.2000802 0
5.3120012 -5.465579 -1.2071527 0
5.2853041 -5.4017549 -1.1969633 0
5.3065748 -5.3872414 -1.1976831 0
5.3519683 -5.3970108 -1.2038375 0
5.3410697 -5.3500237 -1.1973445 0
5.3712568 -5.3443041 -1.2000881 0
5.3894396 -5.3265562 -1.2001537 0
5.4107003 -5.3118262 -1.2009155 0
5.4224057 -5.2877321 -1.1995717 0
5.4327068 -5.2623572 -1.1979407 0
5.4567637 -5.2503123 -1.199357 0
5.4806023 -5.2379761 -1.2007298 0
5.4996939 -5.2210522 -1.2010705 0
5.5226679 -5.2077699 -1.2022679 0
5.521307 -5.1716237 -1.1981901 0
5.5463014 -5.160234 -1.1998528 0
5.5519214 -5.1308427 -1.1973404 0
5.6032104 -5.1435175 -1.2046754 0
5.5971713 -5.1035004 -1.1996915 0
5.6114283 -5.0821486 -1.1990883 0
5.6379185 -5.0718365 -1.2011085 0
5.6489377 -5.0475845 -1.1998438 0
5.6655226 -5.0283442 -1.1997788 0
5.68047 -5.0076632 -1.1993819 0
5.6918678 -4.9838963 -1.1982535 0
5.697876 -4.9555049 -1.1960139 0
5.7226443 -4.9434438 -1.197727 0
5.756835 -4.9393716 -1.2014101 0
5.7504835 -4.9005442 -1.1966488 0
