# .PCD v0.7 - Point Cloud Data file format
VERSION 0.7
FIELDS x y z intensity
SIZE 4 4 4 4
TYPE F F F F
COUNT 1 1 1 1
WIDTH 1399
HEIGHT 1
VIEWPOINT 0 0 0 1 0 0 0
POINTS 1399
DATA ascii
0.10370157 6.1848669 -1.2023835 0
0.083017737 6.1891637 -1.2031579 0
0.062321357 6.1948929 -1.2042242 0
0.041432373 6.1774249 -1.2007949 0
0.020765664 6.1910233 -1.2034179 0
8.229501e-06 6.2025418 -1.2056502 0
-0.020694498 6.1746917 -1.2002434 0
-0.041589741 6.203342 -1.2058328 0
-0.062002718 6.1648455 -1.1983833 0
-0.082509264 6.1524734 -1.1960254 0
-0.10342331 6.1692476 -1.199347 0
-0.12402491 6.1647835 -1.1985532 0
-0.14506209 6.1800332 -1.2016058 0
-0.16568482 6.1758986 -1.2009032 0
-0.18660913 6.1825514 -1.2023118 0
-0.20676005 6.1646886 -1.198966 0
-0.22785056 6.175415 -1.201194 0
-0.24852985 6.1740098 -1.201076 0
-0.26930866 6.1749744 -1.2014326 0
-0.28972197 6.1678905 -1.2002366 0
-0.31059524 6.1707606 -1.200991 0
-0.32919058 6.1307187 -1.1934059 0
-0.35188159 6.1670461 -1.2007003 0
-0.37119433 6.1432867 -1.19631 0
-0.39201882 6.1456022 -1.1970102 0
-0.41280723 6.1470165 -1.1975484 0
-0.43380949 6.151196 -1.1986393 0
-0.45578185 6.1679893 -1.2022028 0
-0.47505128 6.1482029 -1.1986499 0
-0.49668366 6.1592402 -1.2011195 0
-0.51468682 6.1260605 -1.194979 0
-0.53918904 6.1696763 -1.2038329 0
-0.55745518 6.1412115 -1.1986367 0
-0.57751161 6.1336708 -1.1975361 0
-0.59893864 6.1405711 -1.1992686 0
-0.61809361 6.1243606 -1.1965007 0
-0.63852215 6.1212778 -1.1963099 0
-0.65911818 6.1198092 -1.1964481 0
-0.68015462 6.1222601 -1.1973664 0
-0.70276445 6.1381726 -1.2009325 0
-0.72670895 6.1643538 -1.2065248 0
-0.74227655 6.1198659 -1.1982977 0
-0.76639378 6.1462345 -1.2039572 0
-0.7825231 6.1087084 -1.1971135 0
-0.8032937 6.108283 -1.1975514 0
-0.82366627 6.1047935 -1.1974019 0
-0.84631801 6.117815 -1.2005057 0
-0.865399 6.1048827 -1.1985307 0
-0.88944817 6.1266441 -1.2033817 0
-0.90813226 6.1111622 -1.200932 0
-0.93042946 6.1200066 -1.2032764 0
-0.9481113 6.0986347 -1.1996926 0
-0.96952319 6.1015244 -1.2008938 0
-0.98862928 6.0899496 -1.1992612 0
-1.0127296 6.1088438 -1.2036439 0
-1.0280823 6.0751381 -1.1976751 0
-1.0515877 6.0898552 -1.2012649 0
-1.0724185 6.0886717 -1.2017339 0
-1.0914623 6.0774446 -1.2002336 0
-1.1100421 6.0639696 -1.1983006 0
-1.1312546 6.0649714 -1.1992414 0
-1.1519051 6.06284 -1.199577 0
-1.1697421 6.046104 -1.1970348 0
-1.1910572 6.0474811 -1.1980914 0
-1.2109377 6.0415134 -1.1977067 0
-1.2355471 6.0588002 -1.2019483 0
-1.2505603 6.0291014 -1.1968817 0
-1.2755324 6.0474648 -1.2013693 0
-1.2943022 6.0361629 -1.1999795 0
-1.3115453 6.0180802 -1.1972522 0
-1.3365154 6.0353246 -1.2015675 0
-1.3542585 6.0197649 -1.199367 0
-1.3738861 6.0127926 -1.1988889 0
-1.3952637 6.0134339 -1.1999427 0
-1.4138672 6.00214 -1.1986283 0
-1.4344767 5.9994297 -1.1990408 0
-1.4581821 6.0094161 -1.2020071 0
-1.4759364 5.9948025 -1.2000672 0
-1.4941171 5.9821715 -1.1985346 0
-1.5110431 5.9648013 -1.1960628 0
-1.5377727 5.9859343 -1.2013276 0
-1.5532449 5.9631281 -1.197789 0
-1.5790662 5.9799905 -1.2022327 0
-1.6005526 5.9800634 -1.2033194 0
-1.6181827 5.965775 -1.2015293 0
-1.6321441 5.9383707 -1.1971054 0
-1.6535485 5.9382639 -1.1981947 0
-1.6629595 5.8954988 -1.1906842 0
-1.6916829 5.9212747 -1.1970288 0
-1.7221975 5.9524522 -1.2044921 0
-1.7257068 5.8905334 -1.1931268 0
-1.7526684 5.909061 -1.198063 0
-1.7799915 5.9281998 -1.2031467 0
-1.7932978 5.9006138 -1.1987616 0
-1.8160585 5.9042802 -1.2007368 0
-1.8368011 5.9012322 -1.2013625 0
-1.8555803 5.8918777 -1.2007179 0
-1.869188 5.8663645 -1.196789 0
-1.9014751 5.8992448 -1.2047907 0
-1.9179891 5.8828549 -1.20275 0
-1.9345019 5.8666849 -1.2007633 0
-1.9514848 5.8521409 -1.1991191 0
-1.9690971 5.8396401 -1.1979036 0
-1.9997491 5.8655152 -1.2045801 0
-2.0034614 5.8125253 -1.1950705 0
-2.0313368 5.8298779 -1.2000319 0
-2.0504625 5.8218727 -1.1997924 0
-2.0684061 5.8105698 -1.1988856 0
-2.0847924 5.7950301 -1.1971147 0
-2.1059284 5.7927332 -1.1980922 0
-2.1184609 5.7669177 -1.1942152 0
-2.1522222 5.7986822 -1.2022804 0
-2.168797 5.7838197 -1.2006998 0
-2.191376 5.7849607 -1.2024553 0
-2.2128978 5.7831693 -1.2036183 0
-2.2260303 5.7595596 -1.2002511 0
-2.23683 5.7302923 -1.1957082 0
-2.2673941 5.7515869 -1.2017312 0
-2.2932594 5.7605162 -1.2051966 0
-2.3009918 5.7240167 -1.1991676 0
-2.3261764 5.7310667 -1.2022718 0
-2.3354101 5.6989107 -1.1971619 0
-2.349637 5.6792831 -1.194687 0
-2.3778019 5.6932497 -1.1992953 0
-2.397598 5.6869555 -1.199656 0
-2.4184794 5.6831794 -1.2005633 0
-2.4331341 5.6648264 -1.1984029 0
-2.4659097 5.6884623 -1.2051454 0
-2.4726148 5.6519251 -1.1991543 0
-2.4965665 5.6549644 -1.2015682 0
-2.5130105 5.6409459 -1.2003732 0
-2.5414114 5.6536269 -1.2048781 0
-2.5583355 5.6406269 -1.2039288 0
-2.5678356 5.6114807 -1.1995388 0
-2.5979533 5.6273556 -1.2047875 0
-2.605253 5.5938072 -1.1994684 0
-2.6208909 5.5784373 -1.1980501 0
-2.6546907 5.6015038 -1.2049088 0
-2.6749578 5.5957117 -1.2055854 0
-2.6880627 5.5750113 -1.2030605 0
-2.6980419 5.5480824 -1.1991947 0
-2.7210572 5.5480351 -1.2011497 0
-2.7526214 5.5651193 -1.2068397 0
-2.7572043 5.5276704 -1.2007166 0
-2.7740874 5.5151453 -1.2000095 0
-2.7840312 5.4889917 -1.1963432 0
-2.8097353 5.4939318 -1.1994665 0
-2.8362014 5.5001144 -1.2028856 0
-2.8421776 5.4666305 -1.1976399 0
-2.8569205 5.4502606 -1.1961454 0
-2.8863254 5.4617448 -1.2007829 0
-2.9161301 5.473639 -1.2055407 0
-2.9176445 5.4325109 -1.1986302 0
-2.9387736 5.428112 -1.1998268 0
-2.9528718 5.4107437 -1.1981695 0
-2.9704111 5.3997488 -1.1979334 0
-2.9874628 5.3878908 -1.1975181 0
-3.0099669 5.385818 -1.1992937 0
-3.0213413 5.3638616 -1.1966535 0
-3.0544207 5.380321 -1.2026036 0
-3.0622571 5.3522472 -1.1986167 0
-3.0804894 5.3424783 -1.1987352 0
-3.1011541 5.3368864 -1.1998068 0
-3.1163774 5.321928 -1.1987863 0
-3.1557739 5.3480048 -1.2070367 0
-3.154367 5.3049026 -1.1996889 0
-3.1850078 5.3157802 -1.2045571 0
-3.1981335 5.2973213 -1.2027972 0
-3.2054877 5.2694907 -1.1989117 0
-3.2263443 5.2639461 -1.2001046 0
-3.2485814 5.2605586 -1.2018087 0
-3.255513 5.2324586 -1.197876 0
-3.2721815 5.2201476 -1.1975626 0
-3.3170187 5.252461 -1.2075201 0
-3.3046026 5.1941438 -1.1966537 0
-3.3403702 5.2116981 -1.2032715 0
-3.3420792 5.1760821 -1.1976289 0
-3.3631177 5.1705403 -1.198949 0
-3.3636844 5.1336718 -1.1930082 0
-3.4068832 5.1617656 -1.2021847 0
-3.4072089 5.1248021 -1.1962297 0
-3.4241664 5.1130424 -1.1961577 0
-3.4454594 5.1077132 -1.1976068 0
-3.4617329 5.0949073 -1.197319 0
-3.4895892 5.0990443 -1.2010339 0
-3.4929409 5.0674038 -1.1963331 0
-3.5032029 5.0460014 -1.1940466 0
-3.5370281 5.058435 -1.1997882 0
-3.5697281 5.0689263 -1.2051086 0
-3.5766582 5.0427666 -1.2017336 0
-3.5900862 5.0259037 -1.2005767 0
-3.618856 5.0304341 -1.2045506 0
-3.6308827 5.0116215 -1.2029542 0
-3.6441324 4.9945774 -1.201789 0
-3.6631427 4.9854407 -1.2025391 0
-3.6865354 4.982183 -1.2047279 0
-3.680454 4.9392438 -1.197322 0
-3.7126732 4.9477715 -1.2024001 0
-3.736706 4.9451747 -1.2048069 0
-3.7426832 4.9187117 -1.2014101 0
-3.7559075 4.9018989 -1.2003726 0
-3.7767067 4.8949623 -1.201768 0
-3.7785437 4.8635392 -1.1971569 0
-3.7982905 4.855268 -1.1982489 0
-3.8111942 4.8382483 -1.1971954 0
-3.8435426 4.8458014 -1.2022464 0
-3.8619766 4.8356533 -1.2029344 0
-3.8487511 4.7860961 -1.1938099 0
-3.8620918 4.7698498 -1.1929806 0
-3.896755 4.7798023 -1.1987308 0
-3.9263732 4.7832961 -1.2029018 0
-3.9403629 4.7676539 -1.2022837 0
-3.9471967 4.7434449 -1.1995095 0
-3.9649682 4.73244 -1.2000815 0
-3.9655044 4.7009716 -1.1954665 0
-3.9959295 4.7049413 -1.1998763 0
-4.0071363 4.6862016 -1.1985167 0
-4.0319295 4.6833148 -1.2012291 0
-4.0478864 4.6700902 -1.2013113 0
-4.0657945 4.6590967 -1.2019833 0
-4.0800281 4.6438856 -1.2015815 0
-4.0921984 4.6263618 -1.2005906 0
-4.112504 4.6180253 -1.2019987 0
-4.1249113 4.6008053 -1.2011096 0
-4.1300936 4.5756269 -1.1981448 0
-4.1635547 4.5817189 -1.2033887 0
-4.1745391 4.5629745 -1.202135 0
-4.1885166 4.5475435 -1.2017626 0
-4.209537 4.5397263 -1.2034198 0
-4.2114272 4.5113325 -1.1996293 0
-4.2166877 4.4867148 -1.1968359 0
-4.2764845 4.5198779 -1.2095001 0
-4.2450199 4.4565969 -1.1963683 0
-4.2648215 4.447432 -1.1977398 0
-4.2983203 4.4523859 -1.2029485 0
-4.2924933 4.4166198 -1.1971668 0
-4.3173027 4.4124489 -1.1999531 0
-4.3290801 4.3949113 -1.1991243 0
-4.3537087 4.3903728 -1.2018621 0
-4.3638425 4.3711815 -1.2006071 0
-4.3880806 4.3660846 -1.2032413 0
-4.3927927 4.3415613 -1.2005351 0
-4.4208131 4.3400507 -1.2042093 0
-4.4126248 4.3030539 -1.1980423 0
-4.4361444 4.2970657 -1.2005094 0
-4.4335713 4.2658544 -1.1959358 0
-4.456522 4.2592545 -1.1982678 0
-4.4858851 4.2586308 -1.202317 0
-4.4959564 4.2396231 -1.2011998 0
-4.4994602 4.2145166 -1.1983539 0
-4.5116005 4.1975789 -1.1978321 0
-4.5407524 4.1963868 -1.2018297 0
-4.5490112 4.1758285 -1.2003032 0
-4.5629201 4.1604924 -1.2002858 0
-4.5665979 4.1358905 -1.1975987 0
-4.6201549 4.1562848 -1.2079828 0
-4.6093149 4.1186562 -1.2015313 0
-4.6084952 4.0902185 -1.197736 0
-4.6282735 4.0801129 -1.1993144 0
-4.6339192 4.0575604 -1.1972452 0
-4.6448541 4.0397019 -1.1965643 0
-4.6881895 4.0498629 -1.2042232 0
-4.6812086 4.0165043 -1.1989642 0
-4.6971035 4.0028782 -1.1995912 0
-4.7081699 3.9851367 -1.1989982 0
-4.727922 3.9747236 -1.2006278 0
-4.7180738 3.9395211 -1.194766 0
-4.7777891 3.9622707 -1.2065169 0
-4.7698426 3.9287641 -1.201177 0
-4.7798667 3.9101961 -1.2003931 0
-4.800386 3.9001899 -1.2022555 0
-4.7863212 3.8621936 -1.1954831 0
-4.8185759 3.8616173 -1.2002988 0
-4.8226981 3.8384378 -1.1981131 0
-4.8312097 3.8188231 -1.19704 0
-4.8424897 3.8014286 -1.1966702 0
-4.8631163 3.7913368 -1.1986192 0
-4.8847132 3.7819109 -1.2008103 0
-4.883091 3.7545362 -1.1973102 0
-4.9144335 3.7524843 -1.2019036 0
-4.8830204 3.702647 -1.1911781 0
-4.9400792 3.7198927 -1.2020481 0
-4.9562602 3.7061026 -1.202955 0
-4.9597688 3.6828635 -1.2008027 0
-4.97575 3.6689131 -1.2016869 0
-5.0016642 3.6621978 -1.2049732 0
-4.9848237 3.6242566 -1.197982 0
-5.0026345 3.611629 -1.1993454 0
-5.0099955 3.5914524 -1.1982166 0
-5.0283046 3.5791159 -1.1997187 0
-5.0256252 3.551882 -1.1962312 0
-5.0575562 3.5490823 -1.2009926 0
-5.0607266 3.5260434 -1.1989315 0
-5.0860877 3.5184414 -1.2021382 0
-5.0954361 3.499707 -1.2015675 0
-5.0969191 3.4756327 -1.1991626 0
-5.1010613 3.4534588 -1.1974062 0
-5.1191158 3.4407079 -1.1989295 0
-5.1315737 3.4241598 -1.1991518 0
-5.156199 3.4156618 -1.2022233 0
-5.1656275 3.3970432 -1.2017592 0
-5.1609144 3.3692112 -1.1980278 0
-5.1594505 3.3436382 -1.195079 0
-5.1911068 3.3394923 -1.1998112 0
-5.2226925 3.3351076 -1.2045205 0
-5.210156 3.302562 -1.1990685 0
-5.2084966 3.2770824 -1.1961513 0
-5.2486901 3.2778587 -1.2028512 0
-5.268342 3.2656298 -1.2048389 0
-5.2315674 3.218605 -1.1939541 0
-5.2867365 3.2281621 -1.2040679 0
-5.2808294 3.2002974 -1.200272 0
-5.2969308 3.1858222 -1.2014971 0
-5.307797 3.1681728 -1.2015456 0
-5.3218536 3.152411 -1.2023283 0
-5.3258405 3.1306982 -1.2008508 0
-5.3359346 3.112607 -1.200767 0
-5.352993 3.0985496 -1.2022611 0
-5.3403969 3.0674 -1.1971155 0
-5.368825 3.059835 -1.2011815 0
-5.3854337 3.0454247 -1.2026062 0
-5.3991466 3.0293334 -1.2033935 0
-5.3878551 2.9992912 -1.1986287 0
-5.4049258 2.9851007 -1.200193 0
-5.430716 2.975626 -1.2036978 0
-5.4078536 2.9395673 -1.1964391 0
-5.4331198 2.9297454 -1.1998491 0
-5.4246793 2.9017596 -1.1958297 0
-5.4502382 2.8919713 -1.1993198 0
-5.483418 2.8860574 -1.2044849 0
-5.4767675 2.859149 -1.2009118 0
-5.4855256 2.8403575 -1.2007372 0
-5.4694176 2.8088026 -1.1951431 0
-5.4977136 2.8000798 -1.199268 0
-5.5083032 2.7822537 -1.1995363 0
-5.5028672 2.7563899 -1.1963333 0
-5.5133557 2.738559 -1.1966107 0
-5.5499301 2.7335653 -1.2025527 0
-5.5432849 2.7072361 -1.1991394 0
-5.5684276 2.69643 -1.2026159 0
-5.5487466 2.6639707 -1.1964296 0
-5.5632744 2.6480303 -1.197641 0
-5.5902576 2.6379209 -1.201539 0
-5.5929627 2.6163056 -1.2002283 0
-5.6128402 2.6027031 -1.2026145 0
-5.5850887 2.5671177 -1.1948177 0
-5.6408734 2.569885 -1.2049015 0
-5.6158504 2.5357826 -1.1977338 0
-5.6412001 2.524493 -1.2013283 0
-5.6413164 2.5018768 -1.1995599 0
-5.6399107 2.478658 -1.1974871 0
-5.6672211 2.4680228 -1.2015221 0
-5.6689873 2.446213 -1.200151 0
-5.6899137 2.432646 -1.2028477 0
-5.6878567 2.4092426 -1.2006985 0
-5.7279282 2.4035976 -1.2074494 0
-5.695323 2.3674891 -1.1988963 0
-5.6923261 2.3438911 -1.1966044 0
-5.7130957 2.3300714 -1.1993214 0
-5.7310162 2.3149998 -1.2014472 0
-5.7422671 2.2971804 -1.2021844 0
-5.7275681 2.269053 -1.1975077 0
-5.7531729 2.2569096 -1.2012722 0
-5.7565265 2.2359836 -1.2004004 0
-5.7850499 2.2247691 -1.2047861 0
-5.7594566 2.1927886 -1.1979182 0
-5.7582879 2.1702669 -1.196155 0
-5.7853942 2.1583583 -1.2002757 0
-5.7980952 2.1409786 -1.2014147 0
-5.8056302 2.1216688 -1.2014953 0
-5.832695 2.1094189 -1.2056259 0
-5.8101649 2.0792692 -1.1995212 0
-5.8159437 2.0593662 -1.1992821 0
-5.81317 2.0364759 -1.1972954 0
-5.834888 2.0221457 -1.2003653 0
-5.8314724 1.9990871 -1.198277 0
-5.8564601 1.9857349 -1.2020367 0
-5.8473096 1.9607983 -1.1988026 0
-5.8613639 1.9436737 -1.2003411 0
-5.8774824 1.9271698 -1.202312 0
-5.8723726 1.9037125 -1.1999544 0
-5.8913717 1.8880666 -1.2025362 0
-5.8784986 1.8622305 -1.1986275 0
-5.8843713 1.8424046 -1.1985586 0
-5.8901443 1.8225503 -1.1984831 0
-5.9063039 1.8058741 -1.2005323 0
-5.9099693 1.7853495 -1.2000539 0
-5.9174671 1.7659855 -1.2003673 0
-5.9332652 1.7490569 -1.2023758 0
-5.9129472 1.7215408 -1.1970818 0
-5.935256 1.7064701 -1.2004331 0
-5.9342494 1.6846602 -1.1990803 0
-5.9298959 1.6619606 -1.1970681 0
-5.973722 1.6526618 -1.20479 0
-5.9687266 1.6297559 -1.2026737 0
-5.9686112 1.6082404 -1.2015572 0
-5.9712653 1.5875007 -1.2010132 0
-5.9812713 1.5687083 -1.201961 0
-5.9505944 1.5393577 -1.1947526 0
-5.9738464 1.5240216 -1.1983883 0
-5.9785008 1.5038778 -1.1983038 0
-6.0041199 1.4889357 -1.2024314 0
-5.9770393 1.4609654 -1.1960204 0
-6.0108767 1.4478962 -1.2018132 0
-6.01159 1.4267598 -1.2009926 0
-5.9918671 1.4008745 -1.1961073 0
-6.0254059 1.387426 -1.201867 0
-6.0395083 1.3693665 -1.2037574 0
-6.0124521 1.3420531 -1.1974611 0
-6.0314846 1.3250872 -1.2003602 0
-6.0523157 1.3084074 -1.203626 0
-6.0183372 1.2799556 -1.1960086 0
-6.0354366 1.2624563 -1.1985587 0
-6.0680785 1.2480636 -1.2042032 0
-6.0501361 1.2232445 -1.1998219 0
-6.0502462 1.2021666 -1.1990378 0
-6.0658832 1.1841468 -1.2013431 0
-6.0551867 1.1609968 -1.198447 0
-6.0833178 1.1452579 -1.2032479 0
-6.0873609 1.1248991 -1.2032949 0
-6.0691819 1.100509 -1.1989653 0
-6.0774269 1.0809703 -1.1998714 0
-6.0820174 1.0607622 -1.2000687 0
-6.0936351 1.0417484 -1.2016652 0
-6.0700612 1.0167835 -1.1963373 0
-6.0732031 0.99638784 -1.1962914 0
-6.0902596 0.97822851 -1.1989985 0
-6.0689306 0.95394075 -1.194163 0
-6.0798955 0.93478674 -1.1956971 0
-6.1043329 0.91760421 -1.1998912 0
-6.1093321 0.89741981 -1.2002758 0
-6.1140027 0.87717468 -1.2006088 0
-6.1192703 0.8570013 -1.2010722 0
-6.125339 0.83692098 -1.2017058 0
-6.1151242 0.81464916 -1.1991593 0
-6.130847 0.79583263 -1.2017125 0
-6.1420503 0.77635568 -1.2033914 0
-6.1139755 0.75198925 -1.1973901 0
-6.1292415 0.73301429 -1.1998918 0
-6.1401916 0.71345079 -1.2015604 0
-6.1418886 0.69278538 -1.2014312 0
-6.126389 0.67024285 -1.197953 0
-6.1452394 0.6514622 -1.2012051 0
-6.1702194 0.63319761 -1.2056662 0
-6.1273127 0.60804141 -1.1968771 0
-6.162426 0.59066778 -1.2033423 0
-6.1554661 0.56917953 -1.2016039 0
-6.1831856 0.55084074 -1.2066476 0
-6.1488934 0.52701211 -1.1996039 0
-6.1615539 0.50729281 -1.2017353 0
-6.1133161 0.48269114 -1.1920048 0
-6.1638427 0.46589094 -1.2015455 0
-6.1456928 0.44380113 -1.1977105 0
-6.1463742 0.42314014 -1.1975602 0
-6.1514311 0.40277061 -1.1982756 0
-6.1497598 0.38195825 -1.1976938 0
-6.1450882 0.36098948 -1.1965415 0
-6.1902881 0.34282222 -1.2051121 0
-6.1654601 0.32071593 -1.2000625 0
-6.1275425 0.29814693 -1.1924809 0
-6.1676493 0.27937374 -1.2000971 0
-6.1643715 0.25851792 -1.1992838 0
-6.1644583 0.23781973 -1.1991389 0
-6.1496453 0.21660154 -1.1961094 0
-6.1980753 0.1975029 -1.2053934 0
-6.1838112 0.17629626 -1.2024977 0
-6.1830902 0.15553001 -1.2022494 0
-6.1827703 0.13478081 -1.2020925 0
-6.1867409 0.11411593 -1.2027833 0
-6.1755862 0.093198724 -1.2005472 0
-6.1525216 0.072218627 -1.1960096 0
-6.1680245 0.051718231 -1.1989828 0
-6.1803589 0.031099085 -1.2013534 0
-6.1829619 0.010381588 -1.2018459 0
-6.1782951 1.6394661e-05 -1.200937 0
-7.5911136 -0.012745965 -1.2023141 0
-7.5744729 -0.03811416 -1.199692 0
-7.5556769 -0.063353546 -1.1967419 0
-7.5728989 -0.088891089 -1.1995101 0
-7.5825801 -0.11443234 -1.2010976 0
-7.5815868 -0.13984419 -1.2010078 0
-7.5849319 -0.16534711 -1.2016188 0
-7.5511403 -0.18994205 -1.1963596 0
-7.5843344 -0.21622424 -1.2017268 0
-7.5890412 -0.24182631 -1.2025943 0
-7.5629611 -0.26638103 -1.1985964 0
-7.5776815 -0.29234073 -1.2010779 0
-7.5575013 -0.31694221 -1.198041 0
-7.5773187 -0.34322703 -1.2013582 0
-7.5794826 -0.36879376 -1.2018905 0
-7.5726686 -0.39391634 -1.2010127 0
-7.5712738 -0.41930211 -1.2010076 0
-7.5696654 -0.44467539 -1.2009823 0
-7.5583439 -0.46944463 -1.199429 0
-7.5635524 -0.49523059 -1.2005123 0
-7.5395846 -0.51905417 -1.1969776 0
-7.5427136 -0.54468471 -1.1977575 0
-7.5481567 -0.57052362 -1.1989188 0
-7.5822072 -0.59867084 -1.2046393 0
-7.5350075 -0.62037194 -1.1974641 0
-7.5167012 -0.64424485 -1.1948916 0
-7.5258198 -0.67045182 -1.1966916 0
-7.5322566 -0.69648767 -1.1980798 0
-7.5466967 -0.72334993 -1.2007556 0
-7.5320187 -0.74743682 -1.1988121 0
-7.5347476 -0.77322763 -1.1996524 0
-7.543293 -0.79967111 -1.2014331 0
-7.5298862 -0.82378906 -1.199731 0
-7.5654507 -0.85335857 -1.2058465 0
-7.5468054 -0.87689024 -1.2033365 0
-7.5010972 -0.89707863 -1.1965212 0
-7.4961109 -0.92198521 -1.1962122 0
-7.5475855 -0.95401555 -1.2049301 0
-7.5283313 -0.97723716 -1.2023726 0
-7.5078306 -1.0001838 -1.1996272 0
-7.517663 -1.0271579 -1.2017417 0
-7.5273728 -1.0542055 -1.2038522 0
-7.487946 -1.0742941 -1.1981159 0
-7.483005 -1.0992031 -1.1979083 0
-7.4818587 -1.1246741 -1.1983218 0
-7.4832487 -1.150553 -1.1991554 0
-7.4851027 -1.1765407 -1.2000779 0
-7.4745636 -1.2005779 -1.1990269 0
-7.4735956 -1.2261404 -1.1995243 0
-7.4860039 -1.2539653 -1.202184 0
-7.474494 -1.2778156 -1.2010168 0
-7.4476776 -1.2989465 -1.1974009 0
-7.4420261 -1.3236867 -1.1971991 0
-7.4375768 -1.3486365 -1.1972041 0
-7.4409404 -1.3750306 -1.1984808 0
-7.4430008 -1.4012347 -1.1995627 0
-7.4180927 -1.4223148 -1.1963102 0
-7.4428024 -1.4529411 -1.201074 0
-7.4555678 -1.4813998 -1.2039287 0
-7.435955 -1.503436 -1.2015688 0
-7.4416771 -1.5305811 -1.203316 0
-7.4010944 -1.5481163 -1.1975863 0
-7.4317398 -1.5805525 -1.2033958 0
-7.3978429 -1.5992875 -1.1987686 0
-7.3998489 -1.6257099 -1.1999701 0
-7.4017749 -1.652167 -1.201174 0
-7.3799748 -1.6732969 -1.19854 0
-7.3962889 -1.7030891 -1.2021101 0
-7.4052916 -1.7313274 -1.20451 0
-7.3555994 -1.7457401 -1.1973724 0
-7.3463006 -1.7695723 -1.1968179 0
-7.3522787 -1.7971146 -1.1987667 0
-7.3772063 -1.8294414 -1.2038245 0
-7.3567882 -1.8505827 -1.2014983 0
-7.3033133 -1.8631895 -1.1937784 0
-7.3343945 -1.8973327 -1.1998919 0
-7.3151226 -1.9185376 -1.1977847 0
-7.3324695 -1.9493859 -1.2016885 0
-7.3253818 -1.9738218 -1.2016048 0
-7.3259115 -2.000334 -1.202785 0
-7.2874045 -2.016099 -1.197566 0
-7.304131 -2.0471148 -1.2014359 0
-7.3129249 -2.0760493 -1.2040205 0
-7.2818551 -2.0936365 -1.200054 0
-7.2719011 -2.117197 -1.1995767 0
-7.2694297 -2.1429424 -1.2003475 0
-7.2587433 -2.1662707 -1.1997756 0
-7.2631302 -2.1941276 -1.2017099 0
-7.2542672 -2.218019 -1.2014672 0
-7.2471218 -2.2424312 -1.2015221 0
-7.232048 -2.2643642 -1.2002749 0
-7.2231259 -2.2881906 -1.2000607 0
-7.2235179 -2.3149929 -1.2014086 0
-7.2280259 -2.3431897 -1.2034583 0
-7.1897101 -2.3574367 -1.1983881 0
-7.1905465 -2.3844409 -1.1998533 0
-7.1795497 -2.4075429 -1.1993585 0
-7.1922717 -2.4386652 -1.2028428 0
-7.1571307 -2.453536 -1.1983349 0
-7.1503229 -2.4780242 -1.1985794 0
-7.1588359 -2.5078909 -1.2014091 0
-7.1430693 -2.5292878 -1.2001796 0
-7.1268792 -2.5504782 -1.1988894 0
-7.1167474 -2.573802 -1.19863 0
-7.1267786 -2.6044829 -1.2017834 0
-7.0978737 -2.6209288 -1.1983843 0
-7.0770383 -2.6402321 -1.1963544 0
-7.104197 -2.6775327 -1.2024564 0
-7.0818305 -2.696254 -1.2001939 0
-7.0981236 -2.7297406 -1.2044995 0
-7.086328 -2.7525127 -1.2040572 0
-7.0707068 -2.7737644 -1.2029763 0
-7.0469842 -2.7917576 -1.2005261 0
-7.0094395 -2.8041098 -1.195725 0
-7.005302 -2.8297377 -1.1966308 0
-7.0436039 -2.872716 -1.204812 0
-7.022347 -2.8915453 -1.2028276 0
-6.9977112 -2.9088793 -1.2002716 0
-6.9774375 -2.9279265 -1.1984713 0
-6.9695187 -2.9521246 -1.1988045 0
-6.9750271 -2.982079 -1.201465 0
-6.9678979 -3.0067031 -1.2019666 0
-6.9439116 -3.0240097 -1.1995713 0
-6.9389434 -3.0495639 -1.2004726 0
-6.9567342 -3.0852535 -1.2053334 0
-6.9247427 -3.098891 -1.2015839 0
-6.8808756 -3.1069922 -1.1957729 0
-6.9078879 -3.147115 -1.2022941 0
-6.864584 -3.1552217 -1.1965917 0
-6.853703 -3.1780975 -1.1965457 0
-6.8555498 -3.2069252 -1.1987386 0
-6.8479919 -3.2314181 -1.1993048 0
-6.8421216 -3.256741 -1.2001822 0
-6.8427858 -3.2852428 -1.2022241 0
-6.8178668 -3.3014526 -1.199784 0
-6.7924571 -3.3173082 -1.1972631 0
-6.8051977 -3.3518357 -1.201483 0
-6.8002415 -3.3777726 -1.2026006 0
-6.7576261 -3.3848994 -1.1970645 0
-6.7621236 -3.4155607 -1.1998831 0
-6.7638197 -3.4449294 -1.2022268 0
-6.7386703 -3.4606235 -1.1998123 0
-6.7434506 -3.4917002 -1.202741 0
-6.7138705 -3.5049791 -1.1995544 0
-6.7174578 -3.535563 -1.2023066 0
-6.7015862 -3.5559537 -1.201593 0
-6.6649275 -3.565191 -1.1971567 0
-6.6649814 -3.5940125 -1.1993241 0
-6.6639767 -3.6223629 -1.201322 0
-6.6425986 -3.639647 -1.1996613 0
-6.6282973 -3.6607599 -1.1992884 0
-6.6092997 -3.6792402 -1.1980762 0
-6.6128731 -3.7103267 -1.2009723 0
-6.6044292 -3.7347581 -1.2017062 0
-6.574162 -3.7467883 -1.198478 0
-6.5848794 -3.7822018 -1.2027369 0
-6.5655241 -3.8004162 -1.2015221 0
-6.5456548 -3.8182719 -1.200222 0
-6.5337858 -3.8407669 -1.2004002 0
-6.5150366 -3.8591955 -1.199326 0
-6.5256462 -3.8950953 -1.2036765 0
-6.4831166 -3.89925 -1.1982363 0
-6.4870749 -3.9313083 -1.2013974 0
-6.4428854 -3.9341245 -1.1956497 0
-6.4761171 -3.9842863 -1.2042891 0
-6.4258018 -3.9830918 -1.1974092 0
-6.405158 -4.0000844 -1.1960548 0
-6.3939686 -4.0229578 -1.1964773 0
-6.3960276 -4.0542507 -1.1993995 0
-6.380146 -4.074234 -1.1989762 0
-6.3879614 -4.1094413 -1.2030274 0
-6.3661122 -4.1256285 -1.2015109 0
-6.3447189 -4.1420369 -1.2000875 0
-6.3439093 -4.1719103 -1.2025734 0
-6.3093233 -4.1795354 -1.1986668 0
-6.2913623 -4.1980553 -1.1979219 0
-6.29421 -4.2305231 -1.201158 0
-6.2745566 -4.2479243 -1.2001189 0
-6.2748833 -4.2788963 -1.2029185 0
-6.2375078 -4.2841182 -1.1985004 0
-6.2642403 -4.3334608 -1.2064217 0
-6.2183414 -4.3326073 -1.2003732 0
-6.2073965 -4.3559699 -1.2010729 0
-6.1936693 -4.3774023 -1.2012498 0
-6.161046 -4.3853941 -1.1977675 0
-6.1683068 -4.4217963 -1.2020546 0
-6.1430044 -4.4349141 -1.2000147 0
-6.1055446 -4.439086 -1.1955979 0
-6.0993271 -4.4659019 -1.1973057 0
-6.1115975 -4.5064406 -1.2026736 0
-6.0903053 -4.5223408 -1.2014607 0
-6.0690279 -4.538188 -1.2002581 0
-6.0351806 -4.544507 -1.1965709 0
-6.0223351 -4.566555 -1.197053 0
-6.0276775 -4.6025171 -1.2011755 0
-6.0053315 -4.6174107 -1.1998007 0
-5.9912066 -4.6385956 -1.2000791 0
-5.9768791 -4.6596379 -1.2003319 0
-5.9611797 -4.6796174 -1.2003232 0
-5.9498219 -4.7030287 -1.2012047 0
-5.9094844 -4.7034225 -1.1962379 0
-5.8872523 -4.7180572 -1.1949329 0
-5.901895 -4.7623763 -1.2011392 0
-5.8818135 -4.7788219 -1.2003064 0
-5.8531027 -4.7881627 -1.1977167 0
-5.8292851 -4.8013926 -1.1961304 0
-5.8305349 -4.8353238 -1.1997067 0
-5.8197083 -4.8593698 -1.2008246 0
-5.8160386 -4.8894939 -1.2034433 0
-5.7989087 -4.908371 -1.2032973 0
-5.7558966 -4.9051838 -1.1977781 0
-5.7421384 -4.9267883 -1.1983458 0
-5.7128654 -4.9350233 -1.1956831 0
-5.7071924 -4.963634 -1.1979722 0
-5.7157736 -5.0048552 -1.2032889 0
-5.6762056 -5.003931 -1.1984843 0
-5.6766787 -5.0382724 -1.2021441 0
-5.6714911 -5.0677648 -1.2046371 0
-5.659657 -5.0914197 -1.2057426 0
-5.6041083 -5.0755463 -1.1975271 0
-5.5902104 -5.0971808 -1.1982025 0
-5.6014743 -5.1419511 -1.2043051 0
-5.5570054 -5.1355681 -1.1984397 0
-5.543221 -5.1573954 -1.1991894 0
-5.5274329 -5.1773891 -1.1995225 0
-5.52598 -5.2109208 -1.202992 0
-5.5036755 -5.2248602 -1.2019432 0
-5.4746227 -5.2322888 -1.1994228 0
-5.4506273 -5.2444363 -1.1980113 0
-5.4561911 -5.2851329 -1.2031221 0
-5.4289956 -5.2941866 -1.2010329 0
-5.4157391 -5.3168011 -1.202037 0
-5.3794751 -5.3167362 -1.197938 0
-5.3731861 -5.3462524 -1.2005224 0
-5.3555293 -5.3645363 -1.2005893 0
-5.3313565 -5.3762536 -1.1992044 0
-5.31885 -5.3997321 -1.2004569 0
-5.2927222 -5.4093652 -1.1986465 0
-5.2728977 -5.425374 -1.1982697 0
-5.265852 -5.4545975 -1.2008179 0
-5.2343926 -5.4585176 -1.1978106 0
-5.2222219 -5.4825039 -1.1992252 0
-5.1965756 -5.4923358 -1.1975579 0
-5.1879444 -5.5201688 -1.1998273 0
-5.1515484 -5.5184016 -1.1956823 0
-5.137794 -5.5407944 -1.196795 0
-5.1403499 -5.580965 -1.2017423 0
-5.1062784 -5.5814114 -1.1981452 0
-5.085135 -5.5958576 -1.1975795 0
-5.0726728 -5.6198864 -1.1990755 0
-5.049305 -5.6318469 -1.1980085 0
-5.0402212 -5.65978 -1.200349 0
-5.0348239 -5.6920304 -1.2036018 0
-4.9991789 -5.690062 -1.1996346 0
-4.9941702 -5.7229457 -1.2030303 0
-4.9659114 -5.7292252 -1.2008437 0
-4.9529748 -5.753161 -1.2023731 0
-4.9365621 -5.7731314 -1.2030809 0
-4.898499 -5.7676568 -1.1985108 0
-4.8783908 -5.7831678 -1.1983283 0
-4.860199 -5.8009543 -1.1986305 0
-4.8382926 -5.8142972 -1.1980289 0
-4.8264132 -5.8397326 -1.1999288 0
-4.8093109 -5.858933 -1.200554 0
-4.7805696 -5.8638992 -1.1982805 0
-4.7759986 -5.8985639 -1.2020851 0
-4.7667503 -5.92767 -1.2047529 0
-4.7176542 -5.907063 -1.1973432 0
-4.7275095 -5.9602757 -1.2049097 0
-4.6649265 -5.9220471 -1.1940129 0
-4.6701074 -5.9696913 -1.2004552 0
-4.6396723 -5.9719381 -1.1977721 0
-4.6511259 -6.0282903 -1.20594 0
-4.6019473 -6.0060792 -1.1984035 0
-4.5956511 -6.0396996 -1.2020305 0
-4.5787797 -6.0595794 -1.2029248 0
-4.5374079 -6.0468717 -1.1973754 0
-4.5378022 -6.0898223 -1.2028608 0
-4.4958339 -6.075913 -1.1971294 0
-4.4854288 -6.1045508 -1.199802 0
-4.4516234 -6.1013093 -1.1962247 0
-4.4487262 -6.140471 -1.2009716 0
-4.4131489 -6.134551 -1.1969131 0
-4.3943424 -6.1518135 -1.1973999 0
-4.3733792 -6.1660719 -1.1973143 0
-4.3439541 -6.1683083 -1.1949137 0
-4.3378596 -6.2037339 -1.1989521 0
-4.317203 -6.2184844 -1.1989986 0
-4.2930117 -6.2281113 -1.1980728 0
-4.293931 -6.2743616 -1.2041935 0
-4.2448969 -6.2475519 -1.1963099 0
-4.2363491 -6.2801657 -1.1998284 0
-4.1983886 -6.2691283 -1.1950237 0
-4.1887331 -6.3002968 -1.1982812 0
-4.1724095 -6.3216133 -1.199668 0
-4.1552649 -6.341785 -1.2008454 0
-4.122807 -6.3385062 -1.1976004 0
-4.0960388 -6.3437858 -1.1959963 0
-4.0886955 -6.3792472 -1.2000906 0
-4.0669851 -6.3924503 -1.2000024 0
-4.0567408 -6.4238019 -1.2033279 0
-4.0277133 -6.425456 -1.2011013 0
-3.9972801 -6.4246721 -1.1984427 0
-3.9719863 -6.4319968 -1.1973181 0
-3.9416008 -6.4309239 -1.1946516 0
-3.9340067 -6.4671006 -1.198915 0
-3.9001524 -6.4601307 -1.195192 0
-3.8990133 -6.5074563 -1.2015224 0
-3.871186 -6.5104232 -1.199667 0
-3.8577859 -6.5376859 -1.2023004 0
-3.8192825 -6.5222998 -1.1971092 0
-3.7864015 -6.5161529 -1.1936442 0
-3.7846413 -6.5636854 -1.2000201 0
-3.7615142 -6.5744166 -1.1996696 0
-3.7625949 -6.6277604 -1.2070947 0
-3.7168796 -6.5986676 -1.1995196 0
-3.6758449 -6.5772924 -1.193387 0
-3.6732595 -6.6247258 -1.199752 0
-3.6399016 -6.6167793 -1.1960959 0
-3.6328621 -6.6567349 -1.2011101 0
-3.5950074 -6.6402202 -1.1959486 0
-3.5834167 -6.6721458 -1.199528 0
-3.548795 -6.6611648 -1.195408 0
-3.5443256 -6.7068672 -1.2014704 0
-3.5258923 -6.7264848 -1.2028601 0
-3.493803 -6.7199636 -1.1995925 0
-3.4746454 -6.7382197 -1.200765 0
-3.4384236 -6.7232189 -1.1960307 0
-3.430676 -6.7639155 -1.2012174 0
-3.3932993 -6.7461963 -1.1960434 0
-3.3915551 -6.7994227 -1.2034572 0
-3.3621292 -6.7973928 -1.2010961 0
-3.3412962 -6.8126564 -1.2018069 0
-3.3162501 -6.8193264 -1.2010152 0
-3.2978721 -6.8397493 -1.2026579 0
-3.2621312 -6.8240128 -1.1979611 0
-3.2405872 -6.8377686 -1.1984618 0
-3.2211218 -6.855999 -1.1997575 0
-3.1883693 -6.8458314 -1.1961008 0
-3.1722639 -6.8713536 -1.1986948 0
-3.1593423 -6.9040985 -1.2025526 0
-3.1323545 -6.9062252 -1.201087 0
-3.0958068 -6.8869352 -1.1959202 0
-3.0805032 -6.9147949 -1.1989578 0
-3.0650244 -6.9425764 -1.2019863 0
-3.0402484 -6.9494271 -1.2014009 0
-3.0234253 -6.9745626 -1.2039869 0
-2.9905021 -6.9624915 -1.2001655 0
-2.9679871 -6.9744663 -1.2005075 0
-2.9405739 -6.9748611 -1.1988717 0
-2.9211886 -6.994298 -1.2005224 0
-2.8825932 -6.9674859 -1.1942548 0
-2.880044 -7.027936 -1.2029542 0
-2.8431327 -7.0047069 -1.1973398 0
-2.8330166 -7.0474977 -1.2030238 0
-2.8123999 -7.0645628 -1.2043204 0
-2.7783239 -7.047637 -1.1998403 0
-2.7574608 -7.0640397 -1.2010521 0
-2.7334204 -7.0723643 -1.2009025 0
-2.7050567 -7.0693731 -1.1988478 0
-2.686744 -7.0926709 -1.2012643 0
-2.6665757 -7.1113124 -1.2029005 0
-2.6355298 -7.1008468 -1.1996287 0
-2.6103537 -7.1059589 -1.199007 0
-2.5804477 -7.0979838 -1.1961949 0
-2.5785031 -7.1673822 -1.2064265 0
-2.5495877 -7.1623058 -1.2041265 0
-2.5126078 -7.1340404 -1.1979514 0
-2.4793105 -7.11555 -1.1934439 0
-2.4618826 -7.1425157 -1.1965756 0
-2.4389722 -7.1538124 -1.1970915 0
-2.4148679 -7.1616368 -1.1970391 0
-2.3950791 -7.1823978 -1.1991603 0
-2.3742807 -7.2003841 -1.2008275 0
-2.3433261 -7.187448 -1.197353 0
-2.3198676 -7.1972899 -1.19769 0
-2.2999744 -7.218369 -1.1999078 0
-2.2724338 -7.2154789 -1.1981542 0
-2.2629321 -7.2702956 -1.20599 0
-2.2381427 -7.2765398 -1.2057742 0
-2.2091384 -7.2688837 -1.2032714 0
-2.1700315 -7.2272148 -1.1951625 0
-2.144994 -7.2317734 -1.1947204 0
-2.1367457 -7.2935748 -1.2037399 0
-2.1039894 -7.2720437 -1.1990154 0
-2.0780573 -7.2736721 -1.1981283 0
-2.0570858 -7.2927494 -1.200128 0
-2.0344453 -7.30615 -1.2012039 0
-2.0035281 -7.2896094 -1.1973733 0
-1.9864088 -7.323319 -1.2018096 0
-1.9675015 -7.3510761 -1.2052755 0
-1.929418 -7.3067875 -1.1969466 0
-1.9093508 -7.3302689 -1.1997377 0
-1.8867558 -7.3443861 -1.2010062 0
-1.8623039 -7.3513932 -1.2011242 0
-1.8444556 -7.3848619 -1.2055753 0
-1.812891 -7.363409 -1.2010741 0
-1.7892647 -7.3738637 -1.2017941 0
-1.7646785 -7.3804364 -1.2018943 0
-1.7364603 -7.3716097 -1.1995021 0
-1.7079051 -7.3608842 -1.1968184 0
-1.6860082 -7.3787904 -1.1988038 0
-1.6601297 -7.3793812 -1.1979889 0
-1.6428909 -7.418829 -1.2034919 0
-1.6196682 -7.4319153 -1.2047271 0
-1.594542 -7.4363742 -1.2045765 0
-1.5579234 -7.3863168 -1.1956151 0
-1.5414461 -7.4314961 -1.2020849 0
-1.5081354 -7.3955021 -1.195438 0
-1.4900444 -7.43401 -1.2008482 0
-1.466922 -7.4481583 -1.2023325 0
-1.4393418 -7.4395976 -1.2001648 0
-1.4136063 -7.4402561 -1.1994996 0
-1.3836923 -7.4183598 -1.195215 0
-1.3668885 -7.4670773 -1.202319 0
-1.3399564 -7.461102 -1.2006267 0
-1.3141323 -7.4610057 -1.1998954 0
-1.2932971 -7.4896193 -1.203793 0
-1.261073 -7.4519258 -1.1970483 0
-1.2384489 -7.4703951 -1.1993414 0
-1.2164481 -7.4933119 -1.2023591 0
-1.1884431 -7.4792581 -1.1994579 0
-1.1626197 -7.4784403 -1.1986948 0
-1.1368934 -7.4780469 -1.1980141 0
-1.1123278 -7.485271 -1.1985672 0
-1.0896953 -7.5059752 -1.2012906 0
-1.0616989 -7.4896636 -1.1981037 0
-1.0364412 -7.4921665 -1.1979414 0
-1.0124524 -7.5040255 -1.199288 0
-0.98687994 -7.5042815 -1.1987934 0
-0.96307725 -7.5181909 -1.2004927 0
-0.93821067 -7.5241513 -1.2009356 0
-0.91048932 -7.5067334 -1.1976615 0
-0.88958967 -7.546 -1.2034436 0
-0.86327899 -7.5401587 -1.2020437 0
-0.83640176 -7.5286837 -1.1997606 0
-0.81413817 -7.5591459 -1.2041732 0
-0.78416723 -7.5175238 -1.1971172 0
-0.7622515 -7.5527444 -1.2023121 0
-0.73621094 -7.5479445 -1.2011484 0
-0.70892793 -7.5294256 -1.1978164 0
-0.68667245 -7.5647349 -1.2030605 0
-0.65983844 -7.5502086 -1.2003917 0
-0.63482559 -7.5560122 -1.2009692 0
-0.60887706 -7.5505204 -1.1997652 0
-0.585495 -7.5775862 -1.2037473 0
-0.55571371 -7.5203438 -1.1943512 0
-0.53118593 -7.5319438 -1.1959039 0
-0.50630182 -7.5392227 -1.1967833 0
-0.48218799 -7.5591664 -1.1996858 0
-0.45774719 -7.5757413 -1.2020661 0
-0.43051535 -7.5451741 -1.1969801 0
-0.40604335 -7.561995 -1.1994259 0
-0.3800728 -7.5511084 -1.1974903 0
-0.35521665 -7.5622067 -1.1990547 0
-0.33023232 -7.5718918 -1.2004081 0
-0.3051219 -7.5798764 -1.2015049 0
-0.27884895 -7.55762 -1.1978221 0
-0.2538068 -7.5674181 -1.1992334 0
-0.22906429 -7.5891342 -1.2025464 0
-0.20313044 -7.5716834 -1.1996665 0
-0.17872094 -7.6139898 -1.2062678 0
-0.15262151 -7.5862064 -1.2017784 0
-0.12684493 -7.5663581 -1.19856 0
-0.10181151 -7.5917845 -1.2025268 0
-0.076323286 -7.5887198 -1.2019941 0
-0.050767571 -7.5722671 -1.1993544 0
-0.025421599 -7.5851331 -1.201372 0
1.0097629e-05 -7.6105423 -1.2053896 0
0.025363177 -7.5617146 -1.1976628 0
0.050885938 -7.5869188 -1.2016751 0
0.076275669 -7.5819845 -1.2009274 0
0.10170373 -7.5822473 -1.2010162 0
0.1268492 -7.5654149 -1.1984106 0
0.1524507 -7.5767155 -1.2002749 0
0.17781897 -7.574707 -1.2000444 0
0.20312272 -7.5706463 -1.1995022 0
0.22883514 -7.5808749 -1.2012377 0
0.25391749 -7.5701194 -1.1996616 0
0.27886072 -7.557395 -1.1977866 0
0.30550826 -7.588973 -1.202947 0
0.33009812 -7.5683532 -1.1998472 0
0.35552695 -7.5683842 -1.2000344 0
0.38117108 -7.5725288 -1.2008873 0
0.40510702 -7.5441833 -1.1966009 0
0.43057668 -7.545897 -1.1970949 0
0.45652384 -7.5551615 -1.1988008 0
0.48316386 -7.5741487 -1.2020639 0
0.50652051 -7.5421801 -1.197253 0
0.53299278 -7.5572777 -1.1999266 0
0.55842811 -7.5568042 -1.2001419 0
0.58039427 -7.511312 -1.1932193 0
0.6089952 -7.5517354 -1.1999584 0
0.63439065 -7.5505948 -1.2001085 0
0.66125631 -7.5662007 -1.2029346 0
0.68328029 -7.5271435 -1.1970824 0
0.70865315 -7.5262928 -1.1973183 0
0.73691458 -7.5549512 -1.2022637 0
0.76093727 -7.5395222 -1.2002077 0
0.78693539 -7.5438676 -1.2013127 0
0.81253177 -7.5440426 -1.2017676 0
0.8352403 -7.5180473 -1.1980659 0
0.86083066 -7.5185976 -1.1986068 0
0.88892835 -7.5402179 -1.2025219 0
0.91348243 -7.5312438 -1.2015724 0
0.93452299 -7.4944153 -1.1961898 0
0.96389061 -7.5243816 -1.2014817 0
0.98798054 -7.5124965 -1.2001061 0
1.0126954 -7.5056767 -1.1995524 0
1.0386856 -7.508244 -1.2005125 0
1.0642699 -7.5076571 -1.2009825 0
1.0911322 -7.5157318 -1.2028526 0
1.1152025 -7.5044785 -1.2016432 0
1.1352229 -7.4669256 -1.1962329 0
1.1647632 -7.4920964 -1.2008842 0
1.190505 -7.492106 -1.2015188 0
1.2078843 -7.4404345 -1.193875 0
1.2356102 -7.4531503 -1.1965733 0
1.2649431 -7.4746747 -1.2007031 0
1.2858725 -7.4465055 -1.1968639 0
1.3131409 -7.4552608 -1.1989721 0
1.3396879 -7.4594932 -1.2003684 0
1.3658487 -7.4612851 -1.2013869 0
1.3879546 -7.441102 -1.1988796 0
1.4121139 -7.4322939 -1.1982166 0
1.4369824 -7.4272966 -1.1981809 0
1.4674087 -7.4505253 -1.2027152 0
1.4889247 -7.4283218 -1.1999301 0
1.5128059 -7.4183049 -1.1991246 0
1.5377419 -7.4135394 -1.199181 0
1.5607318 -7.3995347 -1.1977553 0
1.5855031 -7.394124 -1.1977333 0
1.6193333 -7.4302831 -1.2044631 0
1.6383573 -7.3982635 -1.2001563 0
1.6618308 -7.3868518 -1.1992023 0
1.6829805 -7.3654494 -1.1966372 0
1.7129186 -7.3824034 -1.2003179 0
1.7359114 -7.3691921 -1.1991094 0
1.7658318 -7.3851728 -1.2026664 0
1.7842602 -7.3531542 -1.1984197 0
1.815228 -7.372817 -1.2026095 0
1.8437521 -7.3819623 -1.2051028 0
1.8600086 -7.3422508 -1.1996312 0
1.8897524 -7.3559694 -1.2029012 0
1.9130052 -7.3442187 -1.2020217 0
1.9305971 -7.3111744 -1.197666 0
1.9613039 -7.3278427 -1.201467 0
1.9835694 -7.3127742 -1.20008 0
2.0090766 -7.3097215 -1.2006778 0
2.0297496 -7.2892118 -1.19842 0
2.0621049 -7.3104692 -1.2030449 0
2.0866926 -7.3038239 -1.2030959 0
2.1146221 -7.3087215 -1.2050637 0
2.131216 -7.2746286 -1.200614 0
2.1600165 -7.2823501 -1.2030767 0
2.1776152 -7.2524018 -1.1993287 0
2.2110116 -7.2749782 -1.2042812 0
2.2299261 -7.2497582 -1.2013372 0
2.256655 -7.250061 -1.2026345 0
2.2725654 -7.2158303 -1.1982135 0
2.2921095 -7.1936188 -1.1957946 0
2.3314052 -7.2330189 -1.2036368 0
2.3475962 -7.2004809 -1.1995251 0
2.3696928 -7.1864071 -1.1984974 0
2.3897941 -7.1664858 -1.1965047 0
2.4136617 -7.1579971 -1.1964319 0
2.4391017 -7.15413 -1.1971457 0
2.4651599 -7.1519623 -1.1981592 0
2.4906387 -7.1480002 -1.1988877 0
2.511673 -7.1313257 -1.1974967 0
2.5352826 -7.1220603 -1.1973616 0
2.5564265 -7.105957 -1.1960884 0
2.592613 -7.1313877 -1.2018255 0
2.6157982 -7.1207213 -1.2014992 0
2.6363463 -7.1029892 -1.1999918 0
2.665417 -7.1081648 -1.2023693 0
2.6900587 -7.1013646 -1.2027379 0
2.7086997 -7.0788379 -1.200454 0
2.7327008 -7.0704465 -1.2005781 0
2.7509825 -7.0473886 -1.1982222 0
2.7723677 -7.032474 -1.19726 0
2.7984092 -7.0293651 -1.1983215 0
2.82319 -7.0229988 -1.198843 0
2.8468819 -7.0138903 -1.1989108 0
2.8685756 -6.999897 -1.1981562 0
2.8995068 -7.0083156 -1.2012544 0
2.9236639 -7.0001721 -1.201532 0
2.9460435 -6.9877825 -1.2010942 0
2.9649665 -6.9673171 -1.1992784 0
2.9845896 -6.9486747 -1.1977853 0
3.0069659 -6.9365425 -1.197425 0
3.0328422 -6.9324479 -1.1984668 0
3.0566416 -6.9235387 -1.1986916 0
3.0814385 -6.9168448 -1.1993147 0
3.1066926 -6.9111023 -1.2001183 0
3.1186135 -6.8758807 -1.1958112 0
3.1567943 -6.8984818 -1.2015758 0
3.1624649 -6.850081 -1.1949854 0
3.2088511 -6.889761 -1.2037776 0
3.2204609 -6.8545456 -1.1995046 0
3.2404842 -6.8375049 -1.1984171 0
3.2721505 -6.8449259 -1.2016339 0
3.2876501 -6.8185029 -1.1989237 0
3.3029649 -6.7919617 -1.1961974 0
3.3337445 -6.797214 -1.1990842 0
3.3602235 -6.7934947 -1.2004088 0
3.3826063 -6.7814374 -1.2002755 0
3.3920934 -6.7437539 -1.1956121 0
3.4204562 -6.743722 -1.1976329 0
3.460887 -6.7670975 -1.2038381 0
3.4662304 -6.7218566 -1.1978507 0
3.4896572 -6.711946 -1.1981629 0
3.5116162 -6.6992064 -1.1979837 0
3.5365288 -6.6920705 -1.1988214 0
3.5669782 -6.6952524 -1.201527 0
3.5856583 -6.6762767 -1.2002724 0
3.6047239 -6.6581244 -1.1991751 0
3.6300483 -6.6515374 -1.200174 0
3.6594043 -6.6521902 -1.2024988 0
3.6728485 -6.6239429 -1.199612 0
3.7044737 -6.6284771 -1.2026758 0
3.7095912 -6.5856872 -1.1971619 0
3.7379148 -6.5842462 -1.1991714 0
3.745064 -6.5456247 -1.1944175 0
3.7795994 -6.5549011 -1.198416 0
3.8042619 -6.5468497 -1.1992692 0
3.8352437 -6.5495172 -1.2021066 0
3.8516006 -6.5271645 -1.2003673 0
3.8777442 -6.5214133 -1.2016939 0
3.8894916 -6.4915252 -1.1985828 0
3.9207761 -6.4942527 -1.2015069 0
3.9309835 -6.4620924 -1.1979885 0
3.9645631 -6.4683495 -1.2016059 0
3.9835198 -6.450635 -1.2007896 0
3.9991705 -6.4276724 -1.1990043 0
4.0239 -6.4193349 -1.199959 0
4.058609 -6.4267235 -1.2038771 0
4.0765152 -6.4073915 -1.2028093 0
4.0870042 -6.3765707 -1.1995893 0
4.1077356 -6.3618641 -1.1994067 0
4.1395378 -6.3641915 -1.2024554 0
4.1591201 -6.3476324 -1.2019547 0
4.1889515 -6.3466401 -1.2044195 0
4.2004118 -6.3178267 -1.2016174 0
4.2199607 -6.3013039 -1.2011591 0
4.2229037 -6.2601981 -1.1960157 0
4.2611842 -6.2714882 -1.2008954 0
4.2817807 -6.2565713 -1.2007813 0
4.2866864 -6.2188997 -1.196303 0
4.3141131 -6.2139988 -1.198136 0
4.3420939 -6.2097549 -1.2001179 0
4.3761821 -6.2140365 -1.2037743 0
4.3686347 -6.159348 -1.1960108 0
4.4149437 -6.1806197 -1.203009 0
4.422905 -6.1480784 -1.1995547 0
4.4389343 -6.1269221 -1.198324 0
4.4592814 -6.1117706 -1.1982781 0
4.4873433 -6.1071224 -1.2003098 0
4.4978461 -6.0785985 -1.1976609 0
4.5241332 -6.0714445 -1.1992332 0
4.5426512 -6.0538259 -1.1987548 0
4.57021 -6.0482049 -1.2006693 0
4.5906658 -6.0331144 -1.2007223 0
4.6120725 -6.0192614 -1.2010361 0
4.6145992 -5.9809155 -1.1964653 0
4.6555405 -5.9923301 -1.2018645 0
4.6745272 -5.9753084 -1.2015873 0
4.7079515 -5.976634 -1.2050214 0
4.7087655 -5.9366112 -1.2001283 0
4.7287383 -5.9209094 -1.2001524 0
4.7452564 -5.9009089 -1.1993165 0
4.762641 -5.8820348 -1.1987193 0
4.800633 -5.8884773 -1.2033056 0
4.7950363 -5.8415117 -1.1969868 0
4.8333316 -5.8480725 -1.201645 0
4.8395267 -5.8157487 -1.1983306 0
4.8621545 -5.8032575 -1.1991091 0
4.871346 -5.774785 -1.196594 0
4.911572 -5.7830181 -1.2017055 0
4.9292779 -5.7645822 -1.2013021 0
4.9411087 -5.7393465 -1.1994888 0
4.95929 -5.7215552 -1.1992388 0
4.9983339 -5.7276864 -1.2040298 0
4.993515 -5.6835852 -1.1982718 0
5.0195999 -5.674789 -1.1999588 0
5.0396314 -5.6590877 -1.2002048 0
5.0490184 -5.6314974 -1.197937 0
5.0745058 -5.6218872 -1.1995052 0
5.0921855 -5.6035862 -1.1992365 0
5.0957313 -5.5698533 -1.1956669 0
5.1470532 -5.588213 -1.203306 0
5.1548662 -5.559176 -1.2007682 0
5.1681113 -5.5361142 -1.1995231 0
5.1968951 -5.5296636 -1.2018939 0
5.2200255 -5.5170908 -1.2029586 0
5.2266879 -5.4871635 -1.2002474 0
5.2573786 -5.4824586 -1.2030673 0
5.2505612 -5.4387298 -1.1973277 0
5.2829928 -5.4357324 -1.2005606 0
5.3017211 -5.4185338 -1.2006813 0
5.3335948 -5.4146724 -1.2037815 0
5.3403053 -5.3852491 -1.2012141 0
5.3480401 -5.3570061 -1.1989071 0
5.3698292 -5.3428841 -1.1997693 0
5.3830709 -5.320262 -1.1987355 0
5.4144301 -5.3154874 -1.2017432 0
5.4180617 -5.2834964 -1.1986109 0
5.4438396 -5.2731409 -1.2003956 0
5.4590063 -5.2524705 -1.19985 0
5.4674869 -5.2254415 -1.1978564 0
5.4862638 -5.208303 -1.1981376 0
5.5046005 -5.1907325 -1.1983346 0
5.5452309 -5.1940322 -1.2033818 0
5.5515418 -5.1651092 -1.2009865 0
5.558054 -5.1365104 -1.1986629 0
5.5947104 -5.135715 -1.2028481 0
5.6077847 -5.1131778 -1.2019664 0
5.6219907 -5.0917153 -1.2013454 0
5.6314869 -5.066051 -1.1997383 0
5.6579862 -5.0556703 -1.2017658 0
5.6705427 -5.0327997 -1.2008419 0
5.6754079 -5.003201 -1.1983131 0
5.6943817 -4.9860973 -1.1987827 0
5.7127495 -4.9684405 -1.1991358 0
5.738153 -4.956841 -1.2009729 0
5.7528419 -4.935946 -1.2005768 0
5.7512493 -4.901197 -1.1968083 0
5.7797003 -4.892086 -1.1993088 0
5.8119392 -4.8860216 -1.2025924 0
5.8177495 -4.857708 -1.2004178 0
5.8285933 -4.8336878 -1.1993046 0
5.870091 -4.8349767 -1.2045008 0
5.8820996 -4.8118577 -1.2036477 0
5.8641167 -4.7644176 -1.1966925 0
5.8745551 -4.7402897 -1.1955725 0
5.9299469 -4.7522469 -1.2035961 0
5.9396701 -4.7274218 -1.2023458 0
5.9368873 -4.6927791 -1.1985908 0
5.9575825 -4.6767678 -1.1995964 0
5.9443026 -4.6342154 -1.1937871 0
6.0071201 -4.6508908 -1.2032642 0
6.0040569 -4.616405 -1.1995436 0
6.0147181 -4.5925965 -1.1985904 0
6.0523005 -4.589252 -1.2030067 0
6.0548158 -4.559267 -1.2004614 0
6.0631962 -4.533802 -1.1991024 0
6.0816002 -4.5158515 -1.199741 0
6.0893903 -4.4900408 -1.1983012 0
6.0912251 -4.4599452 -1.1957129 0
6.1128969 -4.444407 -1.1970353 0
6.1426997 -4.434669 -1.199953 0
6.1439633 -4.4043207 -1.1973084 0
6.1924944 -4.4077539 -1.2038791 0
6.1905107 -4.3751454 -1.200635 0
6.2206893 -4.365273 -1.2036427 0
6.2030478 -4.3219271 -1.1974187 0
6.2459784 -4.3208032 -1.2029026 0
6.2273836 -4.2771401 -1.196553 0
6.2555399 -4.2656817 -1.1992083 0
6.2617617 -4.2392378 -1.1976694 0
6.2825861 -4.2226863 -1.1989378 0
6.2983027 -4.202662 -1.1992412 0
6.3186307 -4.1856766 -1.200433 0
6.3624468 -4.1840768 -1.2060853 0
6.3542728 -4.1482501 -1.2018926 0
6.346477 -4.1128798 -1.1978029 0
6.3754606 -4.1013756 -1.2006711 0
6.3678741 -4.0663738 -1.196668 0
6.4044995 -4.059597 -1.2009861 0
6.4273944 -4.0439649 -1.2027302 0
6.4462895 -4.0257473 -1.2037333 0
6.448091 -3.9968843 -1.2015606 0
6.481101 -3.987329 -1.2052139 0
6.4754677 -3.9539959 -1.2016943 0
6.4871626 -3.9313383 -1.2014118 0
6.4781523 -3.8962409 -1.197317 0
6.4986029 -3.8789301 -1.1986864 0
6.5123391 -3.8575742 -1.1988276 0
6.5396905 -3.8442147 -1.2014831 0
6.5458293 -3.8183506 -1.2002522 0
6.5620542 -3.7983844 -1.2008853 0
6.5688229 -3.7729559 -1.1998022 0
6.5902953 -3.7559597 -1.2014172 0
6.5887747 -3.7258825 -1.198856 0
6.5947199 -3.7001183 -1.1976737 0
6.6128421 -3.6811895 -1.1987166 0
6.6323771 -3.6629901 -1.2000247 0
6.6397595 -3.6380684 -1.1991467 0
6.6715059 -3.6264327 -1.2026775 0
6.6756177 -3.5997248 -1.2012362 0
6.6743417 -3.570204 -1.198846 0
6.7137589 -3.5623901 -1.203774 0
6.7303414 -3.5423212 -1.2046109 0
6.7092719 -3.5025558 -1.1987312 0
6.7275229 -3.4834304 -1.1998986 0
6.7440329 -3.4633548 -1.2007654 0
6.751739 -3.4387541 -1.200078 0
6.7878113 -3.4285131 -1.2044396 0
6.7820158 -3.3970935 -1.2013834 0
6.7974205 -3.376349 -1.2021002 0
6.8016763 -3.3500788 -1.2008597 0
6.7935967 -3.3178425 -1.1974624 0
6.8314638 -3.3080144 -1.2021753 0
6.8265657 -3.2774334 -1.1993729 0
6.8714137 -3.2706614 -1.2053189 0
6.8454194 -3.2301819 -1.1988528 0
6.8605399 -3.2092373 -1.1996096 0
6.8871346 -3.1935778 -1.2023809 0
6.8932734 -3.1683865 -1.2015913 0
6.8924308 -3.1400509 -1.1996025 0
6.8860459 -3.1093049 -1.1966701 0
5.1233854 -2.2927494 -0.88901061 0
5.1342306 -2.2769723 -0.88956285 0
5.1515751 -2.2640254 -0.89124775 0
5.1421051 -2.2393234 -0.88830543 0
5.1606383 -2.22684 -0.8902123 0
5.1180186 -2.1881239 -0.88158989 0
5.1428018 -2.178354 -0.88459581 0
5.121769 -2.1492205 -0.87973362 0
5.1234946 -2.12977 -0.87879854 0
5.147738 -2.1196339 -0.88173288 0
5.1256938 -2.0904853 -0.8767516 0
5.16605 -2.0867701 -0.88245279 0
5.1859555 -2.0746133 -0.88465989 0
5.2816358 -2.0923748 -0.89977992 0
5.2997336 -2.0790138 -0.90167052 0
5.3609147 -2.0823014 -0.91088659 0
5.4042149 -2.078294 -0.91705465 0
5.4555845 -2.0770795 -0.92458481 0
7.0908399 -2.6724768 -1.2001944 0
7.0841913 -2.6428792 -1.1975625 0
7.1254206 -2.6310792 -1.203034 0
7.1482272 -2.6122997 -1.2053992 0
7.1156001 -2.5733657 -1.1984355 0
7.1334782 -2.5528185 -1.1999983 0
7.1367636 -2.5270338 -1.199119 0
7.1261849 -2.4964314 -1.1959285 0
7.1632128 -2.48247 -1.200739 0
7.1705108 -2.4581015 -1.200574 0
7.1628623 -2.4286723 -1.1979233 0
7.1544638 -2.3991096 -1.1951668 0
7.1877427 -2.3834901 -1.1993843 0
7.2011952 -2.3611813 -1.2003014 0
7.2053523 -2.3358183 -1.1996821 0
7.1995869 -2.3073022 -1.1974274 0
7.2209592 -2.2874832 -1.1996998 0
7.2284727 -2.2632236 -1.1996806 0
7.2511649 -2.2436612 -1.2021915 0
7.2312613 -2.2109637 -1.1976558 0
7.2726364 -2.1969781 -1.2032816 0
7.2638907 -2.1677859 -1.2006254 0
7.2750258 -2.1445713 -1.2012707 0
7.276741 -2.1185851 -1.2003742 0
7.2727833 -2.0910075 -1.1985581 0
7.3058181 -2.0740108 -1.2028496 0
7.2565203 -2.0337503 -1.1936036 0
7.3213801 -2.0254776 -1.2031485 0
7.3047318 -1.9945302 -1.1993068 0
7.3190088 -1.9720838 -1.2005585 0
7.3372321 -1.9506311 -1.2024683 0
7.325603 -1.9212655 -1.1995 0
7.3501058 -1.9013762 -1.2024615 0
7.3488078 -1.8747749 -1.201214 0
7.3499436 -1.8488402 -1.2003796 0
7.3438888 -1.8211584 -1.1983868 0
7.362689 -1.7996384 -1.2004633 0
7.3611722 -1.7731338 -1.19924 0
7.3704405 -1.7492417 -1.1997876 0
7.3662348 -1.7221755 -1.1981564 0
7.3950467 -1.7027824 -1.2019074 0
7.3847513 -1.6743593 -1.199315 0
7.4119654 -1.654421 -1.202827 0
7.3898969 -1.623503 -1.1983557 0
7.39257 -1.598127 -1.1979134 0
7.4315381 -1.5804889 -1.2033625 0
7.4040685 -1.548718 -1.1980669 0
7.4362717 -1.5294487 -1.2024412 0
7.4232941 -1.5008556 -1.1995224 0
7.4041624 -1.4711653 -1.1956271 0
7.423265 -1.4491066 -1.1979204 0
7.4303017 -1.4246353 -1.1982785 0
7.443758 -1.4013568 -1.1996841 0
7.4476852 -1.3762566 -1.1995666 0
7.4436212 -1.3497121 -1.1981764 0
7.4557061 -1.3260995 -1.1993992 0
7.480938 -1.304727 -1.2027478 0
7.4689431 -1.2768462 -1.2001243 0
7.4680996 -1.2509457 -1.199308 0
7.4521513 -1.2226019 -1.196082 0
7.4551525 -1.1974397 -1.1959125 0
7.4713693 -1.1743618 -1.1978756 0
7.4767494 -1.1495334 -1.1981134 0
7.5139284 -1.1294744 -1.2034576 0
7.5027652 -1.1020855 -1.2010711 0
7.5118651 -1.0777054 -1.2019427 0
7.5085645 -1.0515511 -1.2008437 0
7.4881229 -1.0231014 -1.1970192 0
7.5031028 -0.99953365 -1.1988713 0
7.5403233 -0.97877347 -1.2042874 0
7.5042906 -0.94852281 -1.1980178 0
7.5418143 -0.92758614 -1.203505 0
7.5167356 -0.8989287 -1.1990154 0
7.5261478 -0.87446976 -1.2000422 0
7.5329952 -0.8496775 -1.2006731 0
7.5442595 -0.82534128 -1.2020206 0
7.554122 -0.80079883 -1.2031575 0
7.5512667 -0.77490258 -1.2022822 0
7.5244188 -0.7466625 -1.1976023 0
7.5381422 -0.7225098 -1.1993942 0
7.5399489 -0.69717878 -1.199303 0
7.5322008 -0.67100012 -1.197706 0
7.5571575 -0.64769208 -1.2013224 0
7.540113 -0.62077212 -1.1982752 0
7.5602493 -0.59691691 -1.2011505 0
7.5761547 -0.57261962 -1.2033657 0
7.549294 -0.54513979 -1.1988022 0
7.5891471 -0.52244598 -1.2048459 0
7.5640745 -0.49524462 -1.200595 0
7.5806384 -0.47080916 -1.2029668 0
7.5699615 -0.44467264 -1.2010291 0
7.5629549 -0.41882128 -1.199688 0
7.5470252 -0.39256233 -1.1969455 0
7.5486321 -0.36727259 -1.1969984 0
7.5651836 -0.34265724 -1.199434 0
