# .PCD v0.7 - Point Cloud Data file format
VERSION 0.7
FIELDS x y z intensity
SIZE 4 4 4 4
TYPE F F F F
COUNT 1 1 1 1
WIDTH 1409
HEIGHT 1
VIEWPOINT 0 0 0 1 0 0 0
POINTS 1409
DATA ascii
1.9164717 0.63551122 -0.24791314 0
1.8917586 0.63436425 -0.24499001 0
1.9003284 0.6443339 -0.24637823 0
1.8992327 0.65107036 -0.24651781 0
1.9187123 0.66494548 -0.2493342 0
1.9395864 0.67947221 -0.25234139 0
1.9359648 0.68549961 -0.25216782 0
1.9407884 0.69453925 -0.25309801 0
1.9365144 0.70034283 -0.25284544 0
1.9109964 0.69836831 -0.24981795 0
1.9577928 0.72291982 -0.25625089 0
1.9159368 0.71477318 -0.25108474 0
1.9769375 0.74509084 -0.25940484 0
1.9729633 0.75115722 -0.25921237 0
1.9554334 0.75199926 -0.25723907 0
1.9717852 0.76588625 -0.25972649 0
1.9674525 0.77180499 -0.2594952 0
1.968843 0.77997756 -0.26002204 0
1.9986914 0.79956567 -0.26431668 0
1.9821916 0.80068481 -0.26248819 0
1.9909456 0.81199592 -0.26400644 0
1.9943012 0.82117397 -0.264815 0
1.9893202 0.82693446 -0.26452029 0
2.0136597 0.84498119 -0.26813191 0
2.0028923 0.84837186 -0.26707542 0
2.0232077 0.86498886 -0.27016959 0
2.0265141 0.8744505 -0.27100107 0
2.0152225 0.87760448 -0.26988307 0
2.0387101 0.89597672 -0.27342933 0
2.020673 0.89614528 -0.27141169 0
2.039948 0.91289049 -0.27441022 0
2.0459065 0.92380261 -0.27562684 0
2.0556531 0.9365136 -0.27736139 0
2.0518591 0.94310522 -0.27727455 0
2.0559258 0.95333683 -0.27825451 0
2.0812662 0.97357893 -0.28212431 0
8.8540668 4.1780128 -1.2020979 0
8.8110819 4.1939063 -1.1981642 0
8.7934322 4.2217255 -1.1976821 0
8.798974 4.2607465 -1.200376 0
8.7556114 4.2760472 -1.1964096 0
8.748889 4.3091536 -1.1974584 0
8.7722445 4.3572645 -1.2026479 0
8.7375126 4.3765969 -1.1998912 0
8.7198906 4.4044032 -1.1994926 0
8.7007771 4.431426 -1.1989003 0
8.6840172 4.459621 -1.1986445 0
8.6767664 4.4927254 -1.1997162 0
8.6505442 4.5159912 -1.1981773 0
8.6390562 4.5469179 -1.198691 0
8.6326809 4.5805898 -1.1999307 0
8.6245012 4.6133733 -1.2009369 0
8.6020432 4.6385202 -1.1999685 0
8.6018867 4.6757302 -1.2021269 0
8.5593519 4.6898551 -1.1983733 0
8.5341749 4.7133327 -1.1970541 0
8.5336094 4.7504282 -1.1992021 0
8.5231133 4.7820873 -1.1999735 0
8.5220108 4.8191075 -1.2020864 0
8.4763155 4.8308458 -1.1979188 0
8.4670315 4.863236 -1.1989043 0
8.4828205 4.910202 -1.2034643 0
8.4489384 4.928483 -1.2009951 0
8.4206295 4.9498839 -1.1993234 0
8.4237633 4.9898038 -1.2021458 0
8.4121923 5.0211263 -1.2028902 0
8.3678217 5.0327702 -1.1989517 0
8.358942 5.0656705 -1.2001061 0
8.3241882 5.0828466 -1.1975565 0
8.3163462 5.116416 -1.1988895 0
8.3023062 5.1462297 -1.1993461 0
8.2850046 5.1740365 -1.1993461 0
8.2786264 5.2087159 -1.2009441 0
8.2528391 5.2311969 -1.1997408 0
8.2071142 5.240869 -1.1956414 0
8.212285 5.2830162 -1.1989684 0
8.2072506 5.3187675 -1.2008303 0
8.1721563 5.3350158 -1.1983058 0
8.1574593 5.3645144 -1.1987816 0
8.1515617 5.3998728 -1.2005687 0
8.1479034 5.4368434 -1.2027079 0
8.1316319 5.465477 -1.2030041 0
8.0955801 5.4807401 -1.2003825 0
8.097249 5.5215516 -1.2033682 0
8.0490723 5.528326 -1.1989563 0
8.0273781 5.5531282 -1.1984915 0
8.0229912 5.5899587 -1.2006279 0
7.9804521 5.6001596 -1.1970652 0
7.9830546 5.6420259 -1.2002863 0
7.9661174 5.6702008 -1.2005914 0
7.9456148 5.6958408 -1.2003728 0
7.9078426 5.7089992 -1.1975515 0
7.9156742 5.7551231 -1.2016529 0
7.8617129 5.7562819 -1.1963843 0
7.881753 5.8116479 -1.2023925 0
7.8465996 5.8264399 -1.2000031 0
7.8273816 5.8529859 -1.2000585 0
7.7994332 5.872961 -1.1987858 0
7.7890134 5.9061418 -1.2002212 0
7.7621517 5.9268665 -1.1991373 0
7.7391744 5.9505038 -1.1986631 0
7.7496486 6.0000081 -1.2033944 0
7.6900964 5.9952474 -1.1972615 0
7.7005167 6.0449905 -1.2020326 0
7.6553245 6.0511079 -1.1981384 0
7.646244 6.0856953 -1.1999038 0
7.6138306 6.1017079 -1.1980211 0
7.6130481 6.1431122 -1.2011321 0
7.5960269 6.1715426 -1.2017045 0
7.568748 6.1916223 -1.2006663 0
7.5481029 6.2170935 -1.2006912 0
7.5297003 6.2444263 -1.2010876 0
7.5013113 6.2634492 -1.1999022 0
7.4712138 6.280952 -1.1984497 0
7.4804869 6.3316755 -1.2033358 0
7.4232268 6.3260508 -1.1975299 0
7.4016151 6.350595 -1.1974717 0
7.3804865 6.3755531 -1.197505 0
7.3798661 6.4183502 -1.2008892 0
7.3410382 6.427938 -1.1980712 0
7.3160625 6.449533 -1.1975175 0
7.3047018 6.4831715 -1.1992092 0
7.2816424 6.5064812 -1.1989982 0
7.2676268 6.5379119 -1.2002931 0
7.2578759 6.5733008 -1.2023158 0
7.2236238 6.5864992 -1.2002932 0
7.1929412 6.6028252 -1.1988667 0
7.1542101 6.6116071 -1.1960993 0
7.1483397 6.6507573 -1.1988392 0
7.1566353 6.7033811 -1.203993 0
7.1015024 6.6965809 -1.1984884 0
7.1017594 6.7419496 -1.2023398 0
7.0665803 6.7537427 -1.2002108 0
7.0406675 6.774291 -1.1996607 0
7.0287819 6.8083854 -1.2015183 0
7.0127983 6.838625 -1.2026987 0
6.9843807 6.8567491 -1.201761 0
6.9465857 6.8655338 -1.1992118 0
6.9198303 6.885107 -1.1985714 0
6.9076476 6.9192281 -1.2004727 0
6.8676353 6.9254336 -1.1975477 0
6.8821392 6.9867568 -1.2041548 0
6.8505673 7.0015054 -1.2027315 0
6.822813 7.020071 -1.2019843 0
6.7808442 7.0238547 -1.1987326 0
6.7655563 7.0552049 -1.200205 0
6.7263761 7.0615897 -1.1974479 0
6.7315884 7.1146746 -1.2026156 0
6.6761575 7.1036463 -1.1969612 0
6.6736169 7.1488218 -1.2007961 0
6.6470714 7.1684184 -1.2003376 0
6.6244617 7.1922517 -1.2006025 0
6.5938168 7.2073245 -1.1994214 0
6.5835786 7.2447577 -1.2019707 0
6.5735669 7.2826509 -1.2045941 0
6.5219421 7.2743449 -1.1995966 0
6.5081186 7.3080764 -1.2015541 0
6.4753857 7.3205924 -1.2000356 0
6.475821 7.3707356 -1.2046894 0
6.4214172 7.3584242 -1.1991515 0
6.3950548 7.3780036 -1.1988413 0
6.371634 7.4009738 -1.1990957 0
6.3536029 7.4302697 -1.200384 0
6.3367414 7.4610519 -1.2019179 0
6.3105421 7.4808946 -1.2016991 0
6.2777691 7.4928737 -1.2002356 0
6.254385 7.5160108 -1.2005759 0
6.2113733 7.515429 -1.1971498 0
6.1995287 7.5525222 -1.1997406 0
6.1671495 7.5646524 -1.1983762 0
6.1428881 7.5866899 -1.1985978 0
6.1219883 7.6129284 -1.1994935 0
6.0949702 7.6315846 -1.1992065 0
6.055654 7.6347113 -1.1965007 0
6.0539393 7.6853337 -1.2012463 0
6.0292954 7.7070684 -1.2014771 0
6.0064406 7.7311263 -1.2020812 0
5.9583611 7.7225461 -1.1976342 0
5.9459944 7.7601757 -1.2003714 0
5.9083114 7.764782 -1.1980131 0
5.8882279 7.7924671 -1.1992317 0
5.865768 7.8170953 -1.1999886 0
5.8533649 7.8552909 -1.2028325 0
5.8194628 7.8646927 -1.2012776 0
5.7917142 7.8823271 -1.2009984 0
5.7484899 7.8787251 -1.1975062 0
5.7309518 7.9102526 -1.1993709 0
5.7082367 7.9347591 -1.200178 0
5.6892886 7.9646153 -1.2018019 0
5.6619892 7.982851 -1.2016823 0
5.6259136 7.9886146 -1.1997037 0
5.6010633 8.0102434 -1.2001249 0
5.5880256 8.0489273 -1.2031069 0
5.5506959 8.0526581 -1.200876 0
5.5205069 8.0666084 -1.2001892 0
5.4939818 8.0858841 -1.2003099 0
5.4585805 8.0920143 -1.1984962 0
5.447207 8.1338453 -1.20198 0
5.414145 8.1433992 -1.2007025 0
5.3847218 8.1583405 -1.2002369 0
5.3596764 8.1799164 -1.2007607 0
5.3349762 8.2020779 -1.2013812 0
5.2924614 8.1967106 -1.1979892 0
5.2783837 8.2353687 -1.2010461 0
5.2548752 8.2595158 -1.2019914 0
5.2171545 8.2612553 -1.1996922 0
5.1791544 8.2623138 -1.1973175 0
5.1546621 8.2848377 -1.1980703 0
5.1363163 8.3173933 -1.200281 0
5.1011333 8.322711 -1.1985736 0
5.0713015 8.3366461 -1.1981249 0
5.0614033 8.3835526 -1.2024206 0
5.0232272 8.3837194 -1.2000222 0
4.9901013 8.3921251 -1.1988237 0
4.971417 8.4248753 -1.2011144 0
4.9393892 8.4350872 -1.2002025 0
4.9116578 8.4525948 -1.2003436 0
4.8703165 8.4465151 -1.1971546 0
4.8568444 8.4887953 -1.2008324 0
4.8200951 8.4904804 -1.1987779 0
4.7843404 8.4937038 -1.1969614 0
4.7612858 8.5194492 -1.1983331 0
4.7399545 8.5484571 -1.2001712 0
4.6917863 8.5288897 -1.1952087 0
4.6809912 8.5772371 -1.199778 0
4.6545262 8.597168 -1.200376 0
4.630188 8.6211271 -1.201547 0
4.5965047 8.6276827 -1.2003061 0
4.5688195 8.6454449 -1.2006392 0
4.5261068 8.6345778 -1.1970159 0
4.5088816 8.6723051 -1.2001436 0
4.4839625 8.6954851 -1.2012641 0
4.4694457 8.7391405 -1.2052181 0
4.4255424 8.7253351 -1.2012612 0
4.4033499 8.7542133 -1.2031976 0
4.3589382 8.7387838 -1.1990615 0
4.3383241 8.7709579 -1.2014736 0
4.3025064 8.7724352 -1.1996931 0
4.2802048 8.8014822 -1.2016963 0
4.240478 8.7946444 -1.1988146 0
4.215723 8.8187599 -1.2001685 0
4.1815886 8.8232584 -1.1988659 0
4.1548481 8.8433285 -1.1996934 0
4.1304498 8.868536 -1.2012275 0
4.1037278 8.8889103 -1.2021168 0
4.0649152 8.8829803 -1.1994649 0
4.0414844 8.910615 -1.20136 0
4.0037713 8.9067307 -1.1990197 0
3.9659748 8.9023457 -1.1966326 0
3.9479101 8.9423332 -1.2002217 0
3.9159002 8.9509354 -1.1996073 0
3.8908122 8.975421 -1.2011337 0
3.8548324 8.974761 -1.1993091 0
3.8176966 8.9711304 -1.1971067 0
3.8077588 9.0317039 -1.2034792 0
3.7598541 9.0022755 -1.1978713 0
3.7319739 9.0204477 -1.1986177 0
3.70085 9.0308132 -1.1983396 0
3.6797936 9.0659428 -1.2013571 0
3.6491838 9.0777502 -1.2012937 0
3.6167519 9.0849714 -1.2006379 0
3.578202 9.0765781 -1.1979364 0
3.5529466 9.1018372 -1.1996912 0
3.5309904 9.1358986 -1.2026135 0
3.4968119 9.1384668 -1.2014015 0
3.4603741 9.1348858 -1.1993986 0
3.434268 9.1585464 -1.2009866 0
3.4051762 9.1744118 -1.2015634 0
3.3661821 9.163415 -1.1986382 0
3.3390656 9.1846228 -1.199941 0
3.3096411 9.199626 -1.2004447 0
3.276644 9.2046757 -1.1996634 0
3.245965 9.2161808 -1.1997377 0
3.2169912 9.2325935 -1.2004633 0
3.1767671 9.2164888 -1.1969777 0
3.1595445 9.2672606 -1.2021891 0
3.1163571 9.2419233 -1.19754 0
3.0895767 9.264986 -1.1991794 0
3.0693138 9.3080997 -1.203421 0
3.0250478 9.2783403 -1.1982555 0
2.9977953 9.3004475 -1.1998056 0
2.9597335 9.288909 -1.1970302 0
2.9330356 9.3129501 -1.1988543 0
2.9026315 9.3254204 -1.1992002 0
2.8752518 9.3477888 -1.2008301 0
2.8433304 9.3555212 -1.200592 0
2.8109608 9.3617163 -1.2001709 0
2.7809489 9.375782 -1.200772 0
2.7472944 9.3775311 -1.1998096 0
2.7106128 9.3686304 -1.1975013 0
2.6838129 9.3938599 -1.1995691 0
2.6565263 9.4177818 -1.2014798 0
2.6214201 9.414012 -1.1998708 0
2.5949633 9.4413815 -1.2022434 0
2.5631347 9.4494429 -1.2021689 0
2.5304115 9.4541483 -1.2016815 0
2.4914196 9.43501 -1.1981804 0
2.4658389 9.4666033 -1.2011358 0
2.4391441 9.4945087 -1.2036322 0
2.3979607 9.4657784 -1.1989639 0
2.3700848 9.4892778 -1.2009271 0
2.3379517 9.4959364 -1.2007711 0
2.3043568 9.4965353 -1.1998632 0
2.2739725 9.5103512 -1.2006388 0
2.2405877 9.5116148 -1.199843 0
2.2086544 9.5189447 -1.1998268 0
2.1766162 9.5258121 -1.1997658 0
2.1448538 9.5338926 -1.1998711 0
2.1127687 9.5405436 -1.1998099 0
2.0808194 9.5478048 -1.1998389 0
2.0526934 9.5729046 -1.2021215 0
2.0189016 9.5717487 -1.2011195 0
1.9875187 9.5819378 -1.2015553 0
1.9528798 9.5762825 -1.2000182 0
1.921313 9.5855293 -1.2003629 0
1.8919262 9.6059427 -1.202118 0
1.8553504 9.5897055 -1.1993009 0
1.8231736 9.5957994 -1.1992918 0
1.7915758 9.6049957 -1.1996838 0
1.7546464 9.5851889 -1.1964682 0
1.7273909 9.6182556 -1.1998662 0
1.6969239 9.63416 -1.2011337 0
1.6637007 9.6345139 -1.2004756 0
1.6316513 9.6415892 -1.2006688 0
1.5967221 9.631362 -1.1987218 0
1.5623082 9.6236467 -1.1971028 0
1.5325654 9.6447659 -1.199084 0
1.4986037 9.6394558 -1.1977924 0
1.4671386 9.6501007 -1.1984972 0
1.4326974 9.6409817 -1.1967614 0
1.4008456 9.6490421 -1.197172 0
1.3729124 9.684907 -1.2010441 0
1.3429354 9.7075453 -1.2032863 0
1.3028779 9.6563883 -1.1963969 0
1.2746859 9.6925726 -1.2003438 0
1.2424345 9.6987686 -1.2005886 0
1.2110999 9.7124262 -1.2017698 0
1.1735404 9.6753025 -1.1966827 0
1.1473849 9.7325411 -1.2032797 0
1.1093894 9.6895399 -1.1974965 0
1.0781232 9.7042513 -1.1988612 0
1.0428944 9.6828699 -1.1957812 0
1.0114056 9.6957254 -1.1969432 0
0.98137558 9.72367 -1.19998 0
0.9492684 9.7320318 -1.2006124 0
0.91858977 9.7559376 -1.2031748 0
0.8838259 9.7363911 -1.2003921 0
0.85064757 9.7332468 -1.199646 0
0.81930637 9.7514849 -1.2015486 0
0.78452528 9.728364 -1.1983689 0
0.7539773 9.7577791 -1.2016741 0
0.7198658 9.7414246 -1.1993561 0
0.68597782 9.7264452 -1.197222 0
0.65340424 9.7293043 -1.1972976 0
0.62113154 9.7369509 -1.1979755 0
0.58942914 9.7546549 -1.1999037 0
0.55824482 9.7832937 -1.2031896 0
0.52374744 9.7535868 -1.1993135 0
0.4916012 9.766387 -1.2006779 0
0.4590807 9.7728148 -1.2012721 0
0.42580813 9.7627535 -1.1998532 0
0.39212814 9.740653 -1.1969688 0
0.36125642 9.7903986 -1.202926 0
0.32772735 9.7706356 -1.200356 0
0.29408458 9.742465 -1.1967674 0
0.26148415 9.7458515 -1.1970689 0
0.22908793 9.7586546 -1.1985404 0
0.19698934 9.7902622 -1.2023346 0
0.16383946 9.7715521 -1.1999625 0
0.13088334 9.7576542 -1.1981953 0
0.098392799 9.7804813 -1.2009511 0
0.065638915 9.7865372 -1.2016609 0
0.032660566 9.7373409 -1.1956 0
1.2941841e-05 9.7542133 -1.1976651 0
-0.032691933 9.7544088 -1.1976957 0
-0.065568253 9.779871 -1.2008424 0
-0.098360039 9.7798042 -1.2008679 0
-0.13104813 9.7718735 -1.1999413 0
-0.16387644 9.7753048 -1.2004234 0
-0.19684455 9.7843561 -1.2016093 0
-0.22895899 9.7542648 -1.1980013 0
-0.26253399 9.7859497 -1.2019941 0
-0.29366222 9.7293301 -1.1951537 0
-0.32778203 9.7730389 -1.2006513 0
-0.36065665 9.774848 -1.2010154 0
-0.39244747 9.7492285 -1.1980225 0
-0.42624134 9.7732811 -1.201147 0
-0.45892015 9.7699499 -1.20092 0
-0.49219194 9.7786388 -1.2021841 0
-0.52320272 9.743926 -1.1981254 0
-0.55743772 9.7696047 -1.2015059 0
-0.59021354 9.7680664 -1.2015533 0
-0.62057793 9.7286777 -1.1969575 0
-0.65573531 9.7644014 -1.2016164 0
-0.68828183 9.7594824 -1.2012883 0
-0.71831113 9.7207365 -1.1968088 0
-0.75222331 9.7354155 -1.1989198 0
-0.78596872 9.7465858 -1.2006133 0
-0.81708217 9.7253208 -1.1983246 0
-0.85208189 9.7499561 -1.2017052 0
-0.88434517 9.7423992 -1.2011325 0
-0.91491807 9.7172184 -1.1983994 0
-0.94860065 9.7254524 -1.1998005 0
-0.98219454 9.7320433 -1.2010131 0
-1.0141945 9.7227106 -1.2002742 0
-1.044631 9.6992369 -1.1978019 0
-1.0812109 9.7322788 -1.2023234 0
-1.1095104 9.6908236 -1.197655 0
-1.1469859 9.7293797 -1.2028885 0
-1.1743706 9.6823626 -1.1975555 0
-1.2058762 9.6707439 -1.1966119 0
-1.2453836 9.7219944 -1.2034633 0
-1.2725981 9.6768961 -1.1984022 0
-1.3069677 9.6868944 -1.2001762 0
-1.3348355 9.6491823 -1.1960516 0
-1.3691168 9.6583166 -1.197746 0
-1.4076301 9.6959543 -1.2029921 0
-1.4371244 9.670949 -1.2004807 0
-1.4652325 9.6377344 -1.1969609 0
-1.5001736 9.6497231 -1.1990677 0
-1.5353016 9.6621513 -1.201245 0
-1.5666544 9.6505804 -1.2004527 0
-1.5990605 9.6456251 -1.2004966 0
-1.6308484 9.637001 -1.2000968 0
-1.6691399 9.6661644 -1.2044188 0
-1.6956313 9.6269712 -1.2002368 0
-1.7305423 9.6359491 -1.2020729 0
-1.7548523 9.5864573 -1.1966261 0
-1.794494 9.6207829 -1.201655 0
-1.8229302 9.5946569 -1.1991484 0
-1.8605816 9.6168814 -1.2026989 0
-1.8814822 9.5530491 -1.1954982 0
-1.9215837 9.5870104 -1.2005478 0
-1.955142 9.5875063 -1.201424 0
-1.9880652 9.5847015 -1.2019011 0
-2.0166404 9.5611544 -1.1997894 0
-2.0489287 9.5554714 -1.1999316 0
-2.0847764 9.566083 -1.2021351 0
-2.1174555 9.5618286 -1.2024859 0
-2.1415126 9.5191593 -1.198016 0
-2.1838372 9.5575304 -1.20376 0
-2.2055442 9.5056553 -1.198151 0
-2.2423739 9.5193119 -1.2008133 0
-2.266763 9.4803104 -1.1968454 0
-2.3049853 9.4992361 -1.2002037 0
-2.3417943 9.511652 -1.2027576 0
-2.3671761 9.4777384 -1.1994661 0
-2.3991938 9.4707508 -1.1995931 0
-2.4380579 9.4903851 -1.2031085 0
-2.4629705 9.4556932 -1.1997508 0
-2.4892614 9.426939 -1.1971546 0
-2.5272043 9.4422655 -1.2001703 0
-2.5550008 9.4195538 -1.1983657 0
-2.5963957 9.4466906 -1.2029186 0
-2.6171446 9.3987532 -1.1979252 0
-2.6477511 9.3867674 -1.1975222 0
-2.6881735 9.4092169 -1.2015294 0
-2.7099283 9.3663578 -1.1972098 0
-2.7502003 9.3875427 -1.2010895 0
-2.7735417 9.3508997 -1.1975844 0
-2.8086596 9.3541431 -1.199199 0
-2.8393686 9.3425741 -1.1989297 0
-2.8755093 9.3487139 -1.200948 0
-2.9095774 9.3478231 -1.2020799 0
-2.9354217 9.3206129 -1.1998397 0
-2.9690204 9.31814 -1.2007961 0
-2.999037 9.3043842 -1.2003125 0
-3.0291789 9.2910948 -1.1999016 0
-3.0528991 9.2584019 -1.1969947 0
-3.0903816 9.2674809 -1.1995013 0
-3.1123595 9.2301483 -1.1960132 0
-3.1516056 9.2440557 -1.1991777 0
-3.1797509 9.2252245 -1.1981112 0
-3.2212405 9.2448683 -1.2020582 0
-3.2418921 9.2046947 -1.1982414 0
-3.2723508 9.1926937 -1.1981006 0
-3.31826 9.2236605 -1.2035798 0
-3.3500757 9.2149839 -1.2039065 0
-3.355329 9.1339455 -1.1947823 0
-3.4111698 9.1906347 -1.2036868 0
-3.434525 9.1593046 -1.201085 0
-3.4554608 9.1219883 -1.1977041 0
-3.4879794 9.1154575 -1.1983753 0
-3.5271678 9.1260805 -1.2013198 0
-3.5597992 9.1194639 -1.2020131 0
-3.5870612 9.0991211 -1.2009104 0
-3.6215458 9.097084 -1.2022374 0
-3.6457653 9.0693159 -1.2001762 0
-3.6783783 9.0625248 -1.2009029 0
-3.7072825 9.0465784 -1.2004302 0
-3.7329764 9.0229387 -1.1989474 0
-3.7747159 9.0379267 -1.2026138 0
-3.7914557 8.9931002 -1.198334 0
-3.8249946 8.9883461 -1.1994026 0
-3.8603702 8.9877195 -1.2010393 0
-3.8809638 8.9527674 -1.1981008 0
-3.9155281 8.9501495 -1.1995006 0
-3.945755 8.9375162 -1.1995736 0
-3.9679525 8.9068489 -1.1972365 0
-4.0068617 8.9136686 -1.1999522 0
-4.0444441 8.9172039 -1.2022469 0
-4.0682201 8.8902655 -1.2004471 0
-4.0960565 8.8723555 -1.1998765 0
-4.1254129 8.8577824 -1.1997695 0
-4.1486363 8.8301687 -1.1979066 0
-4.1834846 8.8273201 -1.1994163 0
-4.2128201 8.812747 -1.1993487 0
-4.2463298 8.8068399 -1.2004755 0
-4.278336 8.797699 -1.2011782 0
-4.29778 8.7628565 -1.1983817 0
-4.3459816 8.786499 -1.2036008 0
-4.3748083 8.7706585 -1.2034334 0
-4.3951044 8.7378778 -1.2009507 0
-4.4268303 8.727932 -1.2016171 0
-4.4553313 8.7115993 -1.2014183 0
-4.4857516 8.6990108 -1.2017496 0
-4.4924054 8.6406708 -1.1957641 0
-4.5396304 8.6604328 -1.2005985 0
-4.5625448 8.633626 -1.1989963 0
-4.5888042 8.6132841 -1.1983012 0
-4.6228099 8.6074448 -1.1996384 0
-4.6558714 8.5997076 -1.2007289 0
-4.6840191 8.58284 -1.2005599 0
-4.6933899 8.5318575 -1.1956229 0
-4.7375798 8.5442286 -1.1995758 0
-4.7872624 8.5659828 -1.2048767 0
-4.7983937 8.5187063 -1.200483 0
-4.7997537 8.4547014 -1.1937244 0
-4.8429513 8.4645643 -1.1974028 0
-4.8916245 8.4835215 -1.2023978 0
-4.9017982 8.4356794 -1.1979396 0
-4.9269404 8.4138794 -1.197183 0
-4.9733729 8.4282408 -1.2015923 0
-5.0021586 8.4124537 -1.2017258 0
-5.026401 8.3890676 -1.2007858 0
-5.0441995 8.3551064 -1.1983387 0
-5.0898991 8.3672686 -1.2025239 0
-5.1159186 8.3468838 -1.2020527 0
-5.128572 8.3049021 -1.1984764 0
-5.1550384 8.285491 -1.1981628 0
-5.1779404 8.2604256 -1.1970419 0
-5.2244787 8.2729025 -1.2013816 0
-5.2409353 8.2376547 -1.198808 0
-5.284965 8.2456856 -1.2025486 0
-5.2950039 8.200696 -1.1985698 0
-5.3230958 8.1838589 -1.1987108 0
-5.354919 8.1727028 -1.1996998 0
-5.3847947 8.1584978 -1.2002579 0
-5.4165707 8.1470938 -1.2012453 0
-5.4475608 8.1344204 -1.2020628 0
-5.4587579 8.0923233 -1.1985399 0
-5.4965382 8.0896921 -1.200873 0
-5.5174656 8.0622101 -1.1995326 0
-5.5519934 8.0545864 -1.2011613 0
-5.5752935 8.0306339 -1.2003703 0
-5.6082931 8.020628 -1.2016785 0
-5.6258316 7.988543 -1.1996907 0
-5.6546092 7.9724908 -1.2001204 0
-5.6818581 7.954258 -1.2002368 0
-5.7208223 7.9522982 -1.2028285 0
-5.7352562 7.9162378 -1.200276 0
-5.7659349 7.902679 -1.2011447 0
-5.7965336 7.8889298 -1.202002 0
-5.8254099 7.8727736 -1.2025096 0
-5.8360662 7.832119 -1.1992819 0
-5.8485932 7.794251 -1.1964793 0
-5.8951917 7.8017254 -1.2006541 0
-5.9216447 7.7823477 -1.2007208 0
-5.9401727 7.7526202 -1.1992004 0
-5.9849381 7.7570348 -1.2029804 0
-6.0032492 7.7270608 -1.2014467 0
-6.0249906 7.7016072 -1.2006232 0
-6.0501523 7.6805687 -1.2004989 0
-6.086175 7.6732326 -1.202535 0
-6.0968184 7.6339402 -1.199574 0
-6.1356721 7.6299858 -1.2021785 0
-6.157321 7.6045566 -1.2014179 0
-6.1771755 7.5769911 -1.2003282 0
-6.2087803 7.5638342 -1.201535 0
-6.2452331 7.5564384 -1.2036796 0
-6.2556119 7.5175257 -1.2008153 0
-6.2660317 7.4789042 -1.1979953 0
-6.3255105 7.4986796 -1.2045535 0
-6.3292212 7.4522376 -1.2004952 0
-6.3657713 7.4445405 -1.2026868 0
-6.3806558 7.4114933 -1.2007973 0
-6.4072204 7.3920789 -1.2011256 0
-6.4304419 7.3688054 -1.2008405 0
-6.4514503 7.3430362 -1.2001593 0
-6.4835644 7.3298779 -1.2015549 0
-6.5038652 7.3033395 -1.2007724 0
-6.5151548 7.2668133 -1.1983517 0
-6.5288043 7.233098 -1.1963949 0
-6.5789919 7.239749 -1.2011368 0
-6.5967469 7.210566 -1.199958 0
-6.6022644 7.16819 -1.196583 0
-6.6420546 7.1630464 -1.1994351 0
-6.672832 7.1480193 -1.2006583 0
-6.6877232 7.1159906 -1.1990381 0
-6.7346377 7.1179357 -1.2031637 0
-6.7378602 7.0736837 -1.1994957 0
-6.7570658 7.0463881 -1.1987021 0
-6.7759581 7.0188303 -1.1978722 0
-6.8189278 7.0161104 -1.201303 0
-6.83043 6.9809613 -1.1991992 0
-6.8557301 6.9599833 -1.1995374 0
-6.8726382 6.9305158 -1.1984234 0
-6.8880067 6.899591 -1.1970626 0
-6.9194689 6.8847842 -1.1985121 0
-6.9578261 6.8766799 -1.2011555 0
-6.9828491 6.8552818 -1.2015007 0
-6.9885831 6.8150477 -1.1985489 0
-7.0186782 6.7986345 -1.1997942 0
-7.0557451 6.7888341 -1.2022327 0
-7.0611768 6.7486143 -1.1992961 0
-7.0600901 6.7024269 -1.1952881 0
-7.1101775 6.7047968 -1.1999553 0
-7.1360183 6.6841054 -1.2005275 0
-7.1493344 6.6517177 -1.1990089 0
-7.1852612 6.6403389 -1.2012937 0
-7.2015505 6.6107635 -1.2003046 0
-7.2231736 6.5861239 -1.2002213 0
-7.2455406 6.5621643 -1.2002753 0
-7.2717381 6.5416451 -1.2009749 0
-7.2793517 6.5044694 -1.1986239 0
-7.3130107 6.4905806 -1.2005761 0
-7.3309221 6.462667 -1.1999526 0
-7.3718123 6.4549189 -1.2030964 0
-7.3617635 6.4026403 -1.1979463 0
-7.3725586 6.3687387 -1.1962214 0
-7.4186025 6.3652043 -1.2002227 0
-7.438251 6.3388882 -1.1999563 0
-7.4649334 6.3185449 -1.2008365 0
-7.4825521 6.2905173 -1.2002711 0
-7.5189166 6.278183 -1.202721 0
-7.5361004 6.2497673 -1.2021111 0
-7.5546446 6.2225151 -1.2017345 0
-7.5798903 6.2007709 -1.2024364 0
-7.5895114 6.1662822 -1.2006763 0
-7.5867453 6.1219211 -1.1969848 0
-7.6366515 6.1200299 -1.2016145 0
-7.6575918 6.0947599 -1.2016872 0
-7.6495142 6.0465484 -1.1972315 0
-7.6982074 6.0432105 -1.2016745 0
-7.7138863 6.0138268 -1.2009678 0
-7.7461395 5.997324 -1.2028519 0
-7.7496352 5.95858 -1.2002857 0
-7.770515 5.9332848 -1.2004317 0
-7.7694674 5.8913527 -1.1972116 0
-7.7968893 5.8710785 -1.1983972 0
-7.8299437 5.8549337 -1.2004536 0
-7.8658328 5.840754 -1.2029469 0
-7.8625917 5.7975516 -1.1994717 0
-7.9024596 5.7861481 -1.2025875 0
-7.9030757 5.7459955 -1.1997427 0
-7.9422369 5.7338614 -1.2027624 0
-7.9267492 5.6823492 -1.197525 0
-7.9469719 5.6566052 -1.1977082 0
-7.9683499 5.6316652 -1.1980777 0
-8.0081844 5.6196523 -1.2012273 0
-8.0159712 5.5850992 -1.1995796 0
-8.0531435 5.5709839 -1.2023405 0
-8.0599966 5.535861 -1.2005857 0
-8.0980463 5.5221272 -1.2034889 0
-8.080575 5.4706125 -1.1981597 0
-8.1071272 5.449038 -1.1993811 0
-8.1268864 5.4228501 -1.1996077 0
-8.1514711 5.3998437 -1.2005575 0
-8.1431646 5.3551445 -1.1966829 0
-8.1575279 5.3254972 -1.1961629 0
-8.1942167 5.3103514 -1.1989253 0
-8.2320099 5.2957368 -1.2018503 0
-8.238286 5.2608051 -1.2001846 0
-8.2659369 5.2395306 -1.2016469 0
-8.2932291 5.2179346 -1.2030644 0
-8.2794495 5.170598 -1.1985439 0
-8.2998037 5.1447086 -1.1989865 0
-8.3249311 5.1217279 -1.200129 0
-8.3292494 5.0859666 -1.1982865 0
-8.3653717 5.0695972 -1.2010312 0
-8.3654041 5.0313458 -1.1986072 0
-8.3768988 5.0000901 -1.1978455 0
-8.3807707 4.9643669 -1.1960123 0
-8.4314089 4.9562502 -1.2008605 0
-8.4303322 4.9176598 -1.1983521 0
-8.4561472 4.894793 -1.199682 0
-8.4638004 4.8614101 -1.1984487 0
-8.5011787 4.845046 -1.2014344 0
-8.48773 4.7997518 -1.1972528 0
-8.5255022 4.7834573 -1.2003117 0
-8.5375795 4.7526679 -1.1997619 0
-8.5540943 4.7243629 -1.1998498 0
-8.5597181 4.6900854 -1.1984264 0
-8.6153584 4.6830831 -1.2040113 0
-8.6245728 4.6506987 -1.2031131 0
-8.6259861 4.6141973 -1.2011454 0
-8.6165886 4.5720806 -1.1976955 0
-8.6492729 4.5523243 -1.2001102 0
-8.6649303 4.523531 -1.2001717 0
-8.6962709 4.5028534 -1.2024146 0
-8.6982164 4.4669423 -1.2006061 0
-8.7197056 4.4410954 -1.2015102 0
-8.7080832 4.3984685 -1.1978699 0
-8.7355824 4.375659 -1.1996279 0
-8.7614059 4.3519101 -1.2011636 0
-8.7658615 4.3175421 -1.1997831 0
-8.7753601 4.2857208 -1.1991097 0
-8.8106127 4.2664108 -1.2019653 0
-8.7898989 4.220058 -1.1972024 0
-8.8217821 4.199028 -1.1996207 0
-8.8480568 4.1752052 -1.2012835 0
-8.8471556 4.1385694 -1.1992704 0
-8.8806677 4.1180115 -1.2019347 0
-8.8752871 4.0794168 -1.1993486 0
-8.8804436 4.0457773 -1.1982057 0
-8.9173546 4.0265446 -1.2013576 0
-8.92906 3.9958427 -1.2011229 0
-8.9587288 3.9731216 -1.2033151 0
-8.9590969 3.937392 -1.2015847 0
-8.9465084 3.8961222 -1.1981376 0
-8.9741917 3.8724351 -1.2000995 0
-8.9754696 3.8373413 -1.1985431 0
-8.9995489 3.8119979 -1.2000451 0
-9.0257845 3.7874699 -1.2018434 0
-9.0164423 3.7480454 -1.1989193 0
-9.0275707 3.7172227 -1.1987351 0
-9.0569601 3.6938581 -1.2009863 0
-9.0819426 3.6685803 -1.2026613 0
-9.080121 3.6324809 -1.2008005 0
-9.0932083 3.6023967 -1.2009273 0
-9.1141357 3.5753801 -1.2021011 0
-9.116375 3.5410354 -1.2008239 0
-9.1027308 3.5006566 -1.1974738 0
-9.1416941 3.4805024 -1.2010576 0
-9.1527081 3.449605 -1.2009783 0
-9.1414022 3.4103849 -1.1979878 0
-9.1858816 3.3919373 -1.2023196 0
-9.157588 3.3466423 -1.1971409 0
-9.165617 3.3147843 -1.196731 0
-9.2184277 3.2989755 -1.2021754 0
-9.2151289 3.2629831 -1.2003117 0
-9.207098 3.2254405 -1.1978503 0
-9.2249575 3.1970119 -1.1987724 0
-9.2366228 3.1664069 -1.1989021 0
-9.2397232 3.1328895 -1.1979344 0
-9.2618561 3.1058097 -1.199447 0
-9.2914124 3.0811045 -1.2019302 0
-9.290679 3.046324 -1.2005073 0
-9.3028936 3.0158226 -1.2007723 0
-9.3198309 2.9868193 -1.2016592 0
-9.3354864 2.9573584 -1.2023925 0
-9.330019 2.9212418 -1.20042 0
-9.3335743 2.8880291 -1.1996249 0
-9.3694286 2.8647373 -1.2029918 0
-9.3367376 2.8205459 -1.1975735 0
-9.3868046 2.8013611 -1.2027839 0
-9.3571949 2.7583911 -1.197798 0
-9.388546 2.7334533 -1.2006314 0
-9.3858528 2.6985657 -1.1991231 0
-9.4017763 2.6690483 -1.2000074 0
-9.4030504 2.635375 -1.1990356 0
-9.4157782 2.6049249 -1.1995381 0
-9.4160891 2.5710554 -1.1984727 0
-9.4590254 2.5487313 -1.2028432 0
-9.4508629 2.5125749 -1.2007273 0
-9.4846373 2.4875362 -1.2039518 0
-9.4589005 2.4469206 -1.1996368 0
-9.4634991 2.4142866 -1.1991866 0
-9.4949131 2.388423 -1.2021458 0
-9.4750099 2.3496666 -1.1986216 0
-9.5040703 2.323076 -1.2013059 0
-9.514576 2.2918651 -1.2016557 0
-9.494935 2.2534792 -1.1982143 0
-9.5187788 2.2254522 -1.2002748 0
-9.532835 2.195056 -1.2011124 0
-9.5247717 2.1595969 -1.1991774 0
-9.524457 2.1259756 -1.1982336 0
-9.5652494 2.1014376 -1.2024724 0
-9.5547733 2.0655789 -1.2002782 0
-9.5374718 2.0283909 -1.1972436 0
-9.5437794 1.9963102 -1.1971884 0
-9.5762463 1.9696126 -1.200426 0
-9.5974464 1.9404564 -1.2022613 0
-9.568119 1.9011576 -1.1977822 0
-9.6093626 1.8758845 -1.2021512 0
-9.5962362 1.8399431 -1.1997305 0
-9.5786753 1.803301 -1.1967723 0
-9.6007147 1.7741408 -1.1987761 0
-9.6433382 1.7486016 -1.2033595 0
-9.6296787 1.7127967 -1.2009315 0
-9.6350384 1.6804433 -1.2008905 0
-9.6216812 1.6448917 -1.1985316 0
-9.6241722 1.6121254 -1.1981618 0
-9.6350698 1.5807583 -1.1988521 0
-9.6517973 1.550289 -1.2002798 0
-9.6588993 1.5182276 -1.2005233 0
-9.6719084 1.4870603 -1.2015136 0
-9.670619 1.4536889 -1.2007413 0
-9.6907349 1.4235039 -1.2026397 0
-9.6614752 1.3861299 -1.1984251 0
-9.6572199 1.3524897 -1.1973279 0
-9.6932106 1.3244087 -1.2012329 0
-9.6774788 1.2892216 -1.1987408 0
-9.6921368 1.2581162 -1.2000272 0
-9.7017193 1.2262982 -1.2006979 0
-9.6781206 1.1903619 -1.1972767 0
-9.6861086 1.1583906 -1.1977776 0
-9.7120028 1.1284722 -1.200505 0
-9.7080059 1.095032 -1.1995504 0
-9.7437716 1.0659939 -1.2035214 0
-9.7507553 1.033686 -1.2039491 0
-9.7258978 0.99808687 -1.2004598 0
-9.7014933 0.96272373 -1.1970426 0
-9.7085342 0.93056184 -1.1975197 0
-9.7515135 0.90169644 -1.2024413 0
-9.728488 0.86668068 -1.1992371 0
-9.7508106 0.83572686 -1.2016366 0
-9.7458496 0.80239493 -1.2006871 0
-9.7319899 0.76841199 -1.1986554 0
-9.7665262 0.73819792 -1.2025974 0
-9.7548084 0.70442748 -1.2008569 0
-9.762042 0.67205673 -1.2014633 0
-9.7526436 0.63856333 -1.2000363 0
-9.7673702 0.60664606 -1.2015914 0
-9.7646503 0.57361847 -1.2010134 0
-9.7542725 0.54019803 -1.1995076 0
-9.7602005 0.50770772 -1.2000204 0
-9.7692528 0.47534108 -1.2009307 0
-9.7822495 0.44310296 -1.2023389 0
-9.7437487 0.40862778 -1.1974317 0
-9.7725744 0.37701789 -1.2008121 0
-9.7650824 0.34394369 -1.199743 0
-9.7960472 0.31215298 -1.2034121 0
-9.7689056 0.27850488 -1.1999564 0
-9.7601452 0.24550755 -1.1987724 0
-9.7769823 0.21313253 -1.2007458 0
-9.7651777 0.18012105 -1.1992152 0
-9.7651577 0.14737067 -1.1991453 0
-9.7589912 0.11455157 -1.1983342 0
-9.7815876 0.082017571 -1.2010683 0
-9.7514687 0.049068633 -1.1973432 0
-9.7847939 0.016429294 -1.2014215 0
-9.7508144 2.5874662e-05 -1.1972476 0
-13.70984 -0.023019698 -1.1994555 0
-13.716488 -0.069020301 -1.2000506 0
-13.7186 -0.11502901 -1.2002624 0
-13.72505 -0.16110538 -1.2008672 0
-13.700079 -0.20675443 -1.1987363 0
-13.741229 -0.25346029 -1.2024044 0
-13.692981 -0.29849902 -1.1982634 0
-13.713369 -0.34494731 -1.2001421 0
-13.693592 -0.39039502 -1.198519 0
-13.720676 -0.43721205 -1.2010111 0
-13.708134 -0.48282504 -1.2000482 0
-13.716202 -0.52915978 -1.2009031 0
-13.714745 -0.57516116 -1.2009376 0
-13.7162 -0.62129766 -1.2012407 0
-13.69975 -0.6665867 -1.199989 0
-13.701385 -0.71272093 -1.2003348 0
-13.697903 -0.7585988 -1.2002457 0
-13.69829 -0.80469775 -1.2005094 0
-13.688087 -0.8501597 -1.1998583 0
-13.666244 -0.8948099 -1.1981997 0
-13.650998 -0.93978745 -1.1971326 0
-13.666199 -0.98688215 -1.1987491 0
-13.674007 -1.033543 -1.1997313 0
-13.672878 -1.079574 -1.1999431 0
-13.669116 -1.1254052 -1.1999373 0
-13.67303 -1.1718942 -1.200619 0
-13.677 -1.2184412 -1.2013197 0
-13.688649 -1.2657529 -1.2027088 0
-13.642553 -1.3076371 -1.1990372 0
-13.624478 -1.3520197 -1.1978403 0
-13.628701 -1.3985988 -1.1986171 0
-13.621655 -1.4440435 -1.1984165 0
-13.627296 -1.4908615 -1.1993458 0
-13.63886 -1.5384197 -1.2008108 0
-13.628498 -1.5835438 -1.2003591 0
-13.639148 -1.6311464 -1.2017721 0
-13.62873 -1.6762675 -1.2013426 0
-13.590192 -1.7178016 -1.1984465 0
-13.617027 -1.7675982 -1.2013289 0
-13.597788 -1.8114803 -1.2001606 0
-13.606297 -1.8590637 -1.201455 0
-13.601302 -1.9048569 -1.2015712 0
-13.534261 -1.9417574 -1.1962169 0
-13.571742 -1.9935976 -1.2001138 0
-13.566813 -2.0393653 -1.2002758 0
-13.563693 -2.0854239 -1.2006116 0
-13.559 -2.1312623 -1.200822 0
-13.530781 -2.1733384 -1.1989614 0
-13.527945 -2.219435 -1.1993628 0
-13.524945 -2.2655358 -1.1997635 0
-13.506706 -2.3090634 -1.1988256 0
-13.530375 -2.3598273 -1.2016219 0
-13.508581 -2.4027233 -1.2003951 0
-13.509429 -2.4496298 -1.2011936 0
-13.492002 -2.493222 -1.2003806 0
-13.460042 -2.5340152 -1.1982863 0
-13.444072 -2.5777113 -1.1976272 0
-13.468387 -2.629221 -1.2005718 0
-13.454677 -2.6734054 -1.2001418 0
-13.44685 -2.7187464 -1.20025 0
-13.402739 -2.7566338 -1.1971309 0
-13.397953 -2.8025031 -1.1975361 0
-13.41993 -2.8540964 -1.200349 0
-13.402193 -2.8973258 -1.1996248 0
-13.400001 -2.9439132 -1.2003051 0
-13.378152 -2.9861674 -1.1992382 0
-13.38164 -3.0340834 -1.200456 0
-13.345429 -3.0729542 -1.1981251 0
-13.354424 -3.1222107 -1.1998657 0
-13.359929 -3.1707768 -1.2013088 0
-13.326608 -3.2101049 -1.1992736 0
-13.349196 -3.2629387 -1.2022841 0
-13.306925 -3.2999265 -1.1994667 0
-13.323253 -3.3514328 -1.2019446 0
-13.295986 -3.392014 -1.2005041 0
-13.274469 -3.433969 -1.199594 0
-13.282524 -3.4836082 -1.2013707 0
-13.265757 -3.5267897 -1.2009169 0
-13.249213 -3.5699961 -1.2004961 0
-13.243578 -3.6161482 -1.2010773 0
-13.228207 -3.6596532 -1.2007893 0
-13.204093 -3.7006857 -1.19972 0
-13.178199 -3.7411282 -1.1985002 0
-13.183002 -3.7902999 -1.200086 0
-13.189572 -3.8401132 -1.2018495 0
-13.177382 -3.8845372 -1.2019186 0
-13.135735 -3.9201767 -1.1993121 0
-13.108108 -3.9598436 -1.1979952 0
-13.112307 -4.0091357 -1.1996007 0
-13.081543 -4.0477395 -1.1980211 0
-13.099277 -4.1014018 -1.2008978 0
-13.100521 -4.1500716 -1.2022808 0
-13.049679 -4.1821609 -1.1988949 0
-13.053048 -4.2315521 -1.2005012 0
-13.031421 -4.2728772 -1.1998229 0
-13.026428 -4.3196645 -1.2006899 0
-13.021725 -4.3666191 -1.2015991 0
-12.990239 -4.4045677 -1.2000498 0
-12.984322 -4.4511557 -1.200875 0
-12.961883 -4.492085 -1.2001859 0
-12.949014 -4.5363121 -1.2003959 0
-12.905342 -4.5696502 -1.1977611 0
-12.915278 -4.6219583 -1.2001147 0
-12.899404 -4.6651244 -1.2000864 0
-12.895694 -4.7127337 -1.2012044 0
-12.877219 -4.7549839 -1.2009618 0
-12.859488 -4.7974916 -1.2008016 0
-12.816344 -4.830409 -1.1982784 0
-12.842957 -4.8896785 -1.2022927 0
-12.785271 -4.9168591 -1.1984289 0
-12.804417 -4.9735661 -1.2017798 0
-12.773463 -5.0108957 -1.2004448 0
-12.732605 -5.0441923 -1.1981876 0
-12.735782 -5.0949192 -1.2000873 0
-12.702318 -5.1310029 -1.1985484 0
-12.690133 -5.1756387 -1.1990293 0
-12.691057 -5.2257123 -1.2007654 0
-12.672715 -5.2679219 -1.2006943 0
-12.629685 -5.2997665 -1.1982943 0
-12.618562 -5.3449264 -1.1989324 0
-12.622529 -5.3965926 -1.2010218 0
-12.603725 -5.4386072 -1.2009609 0
-12.584004 -5.4802184 -1.2008258 0
-12.573938 -5.5260615 -1.2016265 0
-12.509349 -5.5477924 -1.197225 0
-12.509601 -5.5981703 -1.1990386 0
-12.512683 -5.6499801 -1.201143 0
-12.486829 -5.6887846 -1.2004853 0
-12.459209 -5.7267232 -1.1996694 0
-12.450798 -5.7734995 -1.2007165 0
-12.419264 -5.8095489 -1.1995472 0
-12.413765 -5.8577852 -1.2009063 0
-12.357993 -5.8822083 -1.1974121 0
-12.365499 -5.9367146 -1.2000613 0
-12.353436 -5.9819713 -1.2008302 0
-12.328781 -6.0211444 -1.2003893 0
-12.289258 -6.0529575 -1.1985104 0
-12.292182 -6.1056948 -1.2007853 0
-12.271507 -6.1468058 -1.200772 0
-12.236626 -6.1807413 -1.1993799 0
-12.215292 -6.2214575 -1.1993268 0
-12.19685 -6.2636547 -1.1995713 0
-12.19471 -6.3143148 -1.2014362 0
-12.180499 -6.3588352 -1.2021298 0
-12.139434 -6.3892822 -1.2001845 0
-12.138213 -6.4407024 -1.2021919 0
-12.109291 -6.4774799 -1.2014717 0
-12.074086 -6.510808 -1.2001379 0
-12.062584 -6.5569038 -1.2011731 0
-12.012977 -6.5822124 -1.198424 0
-11.990553 -6.6222939 -1.1983954 0
-11.988041 -6.6734581 -1.2003738 0
-11.963762 -6.7125835 -1.2001896 0
-11.916228 -6.7385435 -1.1976808 0
-11.936934 -6.8031731 -1.2020477 0
-11.917788 -6.8453007 -1.2024242 0
-11.88578 -6.8800168 -1.2015154 0
-11.852608 -6.9139729 -1.2004987 0
-11.827043 -6.9523115 -1.2002635 0
-11.808566 -6.9948287 -1.2007617 0
-11.790863 -7.0378528 -1.2013543 0
-11.730672 -7.0553756 -1.197625 0
-11.736521 -7.1125865 -1.20065 0
-11.708987 -7.1496868 -1.2002789 0
-11.681618 -7.1868544 -1.1999366 0
-11.666553 -7.2316189 -1.200873 0
-11.645776 -7.2729015 -1.2012376 0
-11.584918 -7.289 -1.1974744 0
-11.581771 -7.3413382 -1.1996865 0
-11.546218 -7.3731847 -1.1985577 0
-11.533445 -7.4195838 -1.1998075 0
-11.506346 -7.4568129 -1.1995825 0
-11.501525 -7.5085659 -1.2016977 0
-11.44597 -7.5271497 -1.1985233 0
-11.427941 -7.570302 -1.1992866 0
-11.409733 -7.6134043 -1.2000479 0
-11.368548 -7.6411352 -1.198404 0
-11.356268 -7.688283 -1.19982 0
-11.327106 -7.7240505 -1.1994684 0
-11.296296 -7.7586546 -1.1989537 0
-11.282804 -7.805191 -1.2002926 0
-11.23407 -7.8272982 -1.1978931 0
-11.212882 -7.8685122 -1.1984403 0
-11.218535 -7.9287477 -1.201879 0
-11.174191 -7.9537206 -1.1999786 0
-11.159743 -7.9999447 -1.2013007 0
-11.130283 -8.0354576 -1.2010227 0
-11.101703 -8.0715837 -1.2008523 0
-11.072395 -8.1071615 -1.2006156 0
-11.023123 -8.1279974 -1.1982211 0
-11.024525 -8.1862326 -1.2013502 0
-10.992222 -8.2195654 -1.2008265 0
-10.945233 -8.2417898 -1.1987054 0
-10.950847 -8.3036966 -1.2023624 0
-10.892875 -8.3174067 -1.1990525 0
-10.874527 -8.3612623 -1.200112 0
-10.839911 -8.3926268 -1.1993904 0
-10.822348 -8.4372158 -1.2005703 0
-10.791619 -8.4715862 -1.2003057 0
-10.758532 -8.5040665 -1.1997901 0
-10.710633 -8.5247087 -1.1976292 0
-10.697215 -8.572772 -1.1993362 0
-10.689934 -8.6259556 -1.2017555 0
-10.654856 -8.6567955 -1.2010683 0
-10.635581 -8.7004957 -1.2021772 0
-10.582892 -8.7167845 -1.1995183 0
-10.554539 -8.7529898 -1.1996242 0
-10.522227 -8.785903 -1.1992931 0
-10.499613 -8.8269348 -1.2000819 0
-10.472205 -8.8639898 -1.2003394 0
-10.439388 -8.8964624 -1.1999902 0
-10.409797 -8.9316664 -1.2000241 0
-10.379624 -8.9663734 -1.2000048 0
-10.336592 -8.9898949 -1.1985078 0
-10.337211 -9.051486 -1.2020916 0
-10.286527 -9.0682173 -1.1997266 0
-10.250072 -9.0973368 -1.1990256 0
-10.250247 -9.1591139 -1.2026315 0
-10.183846 -9.1613741 -1.198438 0
-10.165026 -9.2062922 -1.1998489 0
-10.124208 -9.2313013 -1.1986777 0
-10.094411 -9.266305 -1.1988213 0
-10.07709 -9.3128548 -1.2004658 0
-10.047708 -9.3483553 -1.2006927 0
-10.019226 -9.3847246 -1.2010424 0
-9.9932871 -9.4235287 -1.2017138 0
-9.9404325 -9.4368515 -1.1991559 0
-9.9219818 -9.4827862 -1.2007588 0
-9.8764439 -9.5028286 -1.1990969 0
-9.8636026 -9.5543671 -1.2014204 0
-9.8102217 -9.5666218 -1.1988187 0
-9.7984715 -9.6194668 -1.2013172 0
-9.7537737 -9.6400194 -1.1997931 0
-9.7260408 -9.6772871 -1.2003661 0
-9.6967077 -9.7130156 -1.2007583 0
-9.6550703 -9.7363787 -1.199638 0
-9.6275711 -9.7739744 -1.2002863 0
-9.5835819 -9.7947884 -1.1988896 0
-9.5436687 -9.819643 -1.1980085 0
-9.5345745 -9.8763247 -1.2010169 0
-9.4813595 -9.887331 -1.1984828 0
-9.4601622 -9.9316692 -1.2000057 0
-9.4247713 -9.9611759 -1.1997461 0
-9.3938837 -9.9954472 -1.2000736 0
-9.3641825 -10.031027 -1.200569 0
-9.3176088 -10.048467 -1.1989106 0
-9.3065205 -10.104247 -1.2018362 0
-9.2634516 -10.125403 -1.2006516 0
-9.2145014 -10.139955 -1.1987069 0
-9.2005301 -10.193036 -1.2013285 0
-9.15446 -10.210617 -1.1997764 0
-9.1248817 -10.246538 -1.2003956 0
-9.0940571 -10.281124 -1.2008686 0
-9.0475979 -10.29797 -1.1992863 0
-9.0283442 -10.345807 -1.2013253 0
-8.9955664 -10.378281 -1.2015871 0
-8.9375525 -10.381474 -1.1984806 0
-8.897768 -10.40562 -1.1978174 0
-8.8760128 -10.450915 -1.199599 0
-8.84482 -10.485235 -1.2001277 0
-8.8174191 -10.524146 -1.2011908 0
-8.7888727 -10.561809 -1.2021195 0
-8.741168 -10.576403 -1.200438 0
-8.7103243 -10.611335 -1.2010814 0
-8.6565313 -10.618196 -1.1985662 0
-8.6380272 -10.668335 -1.2009498 0
-8.5956516 -10.689082 -1.2000344 0
-8.5553722 -10.712341 -1.1994184 0
-8.5268641 -10.750366 -1.2004682 0
-8.4842625 -10.770632 -1.1995479 0
-8.4361172 -10.783695 -1.1978461 0
-8.4083376 -10.822762 -1.1990472 0
-8.3765888 -10.856835 -1.1997039 0
-8.3414373 -10.886552 -1.1998905 0
-8.2984333 -10.905972 -1.1989576 0
-8.2785645 -10.955892 -1.2013874 0
-8.2329378 -10.971797 -1.2000978 0
-8.1971912 -11.000796 -1.2002568 0
-8.1666346 -11.036831 -1.2011942 0
-8.1263266 -11.059717 -1.2007128 0
-8.0793562 -11.07341 -1.1992518 0
-8.0389967 -11.096037 -1.1987765 0
-8.0094671 -11.133657 -1.1999328 0
-7.968792 -11.155827 -1.1994359 0
-7.9309664 -11.18195 -1.1993788 0
-7.9034886 -11.22276 -1.2009071 0
-7.8630157 -11.245191 -1.2004795 0
-7.8285599 -11.276232 -1.2009845 0
-7.7847037 -11.293704 -1.2000587 0
-7.7471576 -11.320271 -1.200115 0
-7.7192521 -11.361037 -1.2016863 0
-7.6591678 -11.354315 -1.1982522 0
-7.6356311 -11.401695 -1.2005439 0
-7.5854282 -11.409286 -1.1986585 0
-7.5712066 -11.471128 -1.2024819 0
-7.5133896 -11.466971 -1.1993988 0
-7.4855232 -11.50843 -1.2011032 0
-7.4640326 -11.560003 -1.2038672 0
-7.3993363 -11.54456 -1.1996686 0
-7.3576083 -11.564621 -1.199183 0
-7.3334703 -11.612466 -1.2015879 0
-7.2827449 -11.618243 -1.1996524 0
-7.2406616 -11.637632 -1.1991409 0
-7.2071171 -11.670774 -1.2000592 0
-7.1769271 -11.709524 -1.2015626 0
-7.1314731 -11.723405 -1.2005267 0
-7.0882702 -11.740862 -1.1998739 0
-7.0558991 -11.7763 -1.2010713 0
-7.0145946 -11.796896 -1.2007663 0
-6.973629 -11.818021 -1.2005298 0
-6.9385438 -11.849154 -1.2013224 0
-6.8843379 -11.847502 -1.1988081 0
-6.8398657 -11.862347 -1.197983 0
-6.8165236 -11.913997 -1.2008843 0
-6.785264 -11.952151 -1.2024302 0
-6.7273121 -11.943162 -1.19925 0
-6.6739898 -11.941957 -1.1968753 0
-6.6465445 -11.987047 -1.1991543 0
-6.6150641 -12.025166 -1.200742 0
-6.5760913 -12.04981 -1.2009945 0
-6.5339622 -12.068666 -1.2006837 0
-6.4896545 -12.083418 -1.1999798 0
-6.4466782 -12.100554 -1.1995282 0
-6.4020395 -12.114471 -1.1987734 0
-6.3720055 -12.156127 -1.2007746 0
-6.3326688 -12.180224 -1.2010508 0
-6.2850413 -12.188291 -1.1997615 0
-6.2373004 -12.195919 -1.1984471 0
-6.2153192 -12.254113 -1.2021112 0
-6.1603141 -12.24728 -1.1994079 0
-6.1034417 -12.236239 -1.1963159 0
-6.0854344 -12.303243 -1.2008651 0
-6.0383964 -12.311846 -1.1997219 0
-6.0003514 -12.338742 -1.2003758 0
-5.963625 -12.36849 -1.2013178 0
-5.9185672 -12.38098 -1.2005967 0
-5.8764195 -12.399481 -1.2004734 0
-5.8352585 -12.42006 -1.200565 0
-5.7832842 -12.417441 -1.1984308 0
-5.7494788 -12.453789 -1.2000715 0
-5.7082329 -12.474178 -1.2001853 0
-5.6768236 -12.516279 -1.2023979 0
-5.6165872 -12.494666 -1.1985059 0
-5.5792842 -12.5238 -1.1994992 0
-5.5436325 -12.556863 -1.2008791 0
-5.4866519 -12.541438 -1.1976379 0
-5.4569669 -12.588356 -1.2003644 0
-5.4090738 -12.593413 -1.1991105 0
-5.375155 -12.631064 -1.2009728 0
-5.3249135 -12.630368 -1.1992023 0
-5.2940912 -12.675817 -1.2018254 0
-5.2402549 -12.666166 -1.1992378 0
-5.2010365 -12.691664 -1.1999941 0
-5.1561179 -12.703274 -1.1994506 0
-5.1243043 -12.747374 -1.2019856 0
-5.0785966 -12.757099 -1.2012902 0
-5.0279641 -12.754189 -1.199422 0
-4.9862895 -12.773834 -1.1996906 0
-4.9425511 -12.788198 -1.1994765 0
-4.9038758 -12.815749 -1.2005118 0
-4.865447 -12.844177 -1.2016399 0
-4.8226843 -12.861295 -1.2017218 0
-4.7751274 -12.865515 -1.2006134 0
-4.7329922 -12.884249 -1.200874 0
-4.6944709 -12.912984 -1.2020785 0
-4.6399827 -12.897611 -1.1991924 0
-4.593029 -12.902744 -1.1982311 0
-4.5670867 -12.967317 -1.202799 0
-4.5085287 -12.939348 -1.1987958 0
-4.4666128 -12.958721 -1.1991966 0
-4.4282603 -12.988645 -1.2005849 0
-4.3779287 -12.983377 -1.1987344 0
-4.3333745 -12.994986 -1.1984581 0
-4.2930803 -13.01945 -1.19938 0
-4.252809 -13.044212 -1.2003409 0
-4.2114744 -13.065919 -1.2010323 0
-4.1648078 -13.071068 -1.2002152 0
-4.1178784 -13.075173 -1.1993178 0
-4.0773497 -13.099615 -1.2002989 0
-4.0337548 -13.114345 -1.2004026 0
-3.9867892 -13.118013 -1.1995082 0
-3.9477518 -13.14785 -1.2010194 0
-3.9031618 -13.159375 -1.20087 0
-3.8553615 -13.159904 -1.1997318 0
-3.8133998 -13.1803 -1.2004189 0
-3.7722805 -13.203837 -1.2014041 0
-3.7335975 -13.236294 -1.2032114 0
-3.6752603 -13.198686 -1.1986659 0
-3.6311409 -13.211493 -1.1987166 0
-3.5952582 -13.254685 -1.2015351 0
-3.5393631 -13.223943 -1.1976658 0
-3.5075226 -13.283136 -1.2019551 0
-3.451762 -13.251804 -1.1980659 0
-3.4131861 -13.286169 -1.2001314 0
-3.3633246 -13.276631 -1.1982445 0
-3.3257036 -13.315508 -1.2007401 0
-3.2836032 -13.336992 -1.2016779 0
-3.2275271 -13.301188 -1.1974701 0
-3.1907227 -13.344599 -1.2004085 0
-3.1395957 -13.328192 -1.197979 0
-3.0948179 -13.338327 -1.1979505 0
-3.0534573 -13.36341 -1.199277 0
-3.0138018 -13.39654 -1.2013366 0
-2.9668019 -13.397235 -1.2005002 0
-2.9244165 -13.418807 -1.2015479 0
-2.8711841 -13.390177 -1.1981156 0
-2.8293722 -13.41442 -1.1994293 0
-2.7870507 -13.436706 -1.2005796 0
-2.738744 -13.430085 -1.1991608 0
-2.7003865 -13.472552 -1.2021375 0
-2.6431489 -13.420341 -1.1966813 0
-2.605654 -13.467974 -1.200143 0
-2.5574236 -13.460528 -1.1987085 0
-2.5127649 -13.471633 -1.1989405 0
-2.4714997 -13.501379 -1.2008436 0
-2.424968 -13.502628 -1.2002248 0
-2.3757889 -13.488576 -1.198261 0
-2.3346 -13.519915 -1.2003428 0
-2.2914104 -13.540391 -1.2014719 0
-2.2455859 -13.545505 -1.2012508 0
-2.1973975 -13.535953 -1.1997436 0
-2.1504736 -13.533628 -1.1988919 0
-2.1064677 -13.549652 -1.1996789 0
-2.0616932 -13.561024 -1.200067 0
-2.0152576 -13.561423 -1.1994977 0
-1.9714309 -13.579494 -1.2005045 0
-1.9255702 -13.58377 -1.2003051 0
-1.8758669 -13.560159 -1.1976563 0
-1.8349898 -13.600451 -1.2006649 0
-1.7886934 -13.601309 -1.2002044 0
-1.7438684 -13.613379 -1.2007467 0
-1.6974479 -13.612993 -1.200204 0
-1.6534023 -13.631847 -1.2013708 0
-1.6063378 -13.62586 -1.2003617 0
-1.5571108 -13.60031 -1.1976444 0
-1.515404 -13.640572 -1.2007356 0
-1.4649565 -13.601892 -1.1968917 0
-1.4247772 -13.658816 -1.2014736 0
-1.3776041 -13.649946 -1.2002802 0
-1.331562 -13.651734 -1.2000382 0
-1.2842212 -13.639535 -1.1985805 0
-1.2411882 -13.673565 -1.2011985 0
-1.1942493 -13.66521 -1.200106 0
-1.1467774 -13.649519 -1.1983837 0
-1.1015128 -13.659564 -1.1989346 0
-1.0563165 -13.671046 -1.1996248 0
-1.0095762 -13.662359 -1.1985587 0
-0.9634248 -13.660869 -1.1981379 0
-0.91963714 -13.694103 -1.2007755 0
-0.87413347 -13.703618 -1.2013462 0
-0.82758468 -13.696572 -1.2004784 0
-0.7811023 -13.68953 -1.199625 0
-0.73476714 -13.68402 -1.1989194 0
-0.68889993 -13.686742 -1.1989489 0
-0.64291364 -13.686987 -1.1987747 0
-0.5967052 -13.681845 -1.1981424 0
-0.55391043 -13.760313 -1.2048446 0
-0.50604045 -13.715174 -1.2007369 0
-0.46012342 -13.718885 -1.2009201 0
-0.41326746 -13.691974 -1.1984363 0
-0.36835718 -13.730507 -1.2016941 0
-0.32171065 -13.705733 -1.1994247 0
-0.27620107 -13.728853 -1.2013602 0
-0.22966032 -13.699343 -1.1987038 0
-0.18357372 -13.688553 -1.1976991 0
-0.13775526 -13.696818 -1.1983751 0
-0.091986366 -13.720281 -1.2003942 0
-0.045878984 -13.689076 -1.1976439 0
1.8202338e-05 -13.719029 -1.2002578 0
0.046108369 -13.746634 -1.2026796 0
0.091796651 -13.686565 -1.1974444 0
0.13809767 -13.727242 -1.2010369 0
0.1842058 -13.732967 -1.2015853 0
0.22994156 -13.713948 -1.1999818 0
0.27591798 -13.712973 -1.1999707 0
0.32165191 -13.701681 -1.1990703 0
0.36749575 -13.697042 -1.1987653 0
0.41426578 -13.723841 -1.2012256 0
0.45968997 -13.704877 -1.1996939 0
0.50475711 -13.679405 -1.1976056 0
0.55147821 -13.698986 -1.1994749 0
0.59689832 -13.685438 -1.1984572 0
0.64350504 -13.698801 -1.1998097 0
0.68981576 -13.704212 -1.2004794 0
0.7352432 -13.692207 -1.1996369 0
0.78192174 -13.703252 -1.2008276 0
0.82685429 -13.683881 -1.1993662 0
0.87346727 -13.692602 -1.2003807 0
0.91874498 -13.680275 -1.1995633 0
0.96412712 -13.67031 -1.1989661 0
1.0116032 -13.689296 -1.200922 0
1.058018 -13.692594 -1.2015158 0
1.1038136 -13.687642 -1.2013993 0
1.1488774 -13.67408 -1.2005402 0
1.1946952 -13.669895 -1.2005178 0
1.2403032 -13.663411 -1.2003068 0
1.284271 -13.639677 -1.1985934 0
1.3315439 -13.651174 -1.1999892 0
1.3787062 -13.660503 -1.2012089 0
1.4228865 -13.640342 -1.1998488 0
1.4702696 -13.650884 -1.201203 0
1.5153174 -13.639462 -1.2006382 0
1.5605326 -13.629878 -1.2002485 0
1.6033404 -13.600124 -1.198095 0
1.6516325 -13.616953 -1.2000586 0
1.7006091 -13.63805 -1.2024136 0
1.743589 -13.610911 -1.2005296 0
1.7879336 -13.595252 -1.1996703 0
1.8305314 -13.567136 -1.1977242 0
1.8758638 -13.559872 -1.1976314 0
1.9222094 -13.559801 -1.1981877 0
1.969084 -13.563075 -1.1990535 0
2.0152822 -13.56134 -1.1994908 0
2.0584338 -13.539343 -1.1981488 0
2.1070883 -13.553407 -1.2000118 0
2.1574647 -13.577394 -1.2027694 0
2.2011244 -13.558684 -1.201759 0
2.2455389 -13.544998 -1.2012064 0
2.2856922 -13.506383 -1.1984549 0
2.333075 -13.51087 -1.1995404 0
2.3771069 -13.495849 -1.1989076 0
2.4263406 -13.510065 -1.2008865 0
2.4694211 -13.489822 -1.1998163 0
2.5187907 -13.50374 -1.2017986 0
2.5558851 -13.452234 -1.1979706 0
2.6030266 -13.454202 -1.1989163 0
2.6505156 -13.457555 -1.2000003 0
2.6973236 -13.457085 -1.200758 0
2.7394047 -13.433143 -1.1994345 0
2.7815139 -13.409834 -1.1981792 0
2.8295512 -13.415093 -1.1994901 0
2.8783436 -13.423392 -1.2010883 0
2.9193079 -13.395196 -1.1994344 0
2.9604197 -13.368248 -1.1979034 0
3.0161839 -13.406962 -1.2022721 0
3.0579705 -13.382999 -1.2010359 0
3.1036484 -13.376225 -1.2013549 0
3.1412938 -13.335241 -1.1986133 0
3.1867433 -13.327798 -1.198898 0
3.2396195 -13.350867 -1.2019434 0
3.2812386 -13.327236 -1.2007996 0
3.3269718 -13.320435 -1.2011851 0
3.3681448 -13.295511 -1.1999491 0
3.4146144 -13.291583 -1.2006212 0
3.4628265 -13.294139 -1.201894 0
3.5049958 -13.273425 -1.2010771 0
3.5487778 -13.258978 -1.2008398 0
3.59056 -13.237225 -1.1999531 0
3.6351998 -13.226124 -1.200045 0
3.6860073 -13.237144 -1.2021594 0
3.7179098 -13.180544 -1.1981446 0
3.7648032 -13.177533 -1.1990116 0
3.8101311 -13.168871 -1.199379 0
3.8669493 -13.199328 -1.2033269 0
3.8990209 -13.145287 -1.1995852 0
3.9453361 -13.139678 -1.2002739 0
3.9803739 -13.09678 -1.1975676 0
4.0380025 -13.128032 -1.2016565 0
4.0816422 -13.113283 -1.2015524 0
4.1110873 -13.053491 -1.1973299 0
4.1638422 -13.067917 -1.199927 0
4.2022839 -13.037287 -1.1984015 0
4.2499666 -13.035377 -1.1995289 0
4.2930422 -13.019217 -1.1993598 0
4.3361049 -13.003058 -1.1992036 0
4.3816257 -12.994226 -1.1997372 0
