# .PCD v0.7 - Point Cloud Data file format
VERSION 0.7
FIELDS x y z intensity
SIZE 4 4 4 4
TYPE F F F F
COUNT 1 1 1 1
WIDTH 1409
HEIGHT 1
VIEWPOINT 0 0 0 1 0 0 0
POINTS 1409
DATA ascii
-7.1373944 2.5542414 -1.2006582 0
-7.1510367 2.532109 -1.2015183 0
-7.1468973 2.5037086 -1.1994056 0
-7.1629276 2.4823925 -1.2006923 0
-7.1792569 2.4611211 -1.2020395 0
-7.17488 2.4327683 -1.1999342 0
-7.172533 2.40519 -1.1981863 0
-7.1752315 2.3793623 -1.1972977 0
-7.1935992 2.358712 -1.1990364 0
-7.2279077 2.3431513 -1.2034386 0
-7.2114782 2.3111343 -1.1994063 0
-7.2337785 2.2915652 -1.2018306 0
-7.2288585 2.2633655 -1.1997455 0
-7.2326188 2.2379439 -1.1991177 0
-7.238863 2.213309 -1.1989158 0
-7.2612305 2.1935534 -1.2013955 0
-7.2437034 2.1617823 -1.1972897 0
-7.2719717 2.1436918 -1.2007673 0
-7.2809591 2.1198342 -1.201071 0
-7.2916961 2.0964661 -1.2016759 0
-7.2542377 2.0593886 -1.1943581 0
-7.2884097 2.0427086 -1.1988499 0
-7.2789049 2.0137475 -1.1961693 0
-7.3208976 1.998965 -1.2019619 0
-7.334374 1.9762446 -1.2030798 0
-7.3494925 1.9539115 -1.2044784 0
-7.3135962 1.9181373 -1.1975348 0
-7.3258209 1.8951148 -1.1984893 0
-7.3225136 1.8680876 -1.1969168 0
-7.3511915 1.849175 -1.2005843 0
-7.3471608 1.8219905 -1.1989216 0
-7.3406911 1.7942822 -1.1968775 0
-7.3802156 1.7777417 -1.2023431 0
-7.379962 1.7515222 -1.2013383 0
-7.3758597 1.7244464 -1.1997226 0
-7.3801179 1.6993655 -1.1994817 0
-7.388546 1.6752404 -1.199932 0
-7.4043221 1.6527355 -1.2015873 0
-7.3966603 1.6250094 -1.1994531 0
-7.4371662 1.6077884 -1.2051406 0
-7.4346004 1.5811608 -1.2038591 0
-7.4105644 1.5500972 -1.1991187 0
-7.4111457 1.5243015 -1.198379 0
-7.4304438 1.5023216 -1.2006782 0
-7.4449964 1.4792993 -1.2022216 0
-7.4274831 1.4499505 -1.1986018 0
-7.4247532 1.4235919 -1.1973844 0
-7.4427495 1.4011873 -1.1995221 0
-7.4377556 1.3744421 -1.1979679 0
-7.4720154 1.3548812 -1.2027475 0
-7.4492254 1.3249671 -1.1983572 0
-7.4456377 1.2985908 -1.197073 0
-7.4809284 1.2789156 -1.2020507 0
-7.461215 1.2498128 -1.198203 0
-7.4786367 1.2269675 -1.2003334 0
-7.4606161 1.1983377 -1.1967895 0
-7.488554 1.1770834 -1.2006314 0
-7.4800348 1.1500589 -1.1986405 0
-7.4906006 1.1259881 -1.1997219 0
-7.5048513 1.1024122 -1.2014055 0
-7.5156465 1.0782682 -1.2025481 0
-7.5261426 1.0540332 -1.2036555 0
-7.5203595 1.0275263 -1.2021728 0
-7.5154953 1.0012048 -1.2008519 0
-7.5126586 0.97520268 -1.1998694 0
-7.5073104 0.94892472 -1.1985004 0
-7.5069857 0.92332274 -1.1979476 0
-7.5184236 0.89915073 -1.1992849 0
-7.5120301 0.87284958 -1.1977916 0
-7.5308743 0.84945846 -1.2003354 0
-7.5418434 0.8250972 -1.2016361 0
-7.5403566 0.7993598 -1.2009654 0
-7.5574083 0.77555311 -1.2032603 0
-7.5479069 0.74901348 -1.201341 0
-7.5314646 0.72188997 -1.1983321 0
-7.5426688 0.6974504 -1.1997359 0
-7.5563021 0.67316735 -1.2015387 0
-7.5680571 0.64864647 -1.2030553 0
-7.5624981 0.6226353 -1.201833 0
-7.5691071 0.59763652 -1.202558 0
-7.5477619 0.57049376 -1.1988562 0
-7.5792084 0.54732013 -1.2035528 0
-7.5675178 0.5209772 -1.2014122 0
-7.5523801 0.49449906 -1.1987391 0
-7.560318 0.46956724 -1.1997423 0
-7.5947089 0.44614655 -1.2049556 0
-7.5536513 0.41832617 -1.1982123 0
-7.5708537 0.39382195 -1.2007248 0
-7.587491 0.36918342 -1.2031604 0
-7.5720987 0.34299058 -1.2005305 0
-7.5796232 0.31786993 -1.2015479 0
-7.5880065 0.29273903 -1.2027143 0
-7.6147714 0.26820588 -1.2068074 0
-7.5720177 0.24128385 -1.1998967 0
-7.600862 0.21669543 -1.2043456 0
-7.5435309 0.18975064 -1.1951541 0
-7.5731754 0.16509083 -1.1997563 0
-7.5775461 0.13976967 -1.2003678 0
-7.5942106 0.11460786 -1.20294 0
-7.5914149 0.089108437 -1.202443 0
-7.5641708 0.063424766 -1.1980872 0
-7.577857 0.038131189 -1.200228 0
-7.5975208 0.012756723 -1.203329 0
-7.5637789 2.0071167e-05 -1.1979831 0
-9.7471638 -0.016366111 -1.1968012 0
-9.7678022 -0.049150821 -1.1993487 0
-9.7923555 -0.082107864 -1.2023906 0
-9.7679882 -0.11465716 -1.1994389 0
-9.7402315 -0.1469945 -1.1960845 0
-9.7839699 -0.18046768 -1.2015229 0
-9.7665482 -0.21290508 -1.1994644 0
-9.7811794 -0.24603663 -1.2013558 0
-9.7691565 -0.27851203 -1.1999872 0
-9.7671957 -0.31123361 -1.1998677 0
-9.7829695 -0.34457374 -1.2019407 0
-9.761199 -0.37657902 -1.1994143 0
-9.7731495 -0.40986082 -1.2010449 0
-9.7468071 -0.44149753 -1.1979828 0
-9.77843 -0.47578764 -1.2020589 0
-9.7550421 -0.50743943 -1.1993862 0
-9.7426186 -0.53955263 -1.1980745 0
-9.77349 -0.57413775 -1.2021006 0
-9.7665892 -0.60659754 -1.2014953 0
-9.7329655 -0.63727492 -1.197615 0
-9.7502995 -0.67124832 -1.200018 0
-9.7485847 -0.70397806 -1.2000908 0
-9.7338343 -0.73572695 -1.1985719 0
-9.7257032 -0.76791555 -1.197881 0
-9.7345953 -0.80146831 -1.1993004 0
-9.750762 -0.83572274 -1.2016307 0
-9.7448158 -0.86813521 -1.2012498 0
-9.7420635 -0.90082258 -1.2012761 0
-9.7388773 -0.93347013 -1.2012624 0
-9.7157059 -0.9641341 -1.1987962 0
-9.7026215 -0.99569821 -1.1975869 0
-9.7235384 -1.0308008 -1.2005885 0
-9.7346506 -1.064996 -1.2023947 0
-9.7097254 -1.0952259 -1.1997629 0
-9.7402115 -1.13175 -1.203992 0
-9.6851778 -1.1582794 -1.1976626 0
-9.7115612 -1.1944748 -1.2014135 0
-9.7029057 -1.2264482 -1.2008448 0
-9.7011175 -1.259282 -1.2011392 0
-9.7039213 -1.2927442 -1.2020162 0
-9.6870346 -1.3235648 -1.2004675 0
-9.6365957 -1.3496013 -1.1947709 0
-9.659874 -1.3859001 -1.1982263 0
-9.6848841 -1.4226445 -1.2019136 0
-9.668025 -1.4532989 -1.2004192 0
-9.663784 -1.4858112 -1.2005044 0
-9.6484165 -1.5165797 -1.1992203 0
-9.6690865 -1.5530661 -1.2024299 0
-9.6547298 -1.5839838 -1.2012982 0
-9.6240177 -1.6120996 -1.1981426 0
-9.6428852 -1.6485169 -1.2011729 0
-9.5988083 -1.6741244 -1.1963749 0
-9.6632881 -1.7187747 -1.2051231 0
-9.601861 -1.7410805 -1.1981837 0
-9.6367893 -1.7808071 -1.2032804 0
-9.62148 -1.8113595 -1.2021204 0
-9.5745468 -1.8357846 -1.197019 0
-9.5860157 -1.8713267 -1.1992304 0
-9.6089764 -1.9092759 -1.202897 0
-9.5975628 -1.9404799 -1.2022759 0
-9.5818262 -1.9707605 -1.2011256 0
-9.5773964 -2.0033422 -1.2014054 0
-9.5363712 -2.028157 -1.1971055 0
-9.5438261 -2.0632124 -1.198903 0
-9.5429659 -2.0965419 -1.1996711 0
-9.5657263 -2.1351874 -1.2034256 0
-9.5260735 -2.1598921 -1.1993414 0
-9.5289335 -2.1941576 -1.2006209 0
-9.5407953 -2.2305996 -1.203051 0
-9.5033646 -2.2554796 -1.199278 0
-9.5199423 -2.2931576 -1.2023336 0
-9.4748116 -2.3159244 -1.1976076 0
-9.4790592 -2.3506708 -1.199134 0
-9.4829731 -2.3854194 -1.2006341 0
-9.4837437 -2.4194515 -1.2017519 0
-9.4583969 -2.4467905 -1.1995729 0
-9.4561357 -2.4800611 -1.200334 0
-9.4621372 -2.5155721 -1.2021596 0
-9.4424191 -2.5442567 -1.2007315 0
-9.4356556 -2.5763979 -1.2009631 0
-9.4239922 -2.6071973 -1.2005845 0
-9.4060411 -2.6362133 -1.199417 0
-9.3838253 -2.6639524 -1.1977162 0
-9.3907671 -2.6999788 -1.199751 0
-9.3640146 -2.7263112 -1.1974943 0
-9.3604183 -2.7593415 -1.1982107 0
-9.3753958 -2.797956 -1.201322 0
-9.3547726 -2.8259943 -1.1998868 0
-9.3359947 -2.8545146 -1.1986991 0
-9.3562717 -2.8950522 -1.2025421 0
-9.3387671 -2.9239805 -1.2015455 0
-9.3081512 -2.948699 -1.1988719 0
-9.298605 -2.9800165 -1.1989223 0
-9.3001261 -3.0149255 -1.2004151 0
-9.2940474 -3.0474286 -1.2009425 0
-9.289278 -3.0803967 -1.2016541 0
-9.2626495 -3.106076 -1.1995499 0
-9.2696075 -3.1430223 -1.2018089 0
-9.2370653 -3.1665585 -1.1989596 0
-9.237936 -3.20151 -1.2004591 0
-9.2278957 -3.2327263 -1.2005562 0
-9.2038298 -3.2589822 -1.1988399 0
-9.1983881 -3.2918038 -1.199562 0
-9.1849775 -3.3217862 -1.1992588 0
-9.1999178 -3.3621118 -1.2026746 0
-9.1838388 -3.3911829 -1.2020522 0
-9.1546831 -3.4153395 -1.1997283 0
-9.1541767 -3.4501586 -1.201171 0
-9.1426363 -3.4808612 -1.2011814 0
-9.1257677 -3.509516 -1.2005043 0
-9.0901022 -3.5308304 -1.1973631 0
-9.091959 -3.5666804 -1.1991762 0
-9.0666552 -3.5918775 -1.1974205 0
-9.0888882 -3.6359882 -1.20196 0
-9.0452309 -3.6537509 -1.1977998 0
-9.0778666 -3.7023849 -1.2037587 0
-9.0454779 -3.7245965 -1.201113 0
-9.012887 -3.7465675 -1.1984465 0
-8.9966593 -3.7752478 -1.1979651 0
-9.0047884 -3.8142169 -1.2007437 0
-8.9772425 -3.8380992 -1.1987798 0
-8.967351 -3.869483 -1.1991847 0
-8.9486923 -3.8970733 -1.1984301 0
-8.9422092 -3.92997 -1.1993197 0
-8.9200478 -3.9559669 -1.1981196 0
-8.9349909 -3.9984972 -1.2019207 0
-8.8740578 -4.0069942 -1.1955246 0
-8.9145756 -4.0613275 -1.2028109 0
-8.8536654 -4.069479 -1.1964269 0
-8.8664436 -4.1114159 -1.2000096 0
-8.8759174 -4.1520238 -1.2031692 0
-8.8393974 -4.1711187 -1.2001077 0
-8.8294849 -4.2026944 -1.2006682 0
-8.7864685 -4.218411 -1.1967353 0
-8.8134718 -4.2677956 -1.2023555 0
-8.7984056 -4.2969756 -1.2022587 0
-8.7736311 -4.3213692 -1.2008466 0
-8.772893 -4.3576155 -1.2027384 0
-8.7477627 -4.3817601 -1.2013005 0
-8.7241421 -4.4065795 -1.2000788 0
-8.7083235 -4.4352984 -1.1999419 0
-8.6698294 -4.4523644 -1.1966878 0
-8.6685743 -4.4885125 -1.198585 0
-8.6523914 -4.5169849 -1.1984348 0
-8.6404333 -4.5476723 -1.1988838 0
-8.6456938 -4.5875239 -1.201741 0
-8.6302433 -4.6164742 -1.2017381 0
-8.5922251 -4.633256 -1.1986006 0
-8.5931587 -4.6710157 -1.2009089 0
-8.5698442 -4.6956334 -1.199844 0
-8.5544472 -4.7245584 -1.1998994 0
-8.5374422 -4.7525921 -1.1997426 0
-8.5075006 -4.7733569 -1.1977772 0
-8.5217133 -4.8189688 -1.2020463 0
-8.4764633 -4.8309598 -1.1979414 0
-8.4802742 -4.8708725 -1.2007813 0
-8.4394846 -4.8851476 -1.1973181 0
-8.4224949 -4.9130878 -1.1972381 0
-8.4261541 -4.9531612 -1.2001121 0
-8.4071045 -4.9799657 -1.1997703 0
-8.37498 -4.9989448 -1.197571 0
-8.3812494 -5.0408759 -1.2008774 0
-8.346014 -5.0578661 -1.198252 0
-8.3271313 -5.0846739 -1.1979818 0
-8.3199625 -5.1186709 -1.1994128 0
-8.3059425 -5.1485143 -1.1998734 0
-8.2991314 -5.182889 -1.201393 0
-8.2861814 -5.2135005 -1.202042 0
-8.2596521 -5.2355466 -1.2007333 0
-8.2455425 -5.2654395 -1.2012419 0
-8.2023878 -5.27668 -1.1975255 0
-8.1994581 -5.3137479 -1.1996921 0
-8.2005768 -5.353601 -1.2024754 0
-8.180829 -5.3799138 -1.2022179 0
-8.1467638 -5.3967252 -1.1998641 0
-8.139019 -5.4309459 -1.2013985 0
-8.1121464 -5.4524117 -1.2001237 0
-8.0854683 -5.4739256 -1.1988853 0
-8.0856638 -5.5136833 -1.2016486 0
-8.0649014 -5.5392299 -1.2013164 0
-8.02038 -5.5483189 -1.1974488 0
-8.0347281 -5.5981679 -1.2023866 0
-8.0017176 -5.6151137 -1.2002572 0
-7.9800458 -5.6399312 -1.1998361 0
-7.9737525 -5.6756678 -1.2017444 0
-7.9562349 -5.703486 -1.2019795 0
-7.9323325 -5.7267113 -1.2012626 0
-7.8986645 -5.7427883 -1.199073 0
-7.8882909 -5.775774 -1.2004312 0
-7.8545504 -5.7916222 -1.198245 0
-7.8620515 -5.8379464 -1.2023686 0
-7.8394303 -5.8620276 -1.2019081 0
-7.8152213 -5.8848825 -1.2012149 0
-7.8019223 -5.9159627 -1.2022127 0
-7.7684727 -5.9317255 -1.2001163 0
-7.7446432 -5.9547415 -1.1995125 0
-7.7308965 -5.9855223 -1.2004849 0
-7.7225428 -6.020576 -1.2023154 0
-7.6853971 -6.0331545 -1.1996748 0
-7.6579585 -6.0532231 -1.1985531 0
-7.6471677 -6.0864635 -1.2000514 0
-7.6399112 -6.122642 -1.2021273 0
-7.6154151 -6.1450553 -1.201508 0
-7.5796518 -6.1582713 -1.1991165 0
-7.5650077 -6.1885962 -1.2000756 0
-7.5410399 -6.2113094 -1.1995704 0
-7.5104461 -6.2284918 -1.1980189 0
-7.4976587 -6.2604332 -1.1993206 0
-7.4917068 -6.298214 -1.2017397 0
-7.4618902 -6.3159685 -1.2003469 0
-7.4254985 -6.3280206 -1.1978991 0
-7.4275308 -6.3728647 -1.2016672 0
-7.3974185 -6.3902135 -1.200255 0
-7.3766494 -6.4155869 -1.2003685 0
-7.3345928 -6.4223289 -1.1970221 0
-7.3177309 -6.4510384 -1.1977935 0
-7.3121772 -6.489841 -1.2004392 0
-7.290163 -6.5141296 -1.200404 0
-7.264194 -6.5348587 -1.199729 0
-7.2540574 -6.5698771 -1.201686 0
-7.2106013 -6.5746603 -1.1981323 0
-7.2131009 -6.6213665 -1.2022297 0
-7.1818328 -6.6371703 -1.2007204 0
-7.1459913 -6.6486077 -1.1984483 0
-7.1291356 -6.6776586 -1.1993695 0
-7.1290836 -6.7226248 -1.203146 0
-7.0862112 -6.7272248 -1.1997105 0
-7.0684905 -6.7556043 -1.2005383 0
-7.0379658 -6.7717271 -1.1992034 0
-7.0098405 -6.7900734 -1.1982834 0
-7.0136728 -6.8395143 -1.2028518 0
-6.9898071 -6.862113 -1.2026979 0
-6.9510226 -6.8699555 -1.199981 0
-6.9293547 -6.8946199 -1.2002243 0
-6.9234524 -6.9350963 -1.2032228 0
-6.8792591 -6.937192 -1.1995779 0
-6.8547273 -6.9589648 -1.1993619 0
-6.8342757 -6.9848919 -1.1998744 0
-6.8069296 -7.0037656 -1.1991893 0
-6.7967496 -7.0403671 -1.2015477 0
-6.7730598 -7.0630674 -1.2015395 0
-6.7386928 -7.0745578 -1.1996439 0
-6.7209506 -7.1034694 -1.2007185 0
-6.6995773 -7.1286039 -1.2011634 0
-6.6793041 -7.154952 -1.2018229 0
-6.6493702 -7.1709356 -1.2007562 0
-6.5992751 -7.1649451 -1.1960413 0
-6.5996714 -7.2137623 -1.2004899 0
-6.5711803 -7.231153 -1.1997107 0
-6.5464845 -7.2526855 -1.1996348 0
-6.5053411 -7.255867 -1.1965466 0
-6.4972448 -7.2959051 -1.19955 0
-6.4694667 -7.31394 -1.1989423 0
-6.4566207 -7.3489208 -1.2011211 0
-6.4212246 -7.358243 -1.1991192 0
-6.3977714 -7.3811774 -1.1993542 0
-6.3869352 -7.4187875 -1.201979 0
-6.368031 -7.4471827 -1.2031137 0
-6.3195047 -7.4407969 -1.1986523 0
-6.3033042 -7.4723544 -1.2003247 0
-6.2840137 -7.5003672 -1.2014333 0
-6.2482314 -7.508656 -1.1993985 0
-6.2359095 -7.5451574 -1.2018826 0
-6.1989579 -7.551868 -1.1996341 0
-6.1775198 -7.5774136 -1.2003951 0
-6.1287518 -7.569272 -1.1958435 0
-6.132103 -7.6255479 -1.2014793 0
-6.0949664 -7.6316214 -1.1992097 0
-6.0716147 -7.6548758 -1.1996582 0
-6.0360761 -7.6626987 -1.1977059 0
-6.0110421 -7.6837773 -1.1978437 0
-5.9949884 -7.7164283 -1.1997935 0
-5.9813905 -7.7524362 -1.2022672 0
-5.9537001 -7.7702751 -1.2019312 0
-5.9150472 -7.7736769 -1.199383 0
-5.8826499 -7.7851272 -1.1980999 0
-5.8689961 -7.8214407 -1.2006532 0
-5.8572612 -7.8605633 -1.2036374 0
-5.8059273 -7.8464437 -1.1984879 0
-5.7826347 -7.8700137 -1.1991199 0
-5.7581162 -7.891963 -1.1995159 0
-5.7286286 -7.9070902 -1.198889 0
-5.7005496 -7.9241176 -1.1985661 0
-5.6882524 -7.9632096 -1.2015876 0
-5.6415334 -7.9540553 -1.1973454 0
-5.6197486 -7.9799051 -1.1983935 0
-5.597775 -8.0055857 -1.1994249 0
-5.5792651 -8.036355 -1.2012254 0
-5.5481882 -8.0490656 -1.200338 0
-5.5060797 -8.0455723 -1.1970574 0
-5.4800367 -8.0654058 -1.1972678 0
-5.4592857 -8.0931053 -1.1986558 0
-5.4430375 -8.1276655 -1.2010648 0
-5.4089398 -8.1356163 -1.199553 0
-5.3921957 -8.1697111 -1.2019076 0
-5.3381014 -8.1470366 -1.1959319 0
-5.3288379 -8.192688 -1.2000039 0
-5.2932 -8.1979017 -1.1981614 0
-5.2794089 -8.2370167 -1.2012844 0
-5.2422199 -8.2396727 -1.1991017 0
-5.2224941 -8.2697592 -1.2009251 0
-5.1808505 -8.265069 -1.1977147 0
-5.1574268 -8.2893305 -1.1987181 0
-5.1299405 -8.3071184 -1.1987963 0
-5.1201367 -8.3537655 -1.2030438 0
-5.077354 -8.3466454 -1.19956 0
-5.0461364 -8.3583145 -1.1987989 0
-5.0271931 -8.3903894 -1.2009749 0
-4.9942083 -8.3990831 -1.1998158 0
-4.9734964 -8.4284506 -1.2016221 0
-4.935606 -8.4286776 -1.1992886 0
-4.9190216 -8.4653187 -1.2021487 0
-4.8729625 -8.4511557 -1.1978105 0
-4.8575745 -8.4901237 -1.2010185 0
-4.8287907 -8.5058498 -1.2009461 0
-4.7888045 -8.5016823 -1.1980839 0
-4.7653971 -8.5268583 -1.1993735 0
-4.7417231 -8.5517006 -1.2006247 0
-4.7179308 -8.5764704 -1.2018747 0
-4.6712646 -8.5594692 -1.1972908 0
-4.6549153 -8.5979414 -1.2004824 0
-4.6264601 -8.6142416 -1.2005857 0
-4.592464 -8.6201534 -1.1992569 0
-4.5560045 -8.6212502 -1.1972777 0
-4.5375781 -8.656517 -1.2000557 0
-4.5104365 -8.6753521 -1.2005635 0
-4.4861221 -8.699729 -1.2018489 0
-4.4601984 -8.7211151 -1.2027307 0
-4.4141045 -8.7028418 -1.1981627 0
-4.3943119 -8.7363033 -1.2007344 0
-4.3631477 -8.747282 -1.2002259 0
-4.3262968 -8.7467012 -1.1981492 0
-4.3023982 -8.7722731 -1.1996694 0
-4.2802091 -8.8015499 -1.2017039 0
-4.2367206 -8.7869101 -1.1977589 0
-4.213284 -8.8137178 -1.1994807 0
-4.1817751 -8.8237123 -1.1989261 0
-4.1483879 -8.8296404 -1.1978348 0
-4.1253872 -8.8577271 -1.199762 0
-4.0982943 -8.877202 -1.200532 0
-4.0619469 -8.8765564 -1.1985961 0
-4.041501 -8.9107151 -1.201372 0
-4.0018177 -8.9024477 -1.1984417 0
-3.9753263 -8.9234009 -1.1994613 0
-3.945045 -8.9359083 -1.1993579 0
-3.9144225 -8.9476223 -1.1991619 0
-3.88253 -8.9563799 -1.1985842 0
-3.8555684 -8.9765406 -1.1995454 0
-3.8375843 -9.01793 -1.2033503 0
-3.7932796 -8.997426 -1.1989104 0
-3.7615416 -9.0063829 -1.1984166 0
-3.7351391 -9.0281658 -1.1996419 0
-3.7047563 -9.0404139 -1.1996121 0
-3.6761887 -9.0571299 -1.200188 0
-3.6454523 -9.0685368 -1.2000731 0
-3.6159341 -9.0829878 -1.2003745 0
-3.5834708 -9.0900145 -1.1997085 0
-3.5456958 -9.083333 -1.197251 0
-3.5233538 -9.1162128 -1.2000209 0
-3.5068176 -9.1646891 -1.2048476 0
-3.4688361 -9.1572971 -1.20234 0
-3.4376647 -9.1676779 -1.202183 0
-3.3992741 -9.1585846 -1.1994892 0
-3.3660874 -9.1632328 -1.198613 0
-3.3328776 -9.1676769 -1.197726 0
-3.3104458 -9.2019396 -1.2007455 0
-3.2775414 -9.2072744 -1.200001 0
-3.2417247 -9.2042198 -1.1981795 0
-3.2229042 -9.2496424 -1.202679 0
-3.1905229 -9.2564774 -1.20217 0
-3.1556571 -9.2559395 -1.2007194 0
-3.1321194 -9.2887497 -1.2036066 0
-3.0932984 -9.276228 -1.2006334 0
-3.0654755 -9.2965422 -1.2019258 0
-3.0279901 -9.2874489 -1.1994308 0
-2.9997268 -9.3065243 -1.2005886 0
-2.9646933 -9.3045597 -1.1990461 0
-2.9265881 -9.2925644 -1.1962291 0
-2.90207 -9.3237038 -1.1989783 0
-2.8743558 -9.344965 -1.2004664 0
-2.8491216 -9.3746653 -1.2030479 0
-2.8115344 -9.3637171 -1.2004265 0
-2.7785912 -9.3679237 -1.1997646 0
-2.7460141 -9.3732538 -1.1992613 0
-2.7216942 -9.4070244 -1.2024078 0
-2.6828122 -9.3904524 -1.199133 0
-2.6535926 -9.4074764 -1.2001641 0
-2.6256938 -9.4294558 -1.2018384 0
-2.5894887 -9.4215612 -1.1997187 0
-2.5598998 -9.4376154 -1.2006634 0
-2.5211518 -9.419651 -1.1972959 0
-2.4946754 -9.4474411 -1.1997583 0
-2.4647746 -9.4626198 -1.2006296 0
-2.430182 -9.4597273 -1.199222 0
-2.4023111 -9.483057 -1.2011517 0
-2.3688333 -9.484375 -1.2003059 0
-2.3339076 -9.479619 -1.198707 0
-2.3022225 -9.4878502 -1.1987649 0
-2.2720945 -9.5026083 -1.1996604 0
-2.24526 -9.5315628 -1.2023587 0
-2.2074122 -9.5137053 -1.1991657 0
-2.1747708 -9.5178518 -1.1987625 0
-2.1467836 -9.5425892 -1.2009648 0
-2.1090305 -9.5237837 -1.1977015 0
-2.0846617 -9.5655565 -1.202069 0
-2.0441537 -9.5332022 -1.1971351 0
-2.018492 -9.569932 -1.2008909 0
-1.9836444 -9.5633879 -1.1992284 0
-1.9551166 -9.5873814 -1.2014084 0
-1.925562 -9.6068592 -1.2030334 0
-1.8862845 -9.5774317 -1.1985495 0
-1.8538448 -9.5820599 -1.1983441 0
-1.8191544 -9.5747833 -1.1966647 0
-1.7919936 -9.6073771 -1.1999806 0
-1.7622027 -9.6266108 -1.2016382 0
-1.7286645 -9.625493 -1.2007685 0
-1.6936094 -9.6154919 -1.1988057 0
-1.6660124 -9.6480532 -1.202162 0
-1.6262492 -9.6098232 -1.1967124 0
-1.5976061 -9.6368523 -1.1994046 0
-1.5651749 -9.6414671 -1.199319 0
-1.5372037 -9.6741219 -1.2027332 0
-1.5017688 -9.6599846 -1.2003428 0
-1.4710332 -9.67589 -1.2016995 0
-1.433257 -9.6449232 -1.1972501 0
-1.4039429 -9.670557 -1.199841 0
-1.3686379 -9.6549387 -1.1973271 0
-1.3394973 -9.6828814 -1.2002287 0
-1.3073967 -9.690073 -1.2005701 0
-1.2740295 -9.6877804 -1.1997501 0
-1.2419473 -9.6951694 -1.2001426 0
-1.2080998 -9.6885767 -1.1988184 0
-1.1776547 -9.7094393 -1.2009045 0
-1.1430252 -9.6957827 -1.1987346 0
-1.1113772 -9.7071295 -1.1996701 0
-1.0788715 -9.7112207 -1.1997221 0
-1.0461801 -9.7136202 -1.1995783 0
-1.0145407 -9.7260303 -1.200684 0
-0.9802683 -9.7129574 -1.1986576 0
-0.94838035 -9.7231941 -1.1995219 0
-0.91807342 -9.7507305 -1.2025325 0
-0.88315004 -9.7292328 -1.1995093 0
-0.84924203 -9.7174606 -1.1977001 0
-0.81713772 -9.7259827 -1.198406 0
-0.78430229 -9.7259207 -1.1980677 0
-0.75271678 -9.7418013 -1.1997062 0
-0.71872145 -9.7262897 -1.1974925 0
-0.68646097 -9.7336636 -1.1981103 0
-0.65637994 -9.7740011 -1.2027977 0
-0.62049377 -9.7273598 -1.1967952 0
-0.58928859 -9.752758 -1.1996703 0
-0.55689245 -9.7600479 -1.2003306 0
-0.5244872 -9.767848 -1.2010669 0
-0.49028191 -9.7406921 -1.1975188 0
-0.45936665 -9.7794561 -1.2020884 0
-0.42342871 -9.7087908 -1.193221 0
-0.39286214 -9.7595301 -1.1992884 0
-0.36032024 -9.7657299 -1.199895 0
-0.32743892 -9.7628098 -1.1993946 0
-0.29445013 -9.755434 -1.1983603 0
-0.26196685 -9.7648087 -1.1993973 0
-0.22924866 -9.7666054 -1.1995169 0
-0.1965854 -9.7714758 -1.2000273 0
-0.16371688 -9.7657871 -1.1992546 0
-0.13138884 -9.7972794 -1.203061 0
-0.097926416 -9.7366896 -1.1955739 0
-0.065403506 -9.7552986 -1.1978252 0
-0.032794308 -9.784955 -1.2014463 0
1.2974706e-05 -9.7789841 -1.2007065 0
0.032852016 -9.7944183 -1.2026082 0
0.065506458 -9.7667885 -1.199236 0
0.098198839 -9.7612009 -1.1985836 0
0.1309239 -9.7606783 -1.1985666 0
0.16374296 -9.7657957 -1.1992557 0
0.19642252 -9.7620916 -1.198875 0
0.22910576 -9.7594137 -1.1986337 0
0.26274464 -9.7928324 -1.2028395 0
0.29482722 -9.7670679 -1.1997896 0
0.32815719 -9.7834501 -1.2019304 0
0.36004239 -9.7574968 -1.1988835 0
0.3932564 -9.7686796 -1.2004128 0
0.4264217 -9.7768211 -1.2015821 0
0.45909113 -9.773037 -1.2012995 0
0.491128 -9.7569857 -1.1995221 0
0.52329105 -9.7450876 -1.1982684 0
0.5562371 -9.7481079 -1.1988623 0
0.58922327 -9.7512474 -1.1994847 0
0.62000859 -9.719347 -1.1958096 0
0.65540451 -9.7590895 -1.2009629 0
0.6862154 -9.7298145 -1.1976367 0
0.72005737 -9.7440166 -1.1996753 0
0.75150406 -9.72577 -1.1977322 0
0.78525019 -9.7373533 -1.1994761 0
0.81812453 -9.7374182 -1.1998153 0
0.85005343 -9.7264481 -1.1988081 0
0.88549215 -9.7547474 -1.2026552 0
0.91500431 -9.7178583 -1.1984787 0
0.94867527 -9.7259512 -1.1998622 0
0.97893518 -9.6994905 -1.1969961 0
1.0147808 -9.7280817 -1.2009376 0
1.0466386 -9.7176342 -1.2000744 0
1.0810105 -9.7302399 -1.2020719 0
1.1118281 -9.7108393 -1.2001289 0
1.142763 -9.6933374 -1.1984328 0
1.1750977 -9.6881418 -1.1982708 0
1.2091068 -9.6964426 -1.1997921 0
1.2415841 -9.6921291 -1.1997666 0
1.2729326 -9.6792412 -1.1986929 0
1.3086218 -9.6989594 -1.2016714 0
1.3394291 -9.6821995 -1.2001446 0
1.3710952 -9.6720886 -1.1994544 0
1.4037809 -9.66926 -1.1996806 0
1.4382977 -9.6786671 -1.2014394 0
1.4735538 -9.692296 -1.2037376 0
1.4986485 -9.6397448 -1.1978283 0
1.5318671 -9.6403723 -1.1985378 0
1.5678424 -9.6577358 -1.2013433 0
1.5972599 -9.6346054 -1.1991254 0
1.6320331 -9.6438456 -1.2009498 0
1.6622006 -9.6258268 -1.1993932 0
1.6937273 -9.6160116 -1.1988711 0
1.7264128 -9.6128092 -1.1991867 0
1.7603867 -9.6165466 -1.2003825 0
1.7900575 -9.5968571 -1.1986672 0
1.8239775 -9.6000299 -1.1998205 0
1.859319 -9.610218 -1.2018663 0
1.8929427 -9.6111031 -1.2027639 0
1.9210352 -9.5841427 -1.2001892 0
1.9544975 -9.5842152 -1.2010123 0
1.9839742 -9.5648499 -1.1994123 0
2.0152681 -9.5545225 -1.1989578 0
2.0435538 -9.5302811 -1.196769 0
2.0762484 -9.5268307 -1.1972032 0
2.1106062 -9.5307789 -1.1985818 0
2.1406574 -9.5152397 -1.1975236 0
2.1770315 -9.5276299 -1.1999948 0
2.2051988 -9.5040512 -1.1979496 0
2.2470095 -9.5388775 -1.2032821 0
2.2749281 -9.5143471 -1.2011431 0
2.3055854 -9.5015984 -1.2005029 0
2.3397629 -9.503293 -1.2017014 0
2.3669367 -9.4766741 -1.1993321 0
2.4038086 -9.488863 -1.201888 0
2.4305053 -9.4608812 -1.1993692 0
2.4716926 -9.4890757 -1.2039872 0
2.4951468 -9.4491253 -1.199973 0
2.5297754 -9.4517708 -1.2013793 0
2.5596685 -9.4366636 -1.2005432 0
2.5933101 -9.4353666 -1.2014775 0
2.6273398 -9.4352703 -1.2025803 0
2.6589527 -9.426384 -1.2025771 0
2.6817677 -9.3867016 -1.198655 0
2.7177625 -9.393342 -1.2006599 0
2.7431655 -9.3634377 -1.1980064 0
2.7822018 -9.3800058 -1.2013129 0
2.8070009 -9.3485289 -1.1984801 0
2.8499696 -9.377367 -1.2033955 0
2.882 -9.3697281 -1.2036484 0
2.9010446 -9.320322 -1.1985445 0
2.9353795 -9.3203926 -1.1998124 0
2.9628699 -9.2987518 -1.1982987 0
3.0038283 -9.3191633 -1.2022202 0
3.0263944 -9.2824717 -1.198789 0
3.0617406 -9.2851334 -1.2004517 0
3.0964971 -9.285738 -1.2018654 0
3.1299946 -9.2823668 -1.2027806 0
3.1550457 -9.2540655 -1.2004774 0
3.1887796 -9.251339 -1.2015039 0
3.2153203 -9.2277985 -1.1998399 0
3.2441933 -9.2111511 -1.199083 0
3.2744932 -9.1986341 -1.1988759 0
3.3115375 -9.2048979 -1.2011327 0
3.3345253 -9.1721334 -1.1983094 0
3.3705544 -9.1753178 -1.2001951 0
3.3908992 -9.1359463 -1.1965256 0
3.4293079 -9.145318 -1.1992521 0
3.4617312 -9.1384678 -1.199869 0
3.4890265 -9.1181211 -1.1987267 0
3.5211072 -9.1103277 -1.1992475 0
3.5483286 -9.0900068 -1.1981318 0
3.5819323 -9.0860405 -1.1991853 0
3.6092606 -9.0661545 -1.198151 0
3.6403263 -9.0557165 -1.1983778 0
3.6822283 -9.0719414 -1.202152 0
3.7043989 -9.0394735 -1.1994886 0
3.7396572 -9.0390186 -1.2010853 0
3.7769186 -9.0431328 -1.203308 0
3.7826853 -8.9722309 -1.1955544 0
3.832494 -9.0059032 -1.2017467 0
3.8556318 -8.9766226 -1.1995578 0
3.881376 -8.9536533 -1.1982207 0
3.9150953 -8.9490957 -1.1993607 0
3.9525928 -8.95294 -1.2016453 0
3.972383 -8.9167309 -1.1985662 0
4.006547 -8.9129047 -1.1998509 0
4.0523248 -8.934516 -1.2045823 0
4.065166 -8.8835297 -1.1995391 0
4.0915446 -8.8625202 -1.198548 0
4.1416073 -8.8924923 -1.2044723 0
4.1502934 -8.8336344 -1.1983782 0
4.1869307 -8.8345299 -1.2003975 0
4.2220697 -8.832037 -1.2019753 0
4.2410264 -8.7957811 -1.1989696 0
4.2683086 -8.7770205 -1.1983564 0
4.307785 -8.7831974 -1.201165 0
4.3444223 -8.783288 -1.2031626 0
4.3549385 -8.7307653 -1.1979613 0
4.3953233 -8.7382555 -1.2010044 0
4.4282517 -8.7306776 -1.2019966 0
4.4550772 -8.7110453 -1.2013435 0
4.4825606 -8.6927662 -1.2008885 0
4.5081377 -8.6708736 -1.1999454 0
4.5275545 -8.6373396 -1.1973988 0
4.5680709 -8.6440277 -1.2004426 0
4.5993404 -8.6330061 -1.2010466 0
4.6168957 -8.5963783 -1.1980977 0
4.654727 -8.5975389 -1.2004279 0
4.6802049 -8.5757971 -1.1995764 0
4.7159405 -8.5727978 -1.2013619 0
4.7284598 -8.5277262 -1.1972607 0
4.769763 -8.5346174 -1.2004666 0
4.7938318 -8.5105543 -1.1993359 0
4.8289647 -8.5061045 -1.2009838 0
4.8547978 -8.485218 -1.2003263 0
4.8800955 -8.4634752 -1.1995584 0
4.910326 -8.4503031 -1.2000182 0
4.9442868 -8.4434519 -1.2013925 0
4.9613338 -8.4077873 -1.1986783 0
4.996799 -8.403388 -1.2004328 0
5.0189075 -8.3765097 -1.1989902 0
5.0409441 -8.3496637 -1.1975601 0
5.0790119 -8.3493204 -1.1999465 0
5.0990324 -8.3192835 -1.1980799 0
5.1346474 -8.3146915 -1.1998911 0
5.1702032 -8.3098164 -1.2016823 0
5.1883993 -8.2770624 -1.1994547 0
5.2249064 -8.273531 -1.2014748 0
5.2568803 -8.2626677 -1.20245 0
5.2690797 -8.2208529 -1.1989291 0
5.3145065 -8.2308531 -1.2029794 0
5.3264875 -8.1890268 -1.1994697 0
5.3455753 -8.1583958 -1.1976016 0
5.3815465 -8.1535292 -1.1995291 0
5.405458 -8.1303329 -1.1987761 0
5.4405904 -8.1239653 -1.20052 0
5.4657221 -8.1026001 -1.2000642 0
5.488831 -8.0783024 -1.1991844 0
5.5257764 -8.0743084 -1.201335 0
5.5308948 -8.0239315 -1.1965921 0
5.5678658 -8.0198898 -1.1987665 0
5.605505 -8.0165949 -1.2010765 0
5.637907 -8.0056448 -1.2022612 0
5.6596127 -7.9795003 -1.201178 0
5.6833582 -7.9563136 -1.2005492 0
5.7168241 -7.9466958 -1.2019835 0
5.7362127 -7.9175143 -1.2004719 0
5.7656136 -7.902194 -1.2010733 0
5.7971754 -7.8897595 -1.2021308 0
5.8096461 -7.8514256 -1.1992513 0
5.8421483 -7.8402376 -1.2005274 0
5.8763323 -7.8311744 -1.2021497 0
5.8689713 -7.7669826 -1.1953099 0
5.9127021 -7.7705526 -1.1989033 0
5.9562659 -7.7735815 -1.2024451 0
5.9485731 -7.7098594 -1.1956668 0
5.990624 -7.7107682 -1.1989158 0
6.0323853 -7.7110186 -1.2020928 0
6.0386553 -7.6659312 -1.1982136 0
6.068388 -7.6507659 -1.1990166 0
6.1096015 -7.6499047 -1.2020853 0
6.1174064 -7.6072307 -1.1985958 0
6.1502514 -7.5957837 -1.2000345 0
6.172471 -7.5711799 -1.1994102 0
6.1875958 -7.5379848 -1.1974313 0
6.2245603 -7.5313845 -1.1996914 0
6.2668343 -7.5309711 -1.2029657 0
6.2761898 -7.4909883 -1.1999335 0
6.2961354 -7.4638157 -1.1989558 0
6.3321157 -7.455605 -1.2010404 0
6.3555484 -7.4325452 -1.2007517 0
6.3685308 -7.3973699 -1.1985118 0
6.4112835 -7.3967266 -1.2018836 0
6.4383202 -7.3777938 -1.2023081 0
6.4448595 -7.3354955 -1.1989297 0
6.4776525 -7.3231554 -1.2004557 0
6.504766 -7.3043118 -1.2009351 0
6.5324883 -7.2861075 -1.2015364 0
6.5512562 -7.2579331 -1.2005057 0
6.5750289 -7.2353497 -1.2004099 0
6.6057935 -7.2204156 -1.2016 0
6.6094489 -7.1759524 -1.1978817 0
6.6339517 -7.1542697 -1.1979684 0
6.6631246 -7.1375828 -1.1989083 0
6.6621327 -7.0887237 -1.1944466 0
6.7120757 -7.0940518 -1.1991297 0
6.7555642 -7.0922327 -1.2026441 0
6.7729301 -7.0628948 -1.2015132 0
6.7834964 -7.0266018 -1.1992015 0
6.8119578 -7.0089021 -1.2000719 0
6.8317251 -6.9822483 -1.1994233 0
6.8848739 -6.9895329 -1.2046334 0
6.8831129 -6.9410415 -1.2002467 0
6.9227443 -6.93435 -1.2030964 0
6.918942 -6.8842235 -1.1984175 0
6.9511127 -6.870008 -1.1999934 0
6.9740696 -6.8466263 -1.1999868 0
7.0056386 -6.8316431 -1.2014709 0
7.0095153 -6.7897224 -1.1982248 0
7.0338316 -6.7677135 -1.1984959 0
7.067193 -6.7543283 -1.2003149 0
7.080265 -6.7215443 -1.1987008 0
7.0997343 -6.6949134 -1.19819 0
7.1544242 -6.7013102 -1.203621 0
7.1614914 -6.6629934 -1.2010449 0
7.1664996 -6.6229649 -1.198154 0
7.1943688 -6.604136 -1.1991047 0
7.2250257 -6.5877776 -1.2005261 0
7.2551522 -6.5708342 -1.2018646 0
7.258378 -6.5295916 -1.1987655 0
7.2773395 -6.5026364 -1.1982896 0
7.3020062 -6.4807792 -1.1987666 0
7.3235388 -6.4561238 -1.1987413 0
7.3429942 -6.4296503 -1.1983904 0
7.3771253 -6.4159665 -1.2004433 0
7.3979917 -6.3906746 -1.2003453 0
7.4158111 -6.3627753 -1.1997684 0
7.4311671 -6.3328176 -1.1988108 0
7.4508119 -6.3065577 -1.1985621 0
7.466341 -6.2768555 -1.1976681 0
7.4897394 -6.253787 -1.1980512 0
7.501503 -6.2210417 -1.1965897 0
7.5441384 -6.2138281 -1.2000606 0
7.5498481 -6.1761613 -1.1976682 0
7.5888867 -6.165741 -1.2005749 0
7.6055055 -6.1370258 -1.199942 0
7.6289468 -6.1138215 -1.2003995 0
7.6395836 -6.0803943 -1.1988587 0
7.6618176 -6.0562401 -1.1991545 0
7.686636 -6.0340939 -1.1998658 0
7.7190242 -6.0177999 -1.2017652 0
7.7085247 -5.9681687 -1.1970085 0
7.7243676 -5.9391193 -1.1963698 0
7.7667022 -5.9303412 -1.1998403 0
7.7886233 -5.9058461 -1.2001611 0
7.8155379 -5.8850884 -1.2012612 0
7.8288503 -5.854084 -1.2002836 0
7.8475304 -5.8271313 -1.2001455 0
7.8668642 -5.8006701 -1.2001212 0
7.8746176 -5.7657304 -1.1983482 0
7.9080186 -5.7495575 -1.2004907 0
7.9253688 -5.721652 -1.2002057 0
7.9563308 -5.7035227 -1.2019918 0
7.9571161 -5.663794 -1.1992348 0
7.955852 -5.6228008 -1.1961963 0
7.9877396 -5.6052732 -1.1981583 0
8.0247631 -5.5911937 -1.2008932 0
8.0067768 -5.5388775 -1.1954157 0
8.0729036 -5.5446944 -1.2025062 0
8.0873508 -5.514802 -1.2018971 0
8.0738449 -5.4660254 -1.1971596 0
8.1295013 -5.4640455 -1.2026891 0
8.1379366 -5.4301929 -1.2012367 0
8.1392612 -5.3917241 -1.1987569 0
8.1838026 -5.3818378 -1.2026528 0
8.1820173 -5.341454 -1.1997519 0
8.2057934 -5.3178229 -1.2006171 0
8.2212181 -5.2887635 -1.2002727 0
8.2038336 -5.2387738 -1.1951635 0
8.2637587 -5.2381191 -1.2013283 0
8.2972412 -5.2204285 -1.2036445 0
8.2789078 -5.170229 -1.1984634 0
8.3042507 -5.1474352 -1.199627 0
8.3250332 -5.1217604 -1.2001418 0
8.3461847 -5.0962772 -1.2007209 0
8.3537998 -5.0625539 -1.1993678 0
8.3705473 -5.034409 -1.1993421 0
8.3965006 -5.0117598 -1.2006464 0
8.4011917 -4.9764328 -1.1989245 0
8.4301949 -4.9555058 -1.2006856 0
8.4586058 -4.9341221 -1.2023692 0
8.4542446 -4.8936615 -1.1994103 0
8.4768286 -4.8688636 -1.2002916 0
8.4918671 -4.8397093 -1.2001165 0
8.4939651 -4.8032479 -1.1981305 0
8.5202866 -4.7805014 -1.1995755 0
8.5549746 -4.7623215 -1.2022045 0
8.5454969 -4.7195854 -1.1986423 0
8.5626335 -4.6916528 -1.1988328 0
8.5890713 -4.6687641 -1.2003359 0
8.6105223 -4.6430926 -1.2011514 0
8.6137238 -4.6076083 -1.1994361 0
8.625185 -4.5766125 -1.1988887 0
8.6348219 -4.5446897 -1.1981034 0
8.6487894 -4.5150752 -1.1979343 0
8.6671381 -4.4877396 -1.1983849 0
8.6763115 -4.4556642 -1.1975811 0
8.6821537 -4.4219408 -1.1963342 0
8.7422743 -4.415709 -1.2025716 0
8.7303286 -4.3729982 -1.1989046 0
8.7671728 -4.3547449 -1.2019526 0
8.769392 -4.319252 -1.2002647 0
8.7567387 -4.276598 -1.1965636 0
8.7981949 -4.2603688 -1.2002697 0
8.8235817 -4.2362003 -1.2017887 0
8.8270741 -4.2015181 -1.2003388 0
8.8456564 -4.1740437 -1.200956 0
8.8348284 -4.1327739 -1.1975979 0
8.8813486 -4.1182985 -1.2020254 0
8.852706 -4.0690093 -1.1962956 0
8.8871174 -4.0487895 -1.1991047 0
8.8916683 -4.0149179 -1.1978956 0
5.1360025 -2.2983956 -0.69088602 0
5.1188402 -2.2701468 -0.68754971 0
5.1585655 -2.2670975 -0.69186056 0
5.113924 -2.2270508 -0.68486804 0
5.163075 -2.2278917 -0.6904462 0
5.1468258 -2.2004399 -0.68728274 0
5.1251664 -2.1708841 -0.6834147 0
5.1405387 -2.1570966 -0.68449622 0
5.1535006 -2.1422431 -0.68526196 0
5.1385736 -2.1158605 -0.68232995 0
5.1336341 -2.0937238 -0.68073809 0
5.1465096 -2.0788767 -0.6815173 0
5.2029505 -2.0814121 -0.68806344 0
5.2541246 -2.081476 -0.6939041 0
5.3197808 -2.0868781 -0.70164722 0
5.3546224 -2.0798571 -0.70531887 0
5.393805 -2.0742908 -0.70956004 0
5.450501 -2.0751441 -0.71609914 0
9.1280088 -3.4402683 -1.1977361 0
9.1290913 -3.4057641 -1.1963731 0
9.1561775 -3.3809412 -1.1984305 0
9.1721907 -3.3519514 -1.1990488 0
9.1887836 -3.3231351 -1.1997547 0
9.1850996 -3.2870209 -1.1978279 0
9.2258205 -3.2667413 -1.2017032 0
9.2178755 -3.2291884 -1.1992513 0
9.2289162 -3.1983566 -1.1992859 0
9.2441912 -3.1689739 -1.1998833 0
9.2397757 -3.1328797 -1.1979401 0
9.2470331 -3.100812 -1.1975265 0
9.2734118 -3.0751078 -1.1996006 0
9.2981062 -3.048732 -1.201466 0
9.2708969 -3.0054228 -1.1966413 0
9.2982635 -2.9798801 -1.1988773 0
9.3421526 -2.9594429 -1.2032501 0
9.3273401 -2.9203756 -1.2000743 0
9.3281221 -2.8863149 -1.1989231 0
9.3297548 -2.8525796 -1.197897 0
9.3468771 -2.8235817 -1.198873 0
9.3639631 -2.7945173 -1.1998562 0
9.3702526 -2.7622135 -1.1994686 0
9.4028263 -2.7375841 -1.2024567 0
9.3912258 -2.7000835 -1.1998086 0
9.3909464 -2.665947 -1.1986243 0
9.4294224 -2.6427393 -1.2023976 0
9.4272079 -2.6080599 -1.2009933 0
9.4253368 -2.5735536 -1.199649 0
9.447938 -2.545717 -1.2014325 0
9.4501619 -2.5123615 -1.2006373 0
9.4681759 -2.4831922 -1.2018615 0
9.427619 -2.4388018 -1.1956687 0
9.4586468 -2.413022 -1.198571 0
9.476449 -2.3837519 -1.1998074 0
9.4763374 -2.3499691 -1.1987889 0
9.4599695 -2.3122702 -1.1957308 0
9.4738264 -2.2820227 -1.1965084 0
9.5125179 -2.2576253 -1.2004323 0
9.5068016 -2.2226255 -1.1987638 0
9.5282011 -2.1939623 -1.2005279 0
9.5285406 -2.1604249 -1.1996512 0
9.5460634 -2.1307719 -1.2009512 0
9.5301714 -2.0937047 -1.1980619 0
9.5729752 -2.0694873 -1.202564 0
9.5729342 -2.0359063 -1.2016945 0
9.5781622 -2.0034757 -1.2015008 0
9.5934372 -1.9731219 -1.2025803 0
9.569046 -1.9346877 -1.1987029 0
9.5707903 -1.9016621 -1.1981161 0
9.5843534 -1.8709759 -1.1990218 0
9.5911112 -1.8389341 -1.1990892 0
9.6148844 -1.8100915 -1.2012959 0
9.6053352 -1.7749683 -1.1993525 0
9.6160517 -1.7436274 -1.1999539 0
9.6266747 -1.7122359 -1.2005563 0
9.6329966 -1.6800607 -1.2006356 0
9.6504164 -1.6497779 -1.2021105 0
9.6473885 -1.615988 -1.2010517 0
9.6542158 -1.5838733 -1.2012337 0
9.6892509 -1.5562786 -1.204937 0
9.6724987 -1.5203389 -1.202213 0
9.6556988 -1.484542 -1.1994996 0
9.6878004 -1.4562452 -1.2028742 0
9.671032 -1.4205835 -1.200194 0
9.6601658 -1.3859158 -1.1982621 0
9.6589804 -1.3527101 -1.1975458 0
9.6904497 -1.3240052 -1.2008903 0
9.694335 -1.291441 -1.2008284 0
9.6794691 -1.2564458 -1.1984584 0
9.6906767 -1.2248763 -1.1993308 0
9.7029896 -1.1933944 -1.2003528 0
9.690218 -1.158856 -1.1982855 0
9.7259617 -1.1300681 -1.2022302 0
9.7128706 -1.0955546 -1.2001511 0
9.6827097 -1.0592875 -1.1959788 0
9.7150669 -1.0298767 -1.1995423 0
9.7068539 -0.99610651 -1.198109 0
9.7281065 -0.96533865 -1.200326 0
9.7126875 -0.93093383 -1.1980317 0
9.7454748 -0.9011119 -1.2016964 0
9.7352295 -0.86725515 -1.2000678 0
9.7505312 -0.83567685 -1.2016019 0
9.7386723 -0.80177796 -1.1998024 0
9.750639 -0.76985842 -1.2009519 0
9.7403126 -0.73619062 -1.1993694 0
9.7575922 -0.70460248 -1.2011994 0
9.7439022 -0.67078191 -1.1992306 0
9.764801 -0.63933331 -1.201532 0
9.7680416 -0.60666174 -1.2016739 0
9.7514076 -0.57281458 -1.1993845 0
9.7360592 -0.53916347 -1.1972677 0
9.7603674 -0.50769043 -1.2000407 0
9.7614822 -0.47493702 -1.1999753 0
9.7473116 -0.44149449 -1.1980447 0
9.7693052 -0.4096736 -1.2005723 0
9.7767859 -0.37715438 -1.2013295 0
9.7663889 -0.34396377 -1.1999035 0
9.7607927 -0.31100368 -1.1990811 0
9.7588902 -0.27819341 -1.1987259 0
9.774312 -0.24583796 -1.2005124 0
9.7744713 -0.21305184 -1.2004374 0
9.7740278 -0.18025835 -1.200302 0
9.7602386 -0.14727052 -1.1985413 0
9.8016338 -0.11502609 -1.2035704 0
9.7951298 -0.08210513 -1.2027311 0
9.7561264 -0.049066179 -1.197915 0
9.7856588 -0.01640478 -1.2015277 0
9.7522316 0.016348742 -1.1974233 0
9.7864027 0.049218446 -1.2016325 0
9.7767973 0.081951462 -1.2004801 0
9.7370033 0.11426762 -1.1956341 0
9.804307 0.14793546 -1.2039528 0
9.7749071 0.18027456 -1.2004099 0
9.7581778 0.2126967 -1.1984364 0
9.7438793 0.24507253 -1.1967745 0
9.7792673 0.27877432 -1.201229 0
9.757309 0.31089267 -1.1986531 0
9.7482786 0.34332594 -1.1976784 0
9.7668562 0.37677133 -1.2001094 0
9.7725286 0.40980878 -1.2009684 0
9.7810564 0.44302291 -1.2021922 0
9.7635174 0.47503603 -1.2002255 0
9.7626057 0.5078069 -1.200316 0
9.7441254 0.53961009 -1.1982595 0
9.7539749 0.57296538 -1.1997002 0
9.7691154 0.60672843 -1.2018059 0
9.7471523 0.63817781 -1.1993605 0
9.754426 0.6715064 -1.2005258 0
9.7290773 0.70254344 -1.1976891 0
9.7280025 0.73526019 -1.1978536 0
9.7466803 0.76954591 -1.2004645 0
9.729558 0.80102754 -1.1986796 0
9.7526436 0.83585793 -1.2018622 0
9.7387171 0.86756587 -1.2004976 0
9.7105074 0.89787871 -1.1973847 0
9.7205181 0.93168437 -1.1989975 0
9.7489567 0.9674077 -1.2028986 0
9.7297211 0.9984532 -1.2009315 0
9.6939287 1.0276358 -1.1969322 0
9.7282009 1.0642643 -1.2015977 0
9.7170057 1.0960211 -1.2006621 0
9.6727638 1.1238869 -1.1956543 0
9.7124939 1.16152 -1.20104 0
9.6947899 1.1923859 -1.1993383 0
9.7031593 1.2264541 -1.2008758 0
9.6842756 1.2570697 -1.1990535 0
9.6758852 1.2889831 -1.198543 0
9.7414513 1.3309735 -1.2072105 0
9.6964426 1.3579566 -1.2021904 0
9.6395369 1.3829563 -1.1957033 0
9.654377 1.418137 -1.1981272 0
9.6555586 1.4513988 -1.1988709 0
9.6756563 1.4876103 -1.2019788 0
9.6444664 1.5159327 -1.1987288 0
9.6405106 1.54845 -1.1988758 0
9.6564465 1.5842392 -1.2015114 0
9.6360188 1.6140835 -1.1996361 0
9.6253242 1.6454884 -1.1989849 0
9.6383629 1.6809968 -1.2013044 0
9.6271076 1.7123131 -1.2006104 0
9.6048765 1.741601 -1.1985593 0
9.5985146 1.773708 -1.1985009 0
9.5773191 1.8030195 -1.1966025 0
9.5778494 1.8363913 -1.1974312 0
9.5785789 1.8698486 -1.1982994 0
9.5877724 1.9050363 -1.2002419 0
9.5823374 1.9373749 -1.2003679 0
9.5789118 1.9701345 -1.2007595 0
9.5749846 2.0028112 -1.2011023 0
9.5698185 2.0352437 -1.2013035 0
9.5353098 2.0613449 -1.1978323 0
9.5746222 2.1034703 -1.2036501 0
9.5203886 2.125041 -1.1977211 0
9.5464077 2.1644762 -1.2019007 0
9.5362167 2.1958079 -1.2015378 0
9.5118637 2.2238088 -1.1994021 0
9.4995527 2.2545483 -1.1987962 0
9.4912682 2.2862239 -1.1987113 0
9.5159321 2.3259487 -1.2028044 0
9.4904852 2.3534777 -1.2005787 0
9.4873724 2.3864994 -1.2011902 0
9.4720287 2.416436 -1.2002667 0
9.4739532 2.4507875 -1.201545 0
9.444231 2.476912 -1.198822 0
2.1241577 0.56471545 -0.26987296 0
2.1041865 0.56696635 -0.26757562 0
2.1062717 0.57510972 -0.2680845 0
2.1248312 0.58783966 -0.27069604 0
2.1382794 0.59928536 -0.27266377 0
2.1139965 0.60013151 -0.26982239 0
2.1223638 0.61020356 -0.27114996 0
2.1328869 0.62097889 -0.27275884 0
2.1106226 0.6221807 -0.27017689 0
2.1225214 0.63343078 -0.27197036 0
2.1240954 0.64166433 -0.27244619 0
2.1488469 0.65701157 -0.27590188 0
2.1393819 0.66196924 -0.27497008 0
2.1446555 0.67148834 -0.27593571 0
2.1307201 0.67497772 -0.27443236 0
2.1118259 0.67679179 -0.27228957 0
2.1348968 0.69208705 -0.27556187 0
2.115963 0.69379765 -0.2734167 0
2.1438687 0.71091717 -0.27732903 0
2.1680529 0.72701412 -0.2807712 0
2.1638315 0.73367846 -0.28054151 0
2.1486456 0.73657084 -0.27889127 0
2.1397781 0.7415576 -0.27806142 0
2.1720643 0.76091337 -0.28258693 0
4.6093545 1.6321117 -0.60038847 0
4.5411525 1.6251172 -0.59221119 0
4.4939022 1.6252253 -0.58675665 0
4.4449277 1.6243864 -0.58107001 0
4.4647222 1.6486098 -0.58437699 0
4.4567394 1.6626632 -0.58405852 0
4.4454532 1.6754532 -0.58331233 0
4.4293141 1.6863523 -0.58193332 0
4.4387379 1.7070014 -0.58392006 0
4.4391718 1.7242755 -0.58473438 0
4.4246025 1.7357117 -0.58357859 0
4.4453187 1.7610592 -0.58708638 0
4.4406171 1.7764447 -0.58724874 0
4.4503617 1.7976755 -0.58933121 0
4.4439073 1.8124225 -0.58927786 0
4.4692402 1.8402554 -0.59345192 0
9.0469952 3.7607181 -1.2029808 0
9.005475 3.7789192 -1.1991378 0
8.9906292 3.8081915 -1.1988543 0
8.9814091 3.8398523 -1.1993349 0
8.9819384 3.8757491 -1.201134 0
8.9768257 3.9092968 -1.2021964 0
8.9543362 3.9352713 -1.2009448 0
8.9444742 3.9667716 -1.2013992 0
8.9100094 3.9872892 -1.1985588 0
8.8956165 4.0167007 -1.1984277 0
8.8887053 4.0495129 -1.199319 0
8.8520327 4.0686998 -1.1962047 0
8.8777514 4.1166306 -1.2015386 0
8.8406534 4.135499 -1.1983875 0
8.83918 4.1709876 -1.2000767 0
8.8068304 4.1918826 -1.1975861 0
8.8200111 4.2344861 -1.2013024 0
8.7997465 4.2611203 -1.2004814 0
8.7604275 4.278399 -1.1970676 0
8.7525253 4.3109446 -1.1979561 0
8.7711096 4.3567004 -1.2024924 0
8.7224464 4.3690505 -1.1978223 0
8.7316465 4.4103413 -1.2011096 0
8.726656 4.4446068 -1.2024664 0
8.7037439 4.4697518 -1.2013675 0
8.6869478 4.4979968 -1.201124 0
8.6429281 4.5120153 -1.1971225 0
8.6567144 4.5562119 -1.2011411 0
8.6438417 4.5865116 -1.2014819 0
8.6367836 4.6199431 -1.2026471 0
8.5913601 4.6327596 -1.1984782 0
8.5799551 4.6638088 -1.1990619 0
8.5562754 4.688169 -1.1979425 0
8.5409327 4.7170649 -1.1980021 0
8.5367374 4.7521696 -1.1996417 0
8.498683 4.7683802 -1.1965339 0
8.5009165 4.8071785 -1.1991109 0
8.4595537 4.8212934 -1.19555 0
8.4658756 4.8625722 -1.1987406 0
8.4467983 4.8893514 -1.1983539 0
8.4592619 4.9345045 -1.2024624 0
8.4066429 4.9416618 -1.1973313 0
8.3984594 4.9748149 -1.1985347 0
8.3875875 5.0064402 -1.1993719 0
8.3650932 5.0311289 -1.1985607 0
8.3635368 5.0684552 -1.2007658 0
8.363616 5.1069212 -1.2032287 0
8.3142338 5.1151161 -1.1985849 0
8.3066311 5.1489105 -1.1999708 0
8.2929258 5.1789832 -1.2004927 0
8.2588396 5.1962667 -1.1980736 0
8.2564344 5.2334762 -1.2002635 0
8.2196674 5.2488852 -1.1974702 0
8.2195692 5.2877021 -1.2000319 0
8.1936712 5.309967 -1.1988434 0
8.2024498 5.3547926 -1.2027479 0
8.1513014 5.3604646 -1.1978766 0
8.1568623 5.4033842 -1.2013494 0
8.1583147 5.44379 -1.2042446 0
8.0954247 5.4411416 -1.1976477 0
8.0938902 5.4795961 -1.2001319 0
8.0810528 5.5105076 -1.2009612 0
8.0531921 5.5311565 -1.1995701 0
8.0241518 5.5508971 -1.1980098 0
8.0228548 5.5898638 -1.2006075 0
7.9792624 5.5993247 -1.1968868 0
7.9594483 5.6253424 -1.1967371 0
7.9623542 5.6675224 -1.2000242 0
7.9375992 5.6900949 -1.1991619 0
7.893322 5.6985159 -1.1953524 0
7.9058318 5.7479677 -1.2001588 0
7.876471 5.7670875 -1.1986302 0
7.8567991 5.7932482 -1.1985857 0
7.8401303 5.8216362 -1.1990137 0
7.8400092 5.8624277 -1.2019944 0
7.818007 5.8869472 -1.2016406 0
7.7978606 5.9128499 -1.2015845 0
7.7375197 5.9080586 -1.1953321 0
7.7300296 5.9434724 -1.1972467 0
7.7251573 5.9810462 -1.1995913 0
7.718071 6.0170569 -1.2016169 0
7.6819568 6.0304208 -1.1991354 0
7.6621504 6.0565033 -1.1992067 0
7.6386871 6.0796809 -1.1987181 0
7.6264486 6.1118197 -1.2000065 0
7.6107016 6.1412187 -1.2007618 0
7.5889134 6.1657629 -1.2005792 0
7.5548673 6.1802669 -1.1984643 0
7.5498056 6.2184958 -1.2009622 0
7.5268474 6.2420602 -1.2006325 0
7.4787831 6.2446384 -1.1962986 0
7.4821005 6.2901044 -1.200196 0
7.473949 6.3261414 -1.202284 0
7.43892 6.3394241 -1.2000616 0
7.4183297 6.3649364 -1.2001759 0
7.4078474 6.3991885 -1.2019444 0
7.3898511 6.4270339 -1.2025141 0
7.367744 6.4513216 -1.2024297 0
7.3397994 6.470458 -1.2014028 0
7.3184061 6.4953346 -1.2014591 0
7.2907772 6.5146437 -1.2005023 0
7.2689266 6.5390811 -1.2005078 0
7.2453442 6.5619512 -1.2002398 0
7.2369442 6.5986447 -1.2025065 0
7.19735 6.6068721 -1.1996015 0
7.1830182 6.6382308 -1.2009157 0
7.1617632 6.6632462 -1.2010905 0
7.1276217 6.6762052 -1.1991119 0
7.1134124 6.7078114 -1.2004982 0
7.0830326 6.7241716 -1.1991693 0
7.0567155 6.7443151 -1.1985354 0
7.0510602 6.7842908 -1.2014315 0
7.0049615 6.7853112 -1.1974463 0
7.0022488 6.8283377 -1.2008895 0
6.9626174 6.8353834 -1.1980164 0
6.9482698 6.8671985 -1.1995027 0
6.9424553 6.9076185 -1.2024903 0
6.9220967 6.9337015 -1.2029839 0
6.8754134 6.9332771 -1.198904 0
6.8654552 6.9698191 -1.2012358 0
6.8590798 7.0102057 -1.2042259 0
6.8154287 7.0124736 -1.2006834 0
6.7894492 7.0327678 -1.2002538 0
6.7544417 7.0436149 -1.1982334 0
6.7421236 7.0781221 -1.2002513 0
6.7122235 7.0942082 -1.1991562 0
6.7111335 7.140862 -1.2032319 0
6.6523213 7.1260099 -1.1969644 0
6.6561179 7.178175 -1.2019713 0
6.6315169 7.1999121 -1.2018813 0
6.5871415 7.2000284 -1.1982073 0
6.5863624 7.2478213 -1.202479 0
6.5382833 7.2435608 -1.1981285 0
6.5027232 7.2529087 -1.1960616 0
6.5090356 7.3091063 -1.2017235 0
6.4894452 7.3364873 -1.2026411 0
6.4640908 7.3573842 -1.2025071 0
6.4430561 7.3832207 -1.2031924 0
6.402564 7.3866668 -1.200249 0
6.3839951 7.4153318 -1.201422 0
6.3460326 7.4214163 -1.1989537 0
6.3350244 7.4590302 -1.2015922 0
6.2874775 7.4535527 -1.1973071 0
6.2773199 7.4923368 -1.2001497 0
6.2615466 7.5246167 -1.2019507 0
6.2295175 7.5373826 -1.2006468 0
6.209074 7.5641508 -1.2015878 0
6.1917009 7.5947671 -1.2031468 0
6.1539941 7.6004062 -1.2007648 0
6.1193275 7.6096191 -1.1989721 0
6.0971346 7.6342945 -1.1996323 0
6.0669551 7.6489592 -1.1987336 0
6.0528884 7.6839995 -1.2010378 0
6.0212679 7.6968069 -1.1998773 0
6.0027103 7.726325 -1.2013347 0
5.9627719 7.7282624 -1.1985208 0
5.9527397 7.7689795 -1.2017332 0
5.9139419 7.772182 -1.1991547 0
5.8833365 7.7859931 -1.1982355 0
5.8748102 7.8291459 -1.2018384 0
5.8417273 7.8396726 -1.200441 0
5.8275919 7.875679 -1.2029557 0
5.7905321 7.8807178 -1.2007532 0
5.7756982 7.9160161 -1.2031741 0
5.7313695 7.9108291 -1.1994582 0
5.7074771 7.9337034 -1.2000183 0
5.6715822 7.9398274 -1.1980616 0
5.6510701 7.9674563 -1.1993649 0
5.6326327 7.9981551 -1.2011365 0
5.6163716 8.032136 -1.2034049 0
5.5703926 8.0235291 -1.1993105 0
5.5477381 8.0483665 -1.200236 0
5.5207796 8.0670061 -1.2002485 0
5.4942303 8.0862494 -1.200364 0
5.4562407 8.0885448 -1.1979824 0
5.4445267 8.1298428 -1.2013886 0
5.4144297 8.1438274 -1.2007657 0
5.3985977 8.1793633 -1.2033297 0
5.342278 8.1533632 -1.1968628 0
5.3259549 8.1882076 -1.1993498 0
5.2840748 8.1837215 -1.1960909 0
5.2584662 8.2042942 -1.1965141 0
5.2439995 8.2424221 -1.1995038 0
5.2159481 8.259346 -1.1994148 0
5.1968384 8.2905254 -1.2014056 0
5.1693478 8.3084412 -1.2014835 0
5.1447539 8.3310575 -1.2022529 0
5.1179962 8.3502235 -1.2025356 0
5.0772161 8.3463697 -1.1995224 0
5.0538473 8.3710365 -1.2006254 0
5.0172248 8.373702 -1.1985883 0
4.9887576 8.3898649 -1.1985009 0
4.9616637 8.4083471 -1.1987579 0
4.9284658 8.4164333 -1.1975483 0
4.913105 8.4550858 -1.2006973 0
4.882339 8.4673653 -1.2001097 0
4.8591976 8.4929075 -1.2014141 0
4.821044 8.4921522 -1.1990138 0
4.8045702 8.5296183 -1.2020226 0
4.7643294 8.5248947 -1.1990992 0
4.7362947 8.5418568 -1.1992445 0
4.7076502 8.5577278 -1.19925 0
4.683094 8.5810909 -1.2003169 0
4.6545105 8.5971384 -1.200372 0
4.6281509 8.6173353 -1.2010186 0
4.5956879 8.6261492 -1.2000928 0
4.5613713 8.6313505 -1.198682 0
4.5432315 8.6672468 -1.2015448 0
4.5098662 8.6741982 -1.2004056 0
4.4726048 8.67346 -1.1982214 0
4.4414277 8.6843557 -1.1976627 0
4.4203753 8.715148 -1.1998585 0
4.3849049 8.7175436 -1.1981575 0
4.3607926 8.7425022 -1.1995716 0
4.3278766 8.749836 -1.1985803 0
4.2984176 8.7640982 -1.198553 0
4.2734909 8.7876768 -1.1998112 0
4.2295671 8.7720146 -1.19573 0
4.2098346 8.8064423 -1.1984921 0
4.1910739 8.8432732 -1.2015854 0
4.1627145 8.8600721 -1.2019649 0
4.1248403 8.856492 -1.1995962 0
4.1008849 8.8827524 -1.2012841 0
4.0580826 8.8680496 -1.1974488 0
4.0407534 8.9090042 -1.2011428 0
4.0040607 8.9073744 -1.1991063 0
3.9666953 8.903964 -1.1968501 0
3.9396501 8.923624 -1.1977105 0
3.9271748 8.9767065 -1.2030611 0
3.8917897 8.9776754 -1.2014354 0
3.85216 8.9685392 -1.1984776 0
3.8247545 8.9877157 -1.1993198 0
3.7949414 9.0013008 -1.1994281 0
3.7618849 9.0071373 -1.1985183 0
3.734381 9.0262651 -1.1993908 0
3.7004757 9.0298996 -1.1982183 0
3.6800184 9.0664968 -1.2014306 0
3.6499996 9.0797796 -1.2015623 0
3.6188526 9.0902491 -1.2013353 0
3.5786726 9.0777721 -1.198094 0
3.5525687 9.1008692 -1.1995635 0
3.5291605 9.1311646 -1.2019904 0
3.4823074 9.1005621 -1.1964183 0
3.464767 9.1464815 -1.2009212 0
3.4353776 9.1615047 -1.2013747 0
3.4012561 9.1638508 -1.2001801 0
3.364342 9.1584063 -1.1979829 0
3.3293722 9.157959 -1.1964576 0
3.3094497 9.1990938 -1.2003753 0
3.2782762 9.2092609 -1.200261 0
3.2380369 9.1936712 -1.1968074 0
