# .PCD v0.7 - Point Cloud Data file format
VERSION 0.7
FIELDS x y z intensity
SIZE 4 4 4 4
TYPE F F F F
COUNT 1 1 1 1
WIDTH 1416
HEIGHT 1
VIEWPOINT 0 0 0 1 0 0 0
POINTS 1416
DATA ascii
-4.178174 -6.330348 -1.2013255 0
-4.1575966 -6.3453436 -1.2015193 0
-4.1320291 -6.3526845 -1.2002791 0
-4.1148415 -6.3729062 -1.2014865 0
-4.0928802 -6.385776 -1.2013189 0
-4.0609884 -6.3830242 -1.198233 0
-4.0474601 -6.4091067 -1.200575 0
-4.0254569 -6.4218559 -1.2004284 0
-3.9996877 -6.4285417 -1.1991645 0
-3.9847507 -6.4526668 -1.2011658 0
-3.9581499 -6.4579244 -1.1996675 0
-3.9392426 -6.475708 -1.2005107 0
-3.9097741 -6.476068 -1.1981405 0
-3.8864515 -6.4864902 -1.1976513 0
-3.8770506 -6.5202861 -1.2014844 0
-3.8561797 -6.5349636 -1.2017998 0
-3.8330243 -6.5457673 -1.2014164 0
-3.8105896 -6.5577788 -1.2012693 0
-3.7804379 -6.5563955 -1.1986873 0
-3.7618599 -6.5750213 -1.1997799 0
-3.7498779 -6.60536 -1.203015 0
-3.7190597 -6.6025376 -1.2002232 0
-3.7076757 -6.6342478 -1.203721 0
-3.6935821 -6.6613774 -1.2063897 0
-3.6406176 -6.6180811 -1.1963313 0
-3.6314619 -6.6541691 -1.2006471 0
-3.6057646 -6.660089 -1.1995271 0
-3.5798681 -6.6655383 -1.1983401 0
-3.5725331 -6.7057214 -1.2034041 0
-3.5603771 -6.7372417 -1.2069117 0
-3.5076802 -6.6917405 -1.1966469 0
-3.4907067 -6.7140079 -1.1985294 0
-3.4674819 -6.7243276 -1.1982894 0
-3.4594078 -6.7642498 -1.2033299 0
-3.4286513 -6.7599235 -1.2005085 0
-3.4045641 -6.7685919 -1.200014 0
-3.3844504 -6.7851796 -1.2009363 0
-3.3654881 -6.8041835 -1.202296 0
-3.3225212 -6.7743759 -1.1950539 0
-3.3052599 -6.7967272 -1.1970351 0
-3.2917888 -6.8271327 -1.2004396 0
-3.2582786 -6.8159537 -1.1965463 0
-3.2482195 -6.8538733 -1.2012845 0
-3.2132192 -6.839179 -1.1968141 0
-3.2007825 -6.8724842 -1.2007575 0
-3.1802368 -6.8886237 -1.2017076 0
-3.1456826 -6.8742476 -1.1973531 0
-3.1361895 -6.914681 -1.2025576 0
-3.1197193 -6.9401307 -1.2051576 0
-3.08443 -6.9236088 -1.2004861 0
-3.0605073 -6.9323444 -1.2002149 0
-3.0452437 -6.9608455 -1.2033747 0
-3.0103257 -6.9443436 -1.1987703 0
-2.9804361 -6.9390559 -1.1961259 0
-2.9661372 -6.970119 -1.1997594 0
-2.9458466 -6.9873676 -1.2010214 0
-2.9321899 -7.0206389 -1.2050437 0
-2.8923566 -6.9910855 -1.1982998 0
-2.8716397 -7.0074272 -1.1994438 0
-2.8537936 -7.030972 -1.2018294 0
-2.8296967 -7.0392389 -1.2016139 0
-2.8037686 -7.0428815 -1.2006243 0
-2.7703505 -7.0274119 -1.1963969 0
-2.7483287 -7.0406451 -1.1970744 0
-2.7379613 -7.0841131 -1.2028974 0
-2.7000275 -7.0562301 -1.1966189 0
-2.6764731 -7.0655575 -1.1966721 0
-2.6610429 -7.0965576 -1.2004048 0
-2.6362996 -7.1029201 -1.1999791 0
-2.6068726 -7.0964818 -1.1974081 0
-2.589489 -7.1228533 -1.200386 0
-2.5704129 -7.1448936 -1.2026412 0
-2.5474837 -7.156395 -1.2031327 0
-2.5188034 -7.1516314 -1.2009053 0
-2.4964709 -7.1647992 -1.2017043 0
-2.4545178 -7.1211481 -1.1929959 0
-2.4473779 -7.1784668 -1.2012171 0
-2.4232845 -7.1865983 -1.2012113 0
-2.3928356 -7.1756697 -1.198037 0
-2.376065 -7.2057958 -1.2017299 0
-2.3507078 -7.2100892 -1.2011248 0
-2.3312063 -7.2324677 -1.2035439 0
-2.3042254 -7.2317104 -1.2021255 0
-2.2741146 -7.2208161 -1.1990404 0
-2.2548904 -7.2444606 -1.2017045 0
-2.2195196 -7.2159929 -1.1957412 0
-2.1971021 -7.2292805 -1.1967156 0
-2.1767871 -7.2497134 -1.1988832 0
-2.1508305 -7.251451 -1.1979712 0
-2.1291287 -7.2675748 -1.1994488 0
-2.1087561 -7.2885194 -1.2017319 0
-2.0817399 -7.286562 -1.2002516 0
-2.0557783 -7.2881141 -1.1993651 0
-2.0326624 -7.299747 -1.2001512 0
-2.0090101 -7.3095551 -1.2006495 0
-1.9784073 -7.2938194 -1.1969687 0
-1.9563793 -7.3095207 -1.1984621 0
-1.9360607 -7.331944 -1.2010676 0
-1.9044894 -7.3116055 -1.196683 0
-1.8871222 -7.3458123 -1.2012393 0
-1.8630677 -7.3544087 -1.2016169 0
-1.8392489 -7.3640156 -1.2021722 0
-1.8115371 -7.3579102 -1.2001772 0
-1.7893162 -7.3740759 -1.2018287 0
-1.7594248 -7.3584638 -1.1983161 0
-1.7433635 -7.4009156 -1.2042707 0
-1.7180085 -7.404429 -1.2038983 0
-1.6933444 -7.4108968 -1.20402 0
-1.6592116 -7.3753004 -1.1973263 0
-1.6391532 -7.4019508 -1.2007539 0
-1.6110723 -7.3924723 -1.1983333 0
-1.5879658 -7.405705 -1.1996086 0
-1.561509 -7.403317 -1.1983669 0
-1.5420803 -7.4345541 -1.2025795 0
-1.5136434 -7.4225121 -1.1998039 0
-1.4884531 -7.4260712 -1.1995659 0
-1.4584982 -7.4053879 -1.1954281 0
-1.4353625 -7.4190292 -1.1968466 0
-1.4161539 -7.4536653 -1.2016615 0
-1.3860894 -7.4312124 -1.1972857 0
-1.3604432 -7.4318681 -1.1966497 0
-1.3359576 -7.4388361 -1.1970437 0
-1.3120941 -7.4494333 -1.1980343 0
-1.2894542 -7.4673653 -1.2002162 0
-1.2662336 -7.4824209 -1.2019469 0
-1.2392452 -7.4751983 -1.2001126 0
-1.2165426 -7.4938941 -1.2024524 0
-1.1940116 -7.5143023 -1.2050779 0
-1.1608732 -7.467205 -1.196894 0
-1.1369227 -7.4782395 -1.1980449 0
-1.1148733 -7.5024004 -1.20131 0
-1.08997 -7.5078669 -1.2015934 0
-1.0642536 -7.5076847 -1.2009864 0
-1.0373111 -7.4984546 -1.1989468 0
-1.0146496 -7.5203114 -1.2018908 0
-0.98628139 -7.4997301 -1.1980664 0
-0.9648304 -7.5318766 -1.2026781 0
-0.9402799 -7.5407462 -1.2035843 0
-0.91118497 -7.5124688 -1.1985766 0
-0.88874155 -7.538806 -1.2022963 0
-0.86005771 -7.512023 -1.1975583 0
-0.8358103 -7.5233598 -1.1989121 0
-0.8126325 -7.545166 -1.2019463 0
-0.78659624 -7.5408101 -1.2008255 0
-0.75981331 -7.5285859 -1.1984664 0
-0.73508185 -7.5363688 -1.1993062 0
-0.71119893 -7.5535455 -1.2016535 0
-0.68489909 -7.5451994 -1.1999537 0
-0.65937662 -7.5449243 -1.1995516 0
-0.63445932 -7.5516529 -1.2002764 0
-0.60885507 -7.5502477 -1.1997218 0
-0.5844692 -7.5643096 -1.2016382 0
-0.55828148 -7.5550933 -1.19987 0
-0.53362966 -7.5665951 -1.2014058 0
-0.50665689 -7.5445099 -1.1976227 0
-0.48297501 -7.5715046 -1.2016439 0
-0.45708781 -7.5648284 -1.2003344 0
-0.43066099 -7.5477271 -1.1973851 0
-0.4068498 -7.577014 -1.2018081 0
-0.38169786 -7.5833945 -1.2026104 0
-0.35519806 -7.5618105 -1.1989919 0
-0.3293581 -7.551847 -1.1972302 0
-0.30431503 -7.5598321 -1.1983277 0
-0.27909204 -7.5642095 -1.1988665 0
-0.25402611 -7.5739579 -1.2002698 0
-0.22904068 -7.5883522 -1.2024224 0
-0.20309417 -7.5703311 -1.1994523 0
-0.17791815 -7.5797892 -1.2008495 0
-0.15186726 -7.5487151 -1.1958392 0
-0.12695639 -7.5730071 -1.1996132 0
-0.10215971 -7.6177492 -1.2066396 0
-0.076470204 -7.6033282 -1.2043079 0
-0.050763234 -7.57162 -1.1992519 0
-0.025344469 -7.5621195 -1.197727 0
1.0040249e-05 -7.5672951 -1.19854 0
0.025383312 -7.5677176 -1.1986136 0
0.05082735 -7.5781837 -1.2002915 0
0.076238818 -7.5783219 -1.2003472 0
0.10150549 -7.5674682 -1.1986753 0
0.12698613 -7.5735812 -1.1997043 0
0.15257901 -7.5830927 -1.2012852 0
0.17786662 -7.5767365 -1.200366 0
0.20360835 -7.5887461 -1.20237 0
0.22773594 -7.5444603 -1.1954676 0
0.25431329 -7.5819197 -1.2015316 0
0.27939892 -7.571981 -1.2000983 0
0.30593961 -7.5996881 -1.2046455 0
0.33061436 -7.5801897 -1.2017237 0
0.35593858 -7.577147 -1.2014238 0
0.38070226 -7.5632148 -1.1994103 0
0.40573257 -7.5558324 -1.1984487 0
0.43155235 -7.5629954 -1.1998075 0
0.45608935 -7.5479708 -1.1976599 0
0.48203334 -7.5564265 -1.1992512 0
0.50465375 -7.5143833 -1.1928406 0
0.5329802 -7.5570998 -1.1998984 0
0.55938625 -7.5697708 -1.2022012 0
0.58393282 -7.557107 -1.2004942 0
0.61132097 -7.580575 -1.2045411 0
0.63503683 -7.5582857 -1.2013309 0
0.65901828 -7.5405931 -1.1988633 0
0.68441361 -7.539628 -1.199068 0
0.70918012 -7.5318894 -1.1982087 0
0.73725796 -7.5584712 -1.2028239 0
0.76258332 -7.5558314 -1.202804 0
0.78618425 -7.5366664 -1.2001659 0
0.8129099 -7.5475535 -1.2023269 0
0.8368957 -7.532948 -1.2004404 0
0.86383224 -7.5448141 -1.2027862 0
0.88534331 -7.5098081 -1.1976721 0
0.91217226 -7.520442 -1.199849 0
0.94078428 -7.5446277 -1.2042042 0
0.96478796 -7.5313869 -1.2026004 0
0.98662978 -7.5022254 -1.1984653 0
1.0099726 -7.4854956 -1.1963271 0
1.0349163 -7.4809971 -1.1961559 0
1.0631357 -7.4996562 -1.1997026 0
1.089573 -7.5049925 -1.2011338 0
1.1185629 -7.5270915 -1.2052641 0
1.1335518 -7.4559345 -1.1944721 0
1.1634375 -7.4835691 -1.1995174 0
1.1874611 -7.4729505 -1.1984469 0
1.2137929 -7.4768305 -1.199715 0
1.237136 -7.4623528 -1.1980507 0
1.2651988 -7.4761858 -1.2009459 0
1.2893796 -7.466815 -1.2001283 0
1.3160278 -7.4716511 -1.2016079 0
1.3364092 -7.4412365 -1.1974306 0
1.3645247 -7.4540529 -1.2002224 0
1.3884331 -7.4436674 -1.199293 0
1.415795 -7.4516678 -1.2013401 0
1.4386274 -7.4357986 -1.1995525 0
1.462831 -7.4272828 -1.1989632 0
1.4899596 -7.4334846 -1.2007641 0
1.5156898 -7.432447 -1.2014105 0
1.540575 -7.4271979 -1.2013903 0
1.5681508 -7.4347086 -1.2034489 0
1.5869583 -7.4009109 -1.1988326 0
1.6150519 -7.4106379 -1.2012787 0
1.636575 -7.3902154 -1.1988508 0
1.6671849 -7.4106507 -1.2030659 0
1.6857294 -7.3774796 -1.1985916 0
1.712885 -7.3822584 -1.2002944 0
1.7342488 -7.362134 -1.197961 0
1.7619084 -7.3687644 -1.1999943 0
1.7872545 -7.3654938 -1.2004309 0
1.8128601 -7.3631992 -1.2010407 0
1.8389571 -7.3627644 -1.2019687 0
1.8592529 -7.3392682 -1.1991439 0
1.8857836 -7.3405209 -1.2003748 0
1.9068444 -7.3205667 -1.1981506 0
1.9339238 -7.3237729 -1.1997299 0
1.9558755 -7.3075609 -1.1981417 0
1.9825053 -7.3088512 -1.1994363 0
2.0025861 -7.2861066 -1.1967988 0
2.0303752 -7.2914581 -1.1987894 0
2.0520635 -7.2748704 -1.1971866 0
2.0749888 -7.2628593 -1.1963482 0
2.0985203 -7.2530689 -1.1958877 0
2.131377 -7.2751775 -1.2007046 0
2.153013 -7.2587385 -1.1991761 0
2.1792769 -7.2579365 -1.2002439 0
2.1979208 -7.231905 -1.1971509 0
2.2329631 -7.2596312 -1.2029732 0
2.251929 -7.2348785 -1.200116 0
2.2862003 -7.2591243 -1.2054026 0
2.3050187 -7.2341342 -1.2025294 0
2.3318832 -7.2345023 -1.2038835 0
2.3533959 -7.2182689 -1.2024885 0
2.3727796 -7.1957679 -1.2000586 0
2.402046 -7.2032266 -1.2026389 0
2.422811 -7.1851306 -1.2009671 0
2.4405954 -7.1585112 -1.1978787 0
2.4662828 -7.15522 -1.1987051 0
2.5021946 -7.1811652 -1.2044502 0
2.5194035 -7.1532741 -1.2011824 0
2.5436556 -7.1455812 -1.2013159 0
2.5713334 -7.1473932 -1.2030631 0
2.582947 -7.1048002 -1.1973448 0
2.6239777 -7.1429873 -1.2052562 0
2.6407619 -7.1148849 -1.2020016 0
2.666281 -7.1104693 -1.2027591 0
2.6826324 -7.0817604 -1.1994176 0
2.6983867 -7.0518861 -1.1958835 0
2.7213039 -7.0409584 -1.1955709 0
2.745846 -7.0342302 -1.195985 0
2.7731719 -7.034514 -1.1976074 0
2.8094904 -7.0572004 -1.2030666 0
2.8167908 -7.0070801 -1.1961256 0
2.8477838 -7.0161123 -1.1992906 0
2.8695886 -7.0023694 -1.1985793 0
2.894007 -6.9950213 -1.1989758 0
2.9146295 -6.9785414 -1.1978192 0
2.9469578 -6.9899511 -1.2014669 0
2.9627419 -6.9620895 -1.1983786 0
2.9880056 -6.9566278 -1.1991562 0
3.0191629 -6.9646788 -1.2022821 0
3.0327942 -6.9323382 -1.1984478 0
3.0613086 -6.9341102 -1.2005218 0
3.075666 -6.9038873 -1.197068 0
3.1042125 -6.9055858 -1.1991603 0
3.1302094 -6.9014478 -1.2002575 0
3.152878 -6.8899236 -1.200085 0
3.1791425 -6.8862052 -1.2012873 0
3.1961288 -6.8624444 -1.1990049 0
3.2130589 -6.8387909 -1.1967477 0
3.2366476 -6.8294096 -1.1969982 0
3.2687702 -6.8378544 -1.2003925 0
3.3052299 -6.8549628 -1.2053345 0
3.3147717 -6.8162403 -1.2004733 0
3.3302143 -6.7900162 -1.1978145 0
3.3632336 -6.7995801 -1.2014841 0
3.3835192 -6.7832675 -1.2005996 0
3.4020896 -6.7636271 -1.1991354 0
3.4335372 -6.7695122 -1.202213 0
3.4500389 -6.7458863 -1.2000648 0
3.4816248 -6.7517104 -1.2031708 0
3.5020385 -6.7357602 -1.202414 0
3.5048242 -6.6862488 -1.1956666 0
3.5569046 -6.7306271 -1.2057284 0
3.5523577 -6.667809 -1.1966021 0
3.5797689 -6.6653113 -1.198301 0
3.6087704 -6.6655989 -1.2005212 0
3.6435945 -6.6763587 -1.2046527 0
3.6507888 -6.636529 -1.1996678 0
3.6788948 -6.6348472 -1.2015867 0
3.7069788 -6.6329594 -1.2034891 0
3.7150285 -6.5953403 -1.1989166 0
3.7461369 -6.5987291 -1.2018092 0
3.7615075 -6.5743647 -1.1996619 0
3.7821727 -6.5593638 -1.1992319 0
3.8235295 -6.5800076 -1.2053431 0
3.8192716 -6.5222416 -1.1971004 0
3.8398147 -6.5071907 -1.1966941 0
3.8843908 -6.5325913 -1.2037537 0
3.9029112 -6.5139222 -1.2027181 0
3.9129579 -6.4813027 -1.1991109 0
3.9283442 -6.4577537 -1.1971841 0
3.9547553 -6.4523473 -1.1986333 0
3.9897053 -6.4606519 -1.2026542 0
4.0096669 -6.4445429 -1.2021513 0
4.0021629 -6.3846574 -1.1934768 0
4.058394 -6.4263821 -1.2038132 0
4.0704136 -6.3978009 -1.2010089 0
4.0769563 -6.3608937 -1.19664 0
4.1268415 -6.3914547 -1.2049854 0
4.131588 -6.3519692 -1.2001461 0
4.1524844 -6.3375049 -1.200037 0
4.1791439 -6.3317804 -1.2015996 0
4.196322 -6.3116746 -1.2004473 0
4.228065 -6.313405 -1.2034658 0
4.2360702 -6.2797165 -1.1997447 0
4.253469 -6.2601333 -1.1987212 0
4.2649188 -6.2319331 -1.1960527 0
4.2967057 -6.2334352 -1.1990991 0
4.3225822 -6.2261977 -1.200488 0
4.3348217 -6.1993542 -1.1981078 0
4.3641949 -6.1970143 -1.2004769 0
4.3903885 -6.1900187 -1.2019665 0
4.4016271 -6.1619768 -1.1993803 0
4.4204717 -6.1446958 -1.1988947 0
4.4434114 -6.1331015 -1.1995325 0
4.4610353 -6.1141744 -1.1987493 0
4.483408 -6.1017661 -1.199257 0
4.499651 -6.0810375 -1.1981415 0
4.5399961 -6.0927329 -1.2034382 0
4.5531678 -6.0678411 -1.2015301 0
4.5752087 -6.0548201 -1.2019825 0
4.5915308 -6.0342517 -1.2009486 0
4.598763 -6.0018907 -1.1975701 0
4.6408772 -6.0149746 -1.2032787 0
4.6554408 -5.9922013 -1.2018387 0
4.6589937 -5.9554524 -1.1975944 0
4.6904364 -5.9543991 -1.2005383 0
4.6975617 -5.9224863 -1.1972728 0
4.7288685 -5.9210725 -1.2001854 0
4.7294602 -5.8812656 -1.1953242 0
4.7702947 -5.8914876 -1.2006457 0
4.8020535 -5.8902192 -1.2036616 0
4.8143072 -5.8649879 -1.2017974 0
4.8199525 -5.8318844 -1.1983187 0
4.8518271 -5.8305302 -1.2013763 0
4.8605261 -5.8013139 -1.1987075 0
4.8842611 -5.7900958 -1.1997665 0
4.8883204 -5.7556415 -1.1960167 0
4.9178901 -5.7512646 -1.1985267 0
4.9345856 -5.73177 -1.1979053 0
4.9707303 -5.7347541 -1.2020053 0
4.9762082 -5.7023315 -1.1986998 0
4.9932709 -5.6833072 -1.1982132 0
5.0412331 -5.6992455 -1.2051303 0
5.0417695 -5.6614885 -1.2007141 0
5.0471988 -5.6294675 -1.1975052 0
5.0700865 -5.616991 -1.1984606 0
5.0815353 -5.591867 -1.1967283 0
5.1187377 -5.5949998 -1.2010651 0
5.1247344 -5.5639811 -1.1980882 0
5.1594734 -5.5641441 -1.2018415 0
5.1674652 -5.5354223 -1.1993732 0
5.2042961 -5.5375385 -1.2036057 0
5.2263727 -5.5237989 -1.2044213 0
5.2184668 -5.4785328 -1.1983596 0
5.2438002 -5.4682989 -1.1999601 0
5.2644248 -5.4530902 -1.2004892 0
5.2828732 -5.4356089 -1.2005334 0
5.3085051 -5.425467 -1.2022176 0
5.3218908 -5.4027905 -1.2011399 0
5.315351 -5.360085 -1.1956011 0
5.355319 -5.3642974 -1.200539 0
5.3902235 -5.3631759 -1.2043259 0
5.3846207 -5.3217936 -1.1990806 0
5.411109 -5.3122272 -1.2010062 0
5.422895 -5.2882094 -1.1996801 0
5.4409661 -5.2703571 -1.199762 0
5.4769731 -5.2697573 -1.2037989 0
5.472888 -5.2306032 -1.1990397 0
5.4959698 -5.2175174 -1.2002573 0
5.5094151 -5.1952724 -1.1993827 0
5.5195394 -5.1699681 -1.1978065 0
5.5427246 -5.1569061 -1.199079 0
5.5633717 -5.1414242 -1.1998097 0
5.5777841 -5.1201773 -1.1992089 0
5.5886312 -5.0957136 -1.1978611 0
5.6226497 -5.0923119 -1.2014862 0
5.6389041 -5.0727229 -1.2013184 0
5.6486144 -5.047296 -1.1997752 0
5.6549821 -5.0189891 -1.1975466 0
5.6605091 -4.990067 -1.1951673 0
5.7253604 -5.0132227 -1.2053044 0
5.7222519 -4.9767051 -1.2011305 0
5.7615314 -4.977036 -1.2058659 0
5.7590785 -4.9412966 -1.2018783 0
5.7447367 -4.8956466 -1.195453 0
5.7765446 -4.8894148 -1.1986539 0
5.7833066 -4.8619504 -1.1966678 0
5.8133903 -4.8540678 -1.1995183 0
5.8340697 -4.8382292 -1.2004313 0
5.8554454 -4.8229136 -1.2014956 0
5.8522606 -4.7874479 -1.1975418 0
5.8843393 -4.780848 -1.2008193 0
5.8881764 -4.7512808 -1.1983447 0
5.9223533 -4.746161 -1.2020549 0
5.9091024 -4.7030931 -1.1961581 0
5.9408402 -4.6959038 -1.1993889 0
5.9477034 -4.669013 -1.1976072 0
5.9612932 -4.6474619 -1.1971993 0
6.0044031 -4.6487875 -1.20272 0
5.9999948 -4.6132817 -1.198732 0
6.0226264 -4.5986347 -1.2001663 0
6.0238924 -4.5677109 -1.19736 0
6.0498934 -4.5555606 -1.1994855 0
6.0702767 -4.5390968 -1.2005028 0
6.0960469 -4.5265789 -1.2025909 0
6.1170459 -4.5104332 -1.2037435 0
6.1274815 -4.4864917 -1.2028302 0
6.1363239 -4.4614396 -1.2016227 0
6.1368837 -4.4304705 -1.1988169 0
6.1677375 -4.4213634 -1.2019414 0
6.1935897 -4.408534 -1.2040921 0
6.1752491 -4.3643589 -1.197675 0
6.1990838 -4.350112 -1.1994622 0
6.2305627 -4.3410978 -1.2027301 0
6.2299242 -4.3096972 -1.1998107 0
6.2456822 -4.2897081 -1.200069 0
6.2617364 -4.269907 -1.2003961 0
6.2681046 -4.2435317 -1.1988826 0
6.3047137 -4.2375588 -1.2031605 0
6.3089285 -4.2097521 -1.2012645 0
6.3202739 -4.1867652 -1.2007451 0
6.3286958 -4.1618814 -1.1996874 0
6.3512897 -4.1463027 -1.2013284 0
6.3583345 -4.120564 -1.2000408 0
6.3776646 -4.1027932 -1.2010862 0
6.3957314 -4.0841627 -1.201903 0
6.402462 -4.0583057 -1.2006041 0
6.4043908 -4.0294914 -1.1984257 0
6.4321036 -4.0168886 -1.2010845 0
6.4335818 -3.9878907 -1.1988569 0
6.440784 -3.9625249 -1.1977166 0
6.4540467 -3.9409158 -1.1977191 0
6.46877 -3.9201918 -1.1980054 0
6.5147943 -3.9182789 -1.2040893 0
6.5199337 -3.8916621 -1.2026209 0
6.5179996 -3.8609271 -1.1998696 0
6.5361929 -3.8421586 -1.2008406 0
6.5520811 -3.8219972 -1.2013985 0
6.578445 -3.8078723 -1.203885 0
6.5793338 -3.7789931 -1.201722 0
6.5797715 -3.7499621 -1.1994988 0
6.6199021 -3.743485 -1.2045197 0
6.6138687 -3.7108622 -1.2011514 0
6.6343584 -3.693167 -1.2026169 0
6.6290064 -3.6611285 -1.199415 0
6.6501975 -3.6437879 -1.2010318 0
6.6635728 -3.6221204 -1.2012473 0
6.6590414 -3.5907865 -1.1982535 0
6.691483 -3.5793734 -1.2019249 0
6.7027826 -3.5565658 -1.2018058 0
6.6986189 -3.5256248 -1.1989331 0
6.713696 -3.5048654 -1.1995217 0
6.7351046 -3.4873559 -1.2012508 0
6.7443728 -3.4635293 -1.2008259 0
6.7298512 -3.4276061 -1.1961875 0
6.7650971 -3.4170399 -1.2004091 0
6.7810545 -3.3966122 -1.2012131 0
6.788918 -3.3721256 -1.2005966 0
6.7920241 -3.3453248 -1.1991554 0
6.7872624 -3.314749 -1.1963459 0
6.8154745 -3.300272 -1.1993616 0
6.8352094 -3.2815831 -1.2008915 0
6.831079 -3.2514629 -1.1982437 0
6.8706193 -3.2420733 -1.203266 0
6.8859353 -3.2211168 -1.2040502 0
6.8807116 -3.1905994 -1.2012595 0
6.8890824 -3.16646 -1.2008607 0
6.8945727 -3.1410267 -1.1999753 0
6.8863301 -3.1094332 -1.1967194 0
5.1088166 -2.2862298 -0.88648266 0
5.1431236 -2.280916 -0.89110363 0
5.1383882 -2.25823 -0.88896626 0
5.1407747 -2.2387438 -0.88807559 0
5.1300502 -2.2136412 -0.8849358 0
5.1395717 -2.1973386 -0.88530242 0
5.1106615 -2.1647403 -0.87906742 0
5.1388507 -2.1563883 -0.8826676 0
5.1264057 -2.13098 -0.87929779 0
5.1253476 -2.1104145 -0.87789774 0
5.1218181 -2.0889046 -0.87608862 0
5.160418 -2.0844951 -0.88149071 0
5.1975036 -2.0792329 -0.88662976 0
5.2681456 -2.0870304 -0.89748174 0
5.3019924 -2.0799 -0.90205479 0
5.3499289 -2.0780342 -0.90902001 0
5.3905549 -2.073041 -0.91473675 0
5.4817424 -2.0870383 -0.9290179 0
7.0670757 -2.6635203 -1.196172 0
7.0982599 -2.6481278 -1.1999407 0
7.0849376 -2.6161306 -1.1961989 0
7.1023827 -2.5955458 -1.1976684 0
7.1241732 -2.5764661 -1.1998795 0
7.1283584 -2.5509863 -1.1991371 0
7.1348958 -2.5263724 -1.1988051 0
7.1538515 -2.5061235 -1.2005715 0
7.1512642 -2.4783292 -1.1987361 0
7.1922545 -2.4655554 -1.2042147 0
7.1709914 -2.4314287 -1.1992829 0
7.1596599 -2.400852 -1.1960348 0
7.2052226 -2.3892865 -1.2023011 0
7.1776175 -2.3534505 -1.1963714 0
7.2032971 -2.3351519 -1.19934 0
7.1984806 -2.3069479 -1.1972435 0
7.2114415 -2.2844682 -1.1981184 0
7.2219434 -2.2611794 -1.198597 0
7.2339444 -2.2383327 -1.1993364 0
7.2456183 -2.2153535 -1.2000337 0
7.2654176 -2.1947973 -1.2020873 0
7.2683229 -2.1691086 -1.2013581 0
7.2861485 -2.14785 -1.2031072 0
7.2944832 -2.1237509 -1.2033011 0
7.2851133 -2.0945525 -1.2005901 0
7.2670603 -2.0630081 -1.1964684 0
7.2821045 -2.0409207 -1.197812 0
7.3051705 -2.020993 -1.2004846 0
7.3130465 -1.9968004 -1.2006719 0
7.29533 -1.9657035 -1.1966745 0
7.3176737 -1.9454315 -1.1992629 0
7.3394775 -1.9249043 -1.2017717 0
7.3414841 -1.8991458 -1.201051 0
7.3367629 -1.8717022 -1.1992452 0
7.3283963 -1.8434203 -1.1968607 0
7.3710113 -1.8278843 -1.2028127 0
7.346406 -1.7956585 -1.1978084 0
7.3915105 -1.7804415 -1.2041825 0
7.3675308 -1.7485512 -1.199314 0
7.397346 -1.7294492 -1.2032168 0
7.3684316 -1.6966541 -1.1975816 0
7.3971872 -1.677179 -1.2013346 0
7.3957753 -1.6508071 -1.2001996 0
7.4025154 -1.6262752 -1.2004019 0
7.4062037 -1.6010743 -1.2001227 0
7.419549 -1.5779392 -1.2014211 0
7.4300213 -1.5541465 -1.2022663 0
7.3917985 -1.5203018 -1.1952499 0
7.4359884 -1.5034221 -1.2015736 0
7.4126577 -1.4728533 -1.196999 0
7.4256048 -1.4495634 -1.1982981 0
7.4627137 -1.4308497 -1.2035055 0
7.4173975 -1.3963941 -1.1954358 0
7.4265633 -1.3723534 -1.1961646 0
7.4552732 -1.3518249 -1.200052 0
7.457839 -1.3264788 -1.1997424 0
7.4515605 -1.2996033 -1.1980246 0
7.4496212 -1.273543 -1.1970196 0
7.4636583 -1.2502018 -1.1985949 0
7.4789515 -1.2269988 -1.2003834 0
7.4607449 -1.198338 -1.1968096 0
7.5127821 -1.1808711 -1.2045152 0
7.4859395 -1.1509464 -1.1995862 0
7.4778767 -1.1240553 -1.1976835 0
7.4930053 -1.1006519 -1.1995088 0
7.4963751 -1.0754831 -1.1994642 0
7.4977913 -1.0500423 -1.1991208 0
7.4884281 -1.0231432 -1.197068 0
7.49997 -0.9991163 -1.1983707 0
7.4881372 -0.97199941 -1.1959527 0
7.527266 -0.95142686 -1.2016858 0
7.5130796 -0.92405206 -1.1989197 0
7.5243955 -0.89984471 -1.2002372 0
7.5213594 -0.87391335 -1.1992787 0
7.5219111 -0.84842724 -1.1989064 0
7.5397243 -0.82484514 -1.2012981 0
7.558526 -0.80126572 -1.203859 0
7.5383682 -0.773579 -1.2002286 0
7.5182981 -0.74605513 -1.1966281 0
7.5357976 -0.72228509 -1.1990211 0
7.5294361 -0.69620669 -1.1976308 0
7.5351548 -0.67126328 -1.1981758 0
7.5578089 -0.64774787 -1.2014259 0
7.5236878 -0.61941987 -1.195665 0
7.5505848 -0.59615391 -1.1996151 0
7.5530019 -0.57086968 -1.1996882 0
7.5655417 -0.54631305 -1.2013823 0
7.5479732 -0.51961154 -1.1983092 0
7.5423284 -0.49382082 -1.1971433 0
7.5373502 -0.46812063 -1.1960974 0
7.5838804 -0.44549027 -1.2032374 0
7.5494895 -0.41807559 -1.197552 0
7.561368 -0.39330837 -1.1992203 0
7.5814209 -0.3688679 -1.2021977 0
7.5675926 -0.34276634 -1.199816 0
7.5874777 -0.31817916 -1.2027928 0
7.590476 -0.29281417 -1.2031057 0
7.5660553 -0.26646993 -1.1990867 0
7.552228 -0.24063319 -1.1967607 0
7.6001086 -0.21665376 -1.2042261 0
7.5813322 -0.19068137 -1.201143 0
7.5975361 -0.1656017 -1.2036154 0
7.582499 -0.13984089 -1.2011522 0
7.5885553 -0.11450238 -1.2020441 0
7.5782776 -0.088934116 -1.2003621 0
7.5933042 -0.063648894 -1.2027017 0
7.5882225 -0.038163211 -1.2018698 0
7.5662699 -0.012684173 -1.1983793 0
7.5959229 0.012733883 -1.2030759 0
7.5808969 0.038126368 -1.2007095 0
7.5800829 0.063538074 -1.2006075 0
7.5761652 0.088909328 -1.2000275 0
7.5583563 0.11404671 -1.1972605 0
7.5642056 0.13950352 -1.1982545 0
7.5490479 0.16454482 -1.1959339 0
7.5896492 0.19089055 -1.2024606 0
7.5795436 0.21606752 -1.2009677 0
7.5405884 0.24026231 -1.1949161 0
7.5697002 0.26659828 -1.1996642 0
7.5526772 0.291356 -1.1971145 0
7.5871906 0.31816712 -1.2027473 0
7.5722136 0.34297565 -1.2005486 0
7.5705585 0.36833942 -1.2004752 0
7.5607362 0.39327553 -1.19912 0
7.5344 0.41723996 -1.1951584 0
7.5585551 0.4440026 -1.1992193 0
7.5572214 0.46935478 -1.1992507 0
7.5684285 0.49552965 -1.2012861 0
7.5782027 0.52169257 -1.2031083 0
7.548389 0.5450744 -1.1986586 0
7.5405812 0.56993091 -1.1977154 0
7.5675173 0.59749079 -1.2023053 0
7.5269828 0.61969113 -1.1961887 0
7.5628624 0.64818096 -1.2022293 0
7.5670047 0.67410058 -1.2032403 0
7.5462708 0.69776332 -1.2003086 0
7.5768752 0.72622228 -1.205557 0
7.5418334 0.74839061 -1.200374 0
7.5570421 0.77549529 -1.2032018 0
7.5531883 0.80069983 -1.2030088 0
7.5487785 0.82583565 -1.2027407 0
7.5265198 0.84894711 -1.199641 0
7.5297804 0.87489182 -1.2006215 0
7.5355735 0.90118152 -1.2020203 0
7.5122156 0.92394578 -1.1987817 0
7.4962997 0.94751281 -1.1967422 0
7.5162835 0.97565299 -1.2004479 0
7.5206637 1.0018731 -1.2016773 0
7.5002761 1.0247619 -1.1989619 0
7.4990635 1.0502205 -1.1993241 0
7.4821563 1.0734431 -1.1971891 0
1.7947463 0.26363131 -0.2873098 0
1.8027377 0.27098289 -0.28873292 0
1.805009 0.27751607 -0.28924412 0
1.8419613 0.28952241 -0.29531941 0
1.8207631 0.2924493 -0.29207632 0
1.8335353 0.30081028 -0.29428527 0
1.832812 0.30700558 -0.29433274 0
1.8240439 0.31182772 -0.29309094 0
1.8224608 0.31784967 -0.29300612 0
1.8386322 0.32702595 -0.29578072 0
1.8288431 0.33161438 -0.29438317 0
1.860963 0.34388706 -0.2997373 0
1.8579776 0.34978157 -0.29944366 0
1.8721657 0.35895625 -0.30192259 0
1.8480173 0.36075419 -0.29822159 0
1.872341 0.37202361 -0.30234638 0
1.8831105 0.38073081 -0.30428985 0
1.8593986 0.3824302 -0.30066377 0
1.8752491 0.39224812 -0.30343774 0
1.9106094 0.40633538 -0.30937818 0
1.9327718 0.41782692 -0.31319192 0
1.925601 0.42303959 -0.31225806 0
1.8875763 0.42132494 -0.30631927 0
1.9080923 0.43262556 -0.30988228 0
1.9334381 0.4451932 -0.3142392 0
1.9138919 0.44745487 -0.31130445 0
1.9197943 0.45562872 -0.31251124 0
1.9320062 0.46537501 -0.31475136 0
1.940202 0.47423735 -0.31634384 0
1.9337494 0.47953668 -0.31555215 0
1.9275035 0.48485351 -0.31479642 0
1.9274694 0.49172214 -0.31505832 0
1.9434528 0.50274581 -0.31794471 0
1.9574224 0.51336771 -0.32050985 0
1.9786748 0.52603823 -0.32427672 0
2.0100231 0.54159439 -0.32971004 0
1.980209 0.54068881 -0.32511505 0
1.9525462 0.54017663 -0.32086885 0
1.9651725 0.55076951 -0.32324544 0
1.9944117 0.56618321 -0.3283653 0
1.98921 0.57192034 -0.32782274 0
2.0165632 0.58711189 -0.33265311 0
1.9993625 0.58938283 -0.33013979 0
2.0083978 0.59937251 -0.33196169 0
2.0133841 0.60821968 -0.33312103 0
2.016674 0.61659962 -0.33400556 0
1.9974576 0.61805493 -0.33116424 0
2.0352354 0.63722903 -0.33777985 0
2.0098212 0.63667887 -0.33391437 0
2.0363011 0.65258777 -0.33867538 0
2.0439301 0.6625976 -0.34031183 0
2.0312829 0.66603214 -0.33857599 0
2.0372031 0.67554635 -0.33993837 0
2.0699298 0.69411057 -0.34578574 0
2.0588393 0.69807935 -0.34432209 0
2.0613141 0.70663303 -0.34513026 0
2.078825 0.72043383 -0.34846461 0
2.0886436 0.73168957 -0.35051972 0
2.0912762 0.7404933 -0.35137621 0
2.069104 0.74045885 -0.34806603 0
2.093739 0.75720334 -0.35263523 0
2.0838645 0.7615425 -0.3514002 0
2.1181097 0.78211725 -0.35761511 0
2.0969372 0.78229845 -0.35448128 0
2.1037941 0.79290193 -0.3560878 0
2.1250844 0.80907357 -0.36014855 0
2.1311429 0.81957173 -0.36163896 0
2.1399236 0.831195 -0.36359984 0
2.1520483 0.84421945 -0.36613888 0
2.1505077 0.85194594 -0.36636066 0
2.154434 0.86186957 -0.36751977 0
2.1550069 0.87049174 -0.36811334 0
2.1722231 0.88592899 -0.37155947 0
2.1549196 0.88731027 -0.3691065 0
6.9933224 2.907033 -1.1995175 0
7.0071387 2.9403682 -1.2035716 0
6.9866261 2.9593492 -1.2017457 0
6.9858441 2.9866817 -1.2033269 0
6.9601583 3.0033414 -1.2006302 0
6.9420447 3.0231748 -1.1992474 0
6.9208069 3.0415714 -1.1973335 0
6.9106083 3.0647755 -1.1973401 0
6.9150391 3.0945265 -1.1998987 0
6.9187326 3.1240642 -1.2023504 0
6.8933702 3.1404788 -1.1997659 0
6.8732195 3.159169 -1.1980956 0
6.8747067 3.187815 -1.2002112 0
6.8650832 3.2113628 -1.200404 0
6.8650856 3.2394619 -1.2022969 0
6.8345437 3.2531118 -1.1988515 0
6.8415775 3.2846403 -1.2020103 0
6.8332219 3.3088658 -1.2024846 0
6.8097057 3.3257098 -1.2003019 0
6.8219805 3.3600793 -1.2044444 0
6.7838378 3.3696022 -1.1996981 0
6.7693076 3.3907282 -1.1991323 0
6.7450047 3.4068916 -1.196844 0
6.7594671 3.4426899 -1.2014515 0
6.7554364 3.4692111 -1.2027957 0
6.7290406 3.4842162 -1.2001692 0
6.7169542 3.5065663 -1.2001038 0
6.7130303 3.5332098 -1.2015125 0
6.6853781 3.5473306 -1.1986852 0
6.6569138 3.5608816 -1.1957155 0
6.6762881 3.6000865 -1.2013569 0
6.6639686 3.6223354 -1.2013187 0
6.6446581 3.6407526 -1.2000314 0
6.6536703 3.6747501 -1.2038774 0
6.6153345 3.6825769 -1.1991684 0
6.601655 3.7040095 -1.1989332 0
6.6236477 3.7456028 -1.2052013 0
6.5815678 3.7509859 -1.1998262 0
6.5610542 3.7684939 -1.1983833 0
6.5375586 3.7842054 -1.1964024 0
6.5579634 3.8254287 -1.2024771 0
6.5193367 3.8322499 -1.1977437 0
6.4994035 3.8499119 -1.1964463 0
6.493938 3.8761456 -1.1978259 0
6.4993052 3.908963 -1.2012266 0
6.4825459 3.9285402 -1.2005566 0
6.4769468 3.9548993 -1.2019688 0
6.4770603 3.984843 -1.2044625 0
6.4369879 3.9900022 -1.1994917 0
6.4018383 3.9979873 -1.1954329 0
6.4218307 4.0404644 -1.201689 0
6.3944597 4.0532331 -1.1991035 0
6.3855867 4.0776844 -1.1999966 0
6.3701596 4.0979652 -1.1996727 0
6.3781023 4.1333747 -1.2037718 0
6.3208041 4.1264009 -1.195562 0
6.3080249 4.1482878 -1.195769 0
6.3130054 4.1819506 -1.1993643 0
6.3285871 4.2228699 -1.2050076 0
6.2885308 4.2266822 -1.2000723 0
6.2799554 4.2515545 -1.2011492 0
6.2404375 4.2553835 -1.196313 0
6.244936 4.2891955 -1.1999255 0
6.2452531 4.3203015 -1.202763 0
6.2057061 4.3237791 -1.1979319 0
6.1931849 4.3459721 -1.1983207 0
6.1745977 4.3638988 -1.1975486 0
6.1518435 4.3788195 -1.1959763 0
6.1727424 4.4249516 -1.2029167 0
6.1367574 4.4303794 -1.1987922 0
6.1483932 4.4702144 -1.2039862 0
6.0892086 4.4584684 -1.195317 0
6.1134782 4.5078025 -1.2030414 0
6.0778666 4.5130792 -1.1990044 0
6.0657287 4.535696 -1.1996033 0
6.0420823 4.5496788 -1.1979369 0
6.0448885 4.5836315 -1.2015334 0
6.0163274 4.5938253 -1.1989112 0
5.9921451 4.6072459 -1.1971637 0
5.9976401 4.6435509 -1.2013654 0
5.9814916 4.6632085 -1.2012558 0
5.9590888 4.6779504 -1.1998997 0
5.9411783 4.6961703 -1.199457 0
5.9387984 4.726728 -1.2021693 0
5.89607 4.7250977 -1.1967201 0
5.8837037 4.7476716 -1.1974344 0
5.8660474 4.765986 -1.1970863 0
5.8665214 4.7991138 -1.20046 0
5.8570361 4.824224 -1.201822 0
5.8227248 4.8288212 -1.1980971 0
5.8271408 4.8655491 -1.2023556 0
5.8131833 4.8870673 -1.2028499 0
5.7892065 4.9001327 -1.2012814 0
5.7764802 4.922698 -1.2020587 0
5.7578764 4.9402652 -1.2016275 0
5.7337155 4.9530077 -1.2000442 0
5.7358885 4.988565 -1.2039928 0
5.7097797 4.9995804 -1.2020243 0
5.6934452 5.0191021 -1.2021215 0
5.6650157 5.0278945 -1.1996715 0
5.6427169 5.0420265 -1.1985226 0
5.6455922 5.0787396 -1.2027433 0
5.6158824 5.0861831 -1.2000401 0
5.5728316 5.0813074 -1.1944746 0
5.5692091 5.1123061 -1.1973653 0
5.5587292 5.1371341 -1.1988086 0
5.5520267 5.1655607 -1.2010914 0
5.5315027 5.1811738 -1.2004027 0
5.4944839 5.1811929 -1.1961323 0
5.4815149 5.203795 -1.1971005 0
5.4858699 5.24301 -1.2018838 0
5.464644 5.2578945 -1.201089 0
5.4255176 5.255393 -1.1963555 0
5.4185348 5.2839575 -1.1987156 0
5.4031816 5.3044448 -1.1992468 0
5.3985915 5.3356018 -1.2021918 0
5.3532553 5.3263931 -1.1960661 0
5.3686509 5.3776512 -1.2035277 0
5.331193 5.3760605 -1.1991645 0
5.315805 5.3966122 -1.1997664 0
5.2905998 5.407167 -1.1981626 0
5.2934747 5.446517 -1.2029426 0
5.258163 5.4466038 -1.1990612 0
5.2541857 5.4791293 -1.2023367 0
5.2209907 5.4811826 -1.1989392 0
5.1956196 5.4912963 -1.1973343 0
5.1815991 5.5133882 -1.1983564 0
5.1581678 5.5254631 -1.1972152 0
5.1494608 5.5533466 -1.1995091 0
5.1333427 5.5733275 -1.2001007 0
5.1150846 5.5910072 -1.2002079 0
5.1074123 5.6203423 -1.2028224 0
5.0730762 5.6203036 -1.1991674 0
5.0828433 5.6692247 -1.2059624 0
5.0176926 5.6344519 -1.19498 0
5.0163651 5.6711321 -1.1991855 0
5.001132 5.6922545 -1.2000996 0
4.9743609 5.7002153 -1.1982549 0
4.9689317 5.7326789 -1.2015704 0
4.9294214 5.7257719 -1.1966517 0
4.9205184 5.7543378 -1.1991673 0
4.9039416 5.774034 -1.1998386 0
4.8631315 5.7650471 -1.1945761 0
4.8680515 5.8102951 -1.2005633 0
4.8502545 5.8286405 -1.200987 0
4.8261871 5.8394279 -1.1998688 0
4.7925172 5.8384423 -1.1963578 0
4.7829394 5.8667746 -1.1988707 0
4.7789135 5.902132 -1.2028149 0
4.7535071 5.9111691 -1.2014018 0
4.7133703 5.9016671 -1.1962521 0
4.7142572 5.9435353 -1.201528 0
4.6805153 5.9418044 -1.1979989 0
4.6691942 5.9684911 -1.2002164 0
4.6421404 5.9750819 -1.1984051 0
4.6208282 5.9889889 -1.1980803 0
4.5993552 6.0026636 -1.1977243 0
4.5742993 6.0116053 -1.1964415 0
4.5478554 6.018621 -1.1947963 0
4.5553756 6.0707831 -1.2021127 0
4.5282521 6.0769725 -1.2003251 0
4.512197 6.0979929 -1.2014821 0
4.479372 6.0962739 -1.1981776 0
4.466311 6.1214051 -1.2001669 0
4.4553866 6.1496301 -1.2027652 0
4.4205074 6.1447458 -1.1989044 0
4.4010458 6.1611633 -1.199222 0
4.3831944 6.1798754 -1.1999968 0
4.3776479 6.2161174 -1.2041775 0
4.3315477 6.1946721 -1.197203 0
4.3261151 6.2312865 -1.2014693 0
4.319593 6.2666388 -1.2054863 0
4.2755909 6.2475271 -1.1990455 0
4.2640991 6.2757778 -1.2017169 0
4.2349734 6.278091 -1.1994342 0
4.2087526 6.2845678 -1.1979688 0
4.1942892 6.3086176 -1.1998658 0
4.1624541 6.3064938 -1.1968008 0
4.1558547 6.3426485 -1.2010111 0
4.1422176 6.3683109 -1.2032337 0
4.1105118 6.3661637 -1.2002174 0
4.0778551 6.3622966 -1.1969039 0
4.0702415 6.397531 -1.2009583 0
4.0507526 6.4142823 -1.2015465 0
4.0237436 6.419085 -1.1999123 0
3.9939804 6.4193306 -1.1974483 0
3.9730461 6.4336748 -1.1976324 0
3.9639063 6.4672775 -1.2014068 0
3.9397161 6.4764476 -1.2006497 0
3.9238143 6.4992847 -1.2024378 0
3.8919268 6.4955893 -1.1993332 0
3.8612669 6.4937024 -1.1965877 0
3.8496864 6.5239205 -1.1997708 0
3.8185334 6.5209808 -1.196869 0
3.7997925 6.5391579 -1.1978601 0
3.7769296 6.550271 -1.1975695 0
3.7700193 6.5892415 -1.2023766 0
3.7394738 6.5869923 -1.1996715 0
3.718637 6.6017466 -1.2000811 0
3.6975543 6.6160965 -1.2004294 0
3.688952 6.6529856 -1.2048717 0
3.6414428 6.6195393 -1.1965966 0
3.6299748 6.6514025 -1.2001497 0
3.6044641 6.6576447 -1.1990887 0
3.5803523 6.6663976 -1.1984962 0
3.557272 6.6770329 -1.1982574 0
3.5442362 6.7066555 -1.201434 0
3.5169702 6.7094197 -1.1998101 0
3.5030732 6.7377501 -1.2027693 0
3.4751334 6.7391219 -1.2009274 0
3.4405646 6.7273612 -1.1967692 0
3.4353025 6.7729926 -1.202831 0
3.3966298 6.7527728 -1.197211 0
3.3756826 6.7675567 -1.1978188 0
3.3699625 6.8131847 -1.2038881 0
3.3358619 6.8015313 -1.1998458 0
3.3020632 6.7901077 -1.1958709 0
3.2947509 6.83323 -1.2015132 0
3.2662513 6.8325849 -1.1994674 0
3.2505317 6.8587046 -1.2021328 0
3.2247703 6.8637176 -1.2011096 0
3.2030048 6.8772082 -1.2015843 0
3.1771662 6.8819246 -1.2005405 0
3.147089 6.8772731 -1.1978815 0
3.1208782 6.8808737 -1.1966795 0
3.0985267 6.8929372 -1.1969639 0
3.0852578 6.9254179 -1.2008013 0
3.0556884 6.9213796 -1.1983178 0
3.045428 6.9612164 -1.2034403 0
3.0093813 6.9421144 -1.1983869 0
3.0022523 6.9897971 -1.2048738 0
2.9676852 6.9737058 -1.2003781 0
2.9349904 6.9615655 -1.1965878 0
2.9078 6.9621892 -1.1950125 0
2.8942924 6.9957118 -1.1990941 0
2.8688424 7.0005484 -1.1982677 0
2.848805 7.0186281 -1.1997206 0
2.823281 7.0232253 -1.1988816 0
2.8016872 7.0375991 -1.199725 0
2.7795587 7.0507145 -1.2003654 0
2.7516854 7.0491891 -1.1985283 0
2.7265024 7.054409 -1.1978549 0
2.7125015 7.0887733 -1.2021389 0
2.6820402 7.0801969 -1.1991528 0
2.6553612 7.0813484 -1.1978332 0
2.6376097 7.1063924 -1.2005669 0
2.617775 7.1261024 -1.2024071 0
2.5945711 7.1367741 -1.2027332 0
2.5588129 7.1125898 -1.1972049 0
2.5406289 7.1370788 -1.1998864 0
2.5249839 7.1691184 -1.2038429 0
2.494791 7.1599174 -1.2008865 0
2.4685988 7.1619391 -1.1998307 0
2.4397397 7.1560006 -1.1974587 0
2.4082522 7.1419554 -1.1937505 0
2.3954802 7.1835365 -1.1993514 0
2.3727844 7.1957817 -1.200061 0
2.3539021 7.2198219 -1.2027472 0
2.327024 7.2194266 -1.2013749 0
2.2968206 7.208405 -1.1982524 0
2.2775426 7.2316341 -1.2008377 0
2.249088 7.2257504 -1.1986018 0
2.2275496 7.2420311 -1.2000568 0
2.2007682 7.2412739 -1.1987019 0
2.180356 7.2615304 -1.2008382 0
2.1588097 7.2782812 -1.2024046 0
2.1270661 7.2604632 -1.198276 0
2.1038976 7.2716541 -1.1989521 0
2.0758338 7.2658172 -1.1968354 0
2.0569391 7.2921557 -1.2000312 0
2.0307972 7.2929745 -1.1990386 0
2.0081301 7.3062768 -1.200112 0
1.9840695 7.3146176 -1.2003826 0
1.9591714 7.3198752 -1.2001606 0
1.9301651 7.3095384 -1.1973981 0
1.9100578 7.3329034 -1.2001697 0
1.8815877 7.3241887 -1.1977041 0
1.8597673 7.3412986 -1.1994756 0
1.8379641 7.3587885 -1.2013197 0
1.8087246 7.3464026 -1.198301 0
1.7875223 7.3665981 -1.2006108 0
1.7592225 7.3575315 -1.1981651 0
1.7341882 7.361877 -1.1979191 0
1.7183096 7.4056373 -1.2040956 0
1.6896545 7.3946576 -1.2013825 0
1.6622244 7.3886013 -1.1994863 0
1.6413479 7.4117684 -1.2023472 0
1.6103511 7.3890686 -1.1977822 0
1.5843127 7.3885722 -1.196834 0
1.5618368 7.4047737 -1.1986034 0
1.5298495 7.3754897 -1.1930262 0
1.5124372 7.4164968 -1.1988324 0
1.4817306 7.3924298 -1.1941322 0
1.465732 7.4420118 -1.2013409 0
1.437326 7.4290724 -1.1984675 0
1.411396 7.428515 -1.1976074 0
1.3918588 7.4620337 -1.202252 0
1.3673873 7.4696903 -1.2027403 0
1.3419712 7.4722061 -1.2024142 0
1.3094649 7.434391 -1.1956158 0
1.2931131 7.4884357 -1.2036033 0
1.2605752 7.448864 -1.196557 0
1.2359422 7.455152 -1.1968948 0
1.2079854 7.4410572 -1.1939749 0
1.1853534 7.4596863 -1.1963196 0
1.1687748 7.5179005 -1.2050203 0
1.1437 7.5226836 -1.2051655 0
1.1156013 7.5071616 -1.2020729 0
1.088688 7.4988966 -1.2001582 0
1.0695393 7.5448289 -1.2069287 0
1.0361803 7.4901342 -1.1976169 0
1.0147632 7.5210023 -1.2020017 0
0.98598135 7.4972949 -1.1976777 0
0.96455109 7.5295377 -1.2023051 0
0.93654495 7.5106306 -1.1987779 0
0.91102415 7.5109763 -1.1983387 0
0.88566488 7.512536 -1.1981071 0
0.86049259 7.5156446 -1.1981361 0
0.83582449 7.5233059 -1.1989039 0
0.81076396 7.5276294 -1.1991529 0
0.78618962 7.5367179 -1.2001741 0
0.76305431 7.5604982 -1.2035468 0
0.7362594 7.5482335 -1.2011946 0
0.70934361 7.5336261 -1.1984849 0
0.68693566 7.5674119 -1.2034866 0
0.6590097 7.5404944 -1.1988477 0
0.63421392 7.548492 -1.1997743 0
0.60892254 7.5508342 -1.1998154 0
0.58442205 7.5634384 -1.2014999 0
0.55723774 7.5406961 -1.1975837 0
0.53432512 7.5761695 -1.2029262 0
0.50935388 7.5843692 -1.2039502 0
0.48200727 7.5560179 -1.1991863 0
0.45740297 7.5697107 -1.2011094 0
0.43111259 7.5552888 -1.1985849 0
0.40461528 7.5350261 -1.1951485 0
0.38055748 7.5603385 -1.1989542 0
0.35621393 7.5830078 -1.2023531 0
0.3299661 7.5653262 -1.1993674 0
0.30481052 7.5716414 -1.2001997 0
0.27909932 7.5638618 -1.1988114 0
0.25372958 7.564517 -1.1987737 0
0.22836484 7.5652952 -1.198769 0
0.20298071 7.5653529 -1.1986636 0
0.17787424 7.5770612 -1.2004174 0
0.15248682 7.5785108 -1.2005594 0
0.12750322 7.6044211 -1.2045894 0
0.1015974 7.5743203 -1.1997607 0
0.076001734 7.5547552 -1.1966144 0
0.050906617 7.5900021 -1.2021635 0
0.025336966 7.5538998 -1.1964251 0
1.0076263e-05 7.594439 -1.2028391 0
-0.025522308 7.6151824 -1.2061313 0
-0.050795157 7.5763817 -1.2000061 0
-0.076191694 7.5756364 -1.1999218 0
-0.10143017 7.5633497 -1.1980228 0
-0.12681855 7.5647845 -1.1983107 0
-0.15293442 7.6017594 -1.2042422 0
-0.17791659 7.5797224 -1.2008389 0
-0.20287707 7.5622392 -1.1981702 0
-0.22790071 7.5505838 -1.1964378 0
-0.25369516 7.5640898 -1.1987059 0
-0.27884397 7.5574856 -1.1978008 0
-0.30584049 7.5977278 -1.2043346 0
-0.3284944 7.532043 -1.1940906 0
-0.3558735 7.57619 -1.2012719 0
-0.38089654 7.5674744 -1.2000856 0
-0.40621844 7.5652561 -1.1999431 0
-0.43288192 7.5866508 -1.20356 0
-0.45802978 7.5804176 -1.2028081 0
-0.48290089 7.5703425 -1.2014596 0
-0.50851566 7.5721884 -1.2020164 0
-0.53387791 7.5701146 -1.2019645 0
-0.55911803 7.5664139 -1.2016679 0
-0.58350658 7.5518517 -1.1996591 0
-0.60978013 7.5617189 -1.2015446 0
-0.6324656 7.5279222 -1.1965046 0
-0.66101044 7.5636191 -1.2025238 0
-0.68147671 7.5074959 -1.1939576 0
-0.71116799 7.5532169 -1.2016011 0
-0.73228139 7.5076571 -1.1947372 0
-0.76062894 7.5366673 -1.1997528 0
-0.78641522 7.5390744 -1.200549 0
-0.81279159 7.5466433 -1.2021816 0
-0.83931726 7.5549269 -1.2039427 0
-0.86511755 7.5562172 -1.2046037 0
-0.88720858 7.5258021 -1.2002224 0
-0.91380978 7.5341101 -1.2020292 0
-0.93815815 7.5237308 -1.2008684 0
-0.96022367 7.4959145 -1.1969358 0
-0.98823714 7.5146017 -1.2004421 0
-1.0137891 7.5139327 -1.2008715 0
-1.0393465 7.5131683 -1.2012994 0
-1.0609422 7.4843254 -1.1972497 0
-1.0908999 7.5142727 -1.2026186 0
-1.1127818 7.4883251 -1.1990563 0
-1.1400564 7.4988513 -1.201347 0
-1.1633649 7.4832335 -1.1994631 0
-1.1945907 7.5179472 -1.2056625 0
-1.2139475 7.4779091 -1.1998875 0
-1.2337703 7.4421735 -1.1948105 0
-1.2680405 7.4930983 -1.203662 0
-1.2862604 7.4488697 -1.1972435 0
-1.3184487 7.4855118 -1.2038366 0
-1.3368199 7.4436374 -1.1978163 0
-1.3605552 7.4324799 -1.1967483 0
-1.3903744 7.454185 -1.200987 0
-1.4122512 7.4331241 -1.1983498 0
-1.4394284 7.4400458 -1.200237 0
-1.4709064 7.4683886 -1.2055981 0
-1.4889789 7.4286942 -1.1999896 0
-1.517503 7.4414382 -1.2028633 0
-1.5413337 7.4309549 -1.2019973 0
-1.560065 7.3964705 -1.1972586 0
-1.5885273 7.4083238 -1.2000327 0
-1.6149195 7.4101257 -1.2011949 0
-1.6413556 7.4118962 -1.2023672 0
-1.6570945 7.36589 -1.1957986 0
-1.6868761 7.3825884 -1.1994209 0
-1.7154664 7.3934727 -1.202117 0
-1.7386974 7.3811069 -1.2010474 0
-1.7592888 7.3578949 -1.1982235 0
-1.7864729 7.3623581 -1.199919 0
-1.8018425 7.3185329 -1.1937542 0
-1.8445722 7.3853288 -1.2056516 0
-1.858303 7.3355999 -1.1985438 0
-1.8850857 7.3378854 -1.1999431 0
-1.9076084 7.3235798 -1.1986428 0
-1.9362377 7.3326144 -1.2011774 0
-1.9585071 7.3174706 -1.1997656 0
-1.9841174 7.3148713 -1.2004234 0
-2.0083704 7.3072271 -1.2002672 0
-2.032764 7.3001118 -1.2002112 0
-2.0543764 7.2831445 -1.1985472 0
-2.0759718 7.2663727 -1.196926 0
-2.1097231 7.2918615 -1.2022829 0
-2.1330166 7.2808456 -1.2016391 0
-2.1588819 7.2785959 -1.2024556 0
-2.1743028 7.2414398 -1.1975149 0
-2.1978111 7.2316132 -1.1971017 0
-2.2302213 7.2507854 -1.2015065 0
-2.2428794 7.2058711 -1.1953033 0
-2.2795608 7.2381091 -1.2019119 0
-2.299948 7.2182865 -1.1998941 0
-2.3320923 7.2352166 -1.2040014 0
-2.3505571 7.2096267 -1.2010478 0
-2.3699546 7.1872649 -1.1986395 0
-2.3935375 7.1777744 -1.1983883 0
-2.4265683 7.1963367 -1.202839 0
-2.4362466 7.1458178 -1.1957537 0
-2.4702656 7.1668367 -1.20065 0
-2.4899623 7.1461201 -1.1985713 0
-2.5181277 7.1497126 -1.2005831 0
-2.5372252 7.1275773 -1.198288 0
-2.5681436 7.138586 -1.2015796 0
-2.5872998 7.1168318 -1.1993712 0
-2.6130512 7.1133018 -1.2002461 0
-2.633976 7.0966601 -1.1989214 0
-2.6597281 7.093051 -1.1998116 0
-2.6865249 7.092093 -1.2011664 0
-2.7088547 7.079299 -1.200531 0
-2.7309101 7.0658689 -1.1997995 0
-2.756922 7.0626593 -1.2008173 0
-2.7787275 7.0486612 -1.2000146 0
-2.8060043 7.0484977 -1.2015817 0
-2.8223209 7.0208907 -1.1984819 0
-2.8504391 7.0227079 -1.2004167 0
-2.8804371 7.0288954 -1.2031184 0
-2.8985622 7.0060844 -1.2008706 0
-2.9129133 6.974484 -1.1971215 0
-2.947263 6.9907269 -1.2015989 0
-2.9683673 6.9753594 -1.2006614 0
-2.990495 6.9624748 -1.2001626 0
-3.0171075 6.9599881 -1.201471 0
-3.031311 6.928998 -1.1978691 0
-3.0718548 6.9580483 -1.2046649 0
-3.0908413 6.9380002 -1.2029815 0
-3.10958 6.9175749 -1.2012409 0
-3.1216264 6.8825722 -1.1969733 0
-3.1471019 6.8773494 -1.1978934 0
-3.1820357 6.89252 -1.2023873 0
-3.1879358 6.8449011 -1.1959381 0
-3.2190521 6.8515944 -1.1989866 0
-3.2488825 6.8552723 -1.2015296 0
-3.2699478 6.8403645 -1.2008317 0
-3.2866008 6.8163729 -1.1985476 0
-3.3131788 6.8130112 -1.199903 0
-3.3378279 6.8055854 -1.2005594 0
-3.3456876 6.7641521 -1.1952225 0
-3.373347 6.7629189 -1.1969963 0
-3.3952661 6.7501063 -1.1967367 0
-3.4214756 6.7457762 -1.1979961 0
-3.4577627 6.7610331 -1.2027577 0
-3.4689238 6.7271237 -1.1987877 0
-3.5033984 6.7384191 -1.2028871 0
-3.5290878 6.7325807 -1.2039502 0
-3.5254881 6.6712217 -1.1950848 0
-3.5694306 6.6998982 -1.2023591 0
-3.5867913 6.6784286 -1.2006576 0
-3.6024802 6.6540227 -1.1984346 0
-3.6298633 6.6512403 -1.2001187 0
-3.6600895 6.6534777 -1.2027298 0
-3.6810851 6.6388392 -1.2023079 0
-3.6927733 6.6075826 -1.1988828 0
-3.7133896 6.5924711 -1.1983933 0
-3.7327108 6.57512 -1.1975075 0
-3.7685006 6.5866275 -1.2018977 0
-3.7928457 6.5779147 -1.2026216 0
-3.7892318 6.5210238 -1.1945363 0
-3.8241596 6.5306287 -1.1986378 0
-3.8581874 6.5383663 -1.2024256 0
-3.8656578 6.5011263 -1.1979538 0
-3.8992949 6.507926 -1.201609 0
-3.9082813 6.4735951 -1.1976831 0
-3.9290411 6.4589381 -1.1974018 0
-3.9618096 6.4638953 -1.2007766 0
-3.9870756 6.4564314 -1.2018666 0
-4.0035582 6.4347625 -1.200325 0
-4.0419698 6.4481993 -1.2053527 0
-4.0423236 6.4009733 -1.1990515 0
-4.068706 6.3951545 -1.2005101 0
-4.1025767 6.4009047 -1.204165 0
-4.1013632 6.3520322 -1.197551 0
-4.1282601 6.3468895 -1.1991843 0
-4.1564145 6.3435402 -1.2011777 0
-4.1689348 6.3163495 -1.1986691 0
-4.181808 6.2898812 -1.1963001 0
-4.194006 6.2625837 -1.1937761 0
-4.2285852 6.2686567 -1.1976296 0
-4.2568927 6.2652078 -1.1996907 0
-4.2819309 6.2568264 -1.2008282 0
-4.2945738 6.2303777 -1.1985087 0
-4.3194599 6.221736 -1.1996255 0
-4.3468509 6.2165928 -1.2014372 0
-4.357573 6.1876473 -1.19866 0
-4.3906069 6.190361 -1.2020307 0
-4.4068475 6.1693201 -1.2008073 0
-4.4419093 6.1745296 -1.2047133 0
-4.4427404 6.1322093 -1.1993557 0
-4.4765763 6.1355085 -1.2029299 0
-4.4933038 6.1152682 -1.2019085 0
-4.4982591 6.0791903 -1.197775 0
-4.51722 6.0622005 -1.197405 0
-4.5493855 6.0628343 -1.2005363 0
-4.5870371 6.0705075 -1.2050943 0
-4.5935707 6.0369654 -1.2014863 0
-4.6053638 6.0105386 -1.1992933 0
-4.6378336 6.0110621 -1.2024935 0
-4.6478772 5.9824991 -1.1998903 0
-4.6864686 5.9906058 -1.2046609 0
-4.6880341 5.9513822 -1.1999274 0
-4.7065854 5.9338951 -1.1995766 0
-4.730619 5.9232965 -1.2006336 0
-4.7498841 5.9066958 -1.2004901 0
-4.7736912 5.8957138 -1.2015043 0
-4.7885695 5.8737121 -1.2002857 0
-4.7963696 5.8431678 -1.1973234 0
-4.8378053 5.8535171 -1.2027612 0
-4.8486166 5.826704 -1.2005854 0
-4.8692627 5.8117728 -1.2008659 0
-4.8852348 5.7912812 -1.2000095 0
-4.9345031 5.8100495 -1.2073199 0
-4.9110823 5.7433338 -1.1968713 0
-4.9432011 5.7418079 -1.2000004 0
-4.9684801 5.7321887 -1.2014649 0
-4.9792147 5.7058072 -1.1994277 0
-5.0070958 5.6990728 -1.2015343 0
-5.0096879 5.6636128 -1.1975929 0
-5.0414133 5.6611185 -1.2006328 0
-5.0472074 5.6295071 -1.1975108 0
-5.0885868 5.637517 -1.2028372 0
-5.0922589 5.6036973 -1.1992574 0
-5.1056838 5.580761 -1.1980056 0
-5.1257148 5.5650754 -1.1983209 0
-5.1445775 5.54811 -1.1983751 0
-5.1825867 5.55165 -1.2028862 0
-5.1777182 5.5092878 -1.1974623 0
-5.2050204 5.5012612 -1.199504 0
-5.2297087 5.4903641 -1.2009445 0
-5.2404866 5.4648728 -1.1992052 0
-5.2624545 5.4510779 -1.2000432 0
-5.2841105 5.4369116 -1.2008179 0
-5.3060231 5.4229589 -1.2016588 0
-5.3053422 5.3860188 -1.1974082 0
-5.3159847 5.3607526 -1.1957468 0
-5.3205419 5.3294897 -1.1927458 0
-5.3585205 5.3316603 -1.1972457 0
-5.4072118 5.3441496 -1.2041144 0
-5.4005537 5.3018932 -1.1986666 0
-5.4348636 5.2999091 -1.2023309 0
-5.4308653 5.260601 -1.1975378 0
-5.4521303 5.2458825 -1.1983417 0
-5.4716654 5.2294626 -1.1987749 0
-5.5146942 5.2353206 -1.2043495 0
-5.502408 5.188693 -1.1978604 0
-5.5237389 5.1739287 -1.1987207 0
-5.555697 5.1690025 -1.2018883 0
-5.5755134 5.1526723 -1.2024311 0
-5.5769391 5.1194291 -1.1990302 0
-5.6116366 5.1167169 -1.2027949 0
-5.6142368 5.0847197 -1.1996913 0
-5.6162763 5.0523944 -1.1965007 0
-5.6408844 5.0404158 -1.1981361 0
-5.6686158 5.0311165 -1.2004367 0
-5.673264 5.0013375 -1.1978632 0
-5.6928129 4.9847503 -1.1984552 0
-5.7030096 4.9599962 -1.1970942 0
-5.7302828 4.950069 -1.1993285 0
-5.7718778 4.9523048 -1.2045522 0
-5.7706165 4.9177279 -1.2008412 0
-5.7937155 4.9039755 -1.2022197 0
-5.8070068 4.8819013 -1.2015744 0
-5.8194137 4.8591237 -1.2007639 0
-5.8313246 4.835979 -1.1998692 0
-5.8426919 4.8124352 -1.1988814 0
-5.8531747 4.7882218 -1.1977315 0
-5.8912687 4.7865038 -1.2022358 0
-5.8959265 4.7575603 -1.1999245 0
-5.9020863 4.7299452 -1.1979438 0
-5.8995972 4.6955533 -1.1942365 0
-5.9297767 4.6871839 -1.1971577 0
-5.9564281 4.6758871 -1.1993665 0
-5.9735994 4.6570811 -1.1996732 0
-5.9938216 4.6406202 -1.200603 0
-6.0155344 4.6252551 -1.2018391 0
-6.0230179 4.598959 -1.2002468 0
-6.0304275 4.5726914 -1.1986614 0
-6.0494733 4.5552692 -1.1994047 0
-6.0559821 4.5284328 -1.1976781 0
-6.0891275 4.5214663 -1.2012284 0
-6.1067195 4.5028439 -1.2017137 0
-6.1127157 4.4757051 -1.199934 0
-6.1157818 4.4465289 -1.1976025 0
-6.1320338 4.4269938 -1.1978718 0
-6.1479998 4.407239 -1.1980972 0
-6.1709981 4.392478 -1.1997024 0
-6.1963215 4.3792768 -1.2017642 0
-6.1885762 4.3427629 -1.1974313 0
-6.21452 4.3299446 -1.1996355 0
-6.2304988 4.3101192 -1.1999235 0
-6.2341952 4.2818427 -1.1978639 0
-6.2430758 4.2572069 -1.196821 0
-6.2722735 4.2463784 -1.1996821 0
-6.2884474 4.2266502 -1.2000585 0
-6.287478 4.1954632 -1.1971823 0
-6.3125148 4.1816492 -1.1992731 0
-6.3228521 4.1580625 -1.1985817 0
-6.3447971 4.1420879 -1.2001023 0
-6.3479195 4.1138382 -1.1980772 0
-6.3549237 4.0881877 -1.1968055 0
-6.4073191 4.0915866 -1.2040827 0
-6.3866835 4.0483274 -1.1976472 0
-6.4160337 4.0368409 -1.2006062 0
-6.4145503 4.00595 -1.1978086 0
-6.4430323 3.993772 -1.2006199 0
-6.4435701 3.9642625 -1.1982366 0
