# .PCD v0.7 - Point Cloud Data file format
VERSION 0.7
FIELDS x y z intensity
SIZE 4 4 4 4
TYPE F F F F
COUNT 1 1 1 1
WIDTH 1407
HEIGHT 1
VIEWPOINT 0 0 0 1 0 0 0
POINTS 1407
DATA ascii
2.0529237 0.73466849 -0.42383015 0
2.0393915 0.73754853 -0.42154461 0
2.0889041 0.76338416 -0.43230551 0
2.0724072 0.7652415 -0.42941999 0
2.0945959 0.781425 -0.43455812 0
2.0993834 0.79123962 -0.43609932 0
2.0994291 0.79930598 -0.43666306 0
2.1219728 0.81604517 -0.44191849 0
2.1325531 0.82833219 -0.44469786 0
2.1485424 0.84284413 -0.44861883 0
4.4474092 1.7618871 -0.9298538 0
4.4546838 1.7820719 -0.93261874 0
4.4542751 1.7992562 -0.93379092 0
4.4312787 1.8072721 -0.93023503 0
4.4249268 1.8220091 -0.93017882 0
5.71381 2.3751564 -1.2027866 0
5.6685619 2.3786683 -1.1949338 0
5.6705241 2.4018831 -1.1970382 0
5.6945167 2.4345961 -1.2038194 0
5.6720667 2.4475238 -1.2008016 0
5.6705718 2.4694641 -1.2022312 0
5.6620708 2.4883792 -1.2021909 0
5.6552415 2.5080345 -1.2025195 0
5.6515603 2.5291114 -1.2035332 0
5.6292558 2.5418177 -1.2005914 0
5.6255603 2.5628905 -1.2016292 0
5.6036291 2.5756214 -1.1987824 0
5.6007819 2.5970933 -1.2000294 0
5.6062765 2.6225154 -1.2030839 0
5.5691013 2.6279194 -1.1969904 0
5.5793958 2.6556857 -1.20111 0
5.5761862 2.6771262 -1.2023445 0
5.5679979 2.6962037 -1.2025214 0
5.5343323 2.7028456 -1.1972011 0
5.5445113 2.7308784 -1.201377 0
5.5216107 2.742641 -1.1984007 0
5.5192385 2.7645719 -1.1998909 0
5.5159822 2.786114 -1.2012069 0
5.5202684 2.8115489 -1.2041866 0
5.4965992 2.8227432 -1.201081 0
5.5015182 2.8486199 -1.2042361 0
5.4756646 2.8585548 -1.2006682 0
5.4791641 2.8838 -1.2035489 0
5.4573741 2.8957391 -1.2008884 0
5.4391637 2.9094892 -1.1990211 0
5.4293447 2.9276912 -1.1990136 0
5.4499435 2.9624276 -1.2057495 0
5.4022141 2.9599905 -1.1973786 0
5.4080963 2.9868329 -1.2008953 0
5.3663435 2.9872975 -1.1938413 0
5.3866 3.0222752 -1.2005954 0
5.3749695 3.0394886 -1.2002677 0
5.3380241 3.0422618 -1.1942885 0
5.2990351 3.0436239 -1.187842 0
5.3443661 3.0935371 -1.2003217 0
5.3294311 3.108794 -1.1993016 0
5.3124924 3.1228328 -1.1978393 0
5.3185291 3.1504228 -1.2015754 0
5.294107 3.1599824 -1.1984447 0
5.2863851 3.1794605 -1.1991031 0
5.2763023 3.1975348 -1.199241 0
5.2882152 3.2290459 -1.2044028 0
5.2706628 3.2426383 -1.2028745 0
5.2594724 3.2601125 -1.2028085 0
5.2255912 3.2634139 -1.1975557 0
5.2185583 3.2833939 -1.19846 0
5.2033963 3.2982581 -1.1975108 0
5.1956801 3.3178384 -1.1982884 0
5.2036705 3.3475552 -1.2027131 0
5.1800427 3.3569636 -1.1998467 0
5.1604285 3.3688745 -1.1979131 0
5.1564579 3.3909936 -1.1996238 0
5.1522408 3.4130199 -1.2012982 0
5.1356664 3.4268708 -1.200106 0
5.1220851 3.4426839 -1.1996229 0
5.1194987 3.4659209 -1.2017319 0
5.0931678 3.4730546 -1.1982777 0
5.0957174 3.4998803 -1.2016317 0
5.0725627 3.5090652 -1.1989392 0
5.0749917 3.5359623 -1.2023087 0
5.054688 3.5470498 -1.2003093 0
5.0431476 3.5642459 -1.2003999 0
5.02177 3.5744448 -1.1981574 0
5.009418 3.5910184 -1.1980762 0
5.0028963 3.6117978 -1.1994059 0
5.0084405 3.6414073 -1.2036554 0
4.9735184 3.6415694 -1.1981902 0
4.9531026 3.6521938 -1.196215 0
4.9555135 3.6796834 -1.1997701 0
4.9457026 3.6981876 -1.2003901 0
4.911809 3.6985848 -1.1951668 0
4.9149299 3.7268226 -1.1989598 0
4.8897085 3.7335844 -1.1958543 0
4.8958187 3.7643018 -1.2004286 0
4.8844061 3.7816522 -1.2007324 0
4.8658142 3.7934191 -1.1992818 0
4.8597512 3.8149583 -1.2009333 0
4.8516221 3.8349371 -1.202095 0
4.8161397 3.8331969 -1.1964812 0
4.8291016 3.8700316 -1.2029181 0
4.8175392 3.8873634 -1.2032779 0
4.767385 3.8733563 -1.1939878 0
4.7665048 3.8992443 -1.1970348 0
4.7439981 3.9074557 -1.194666 0
4.7324924 3.9246848 -1.1950758 0
4.7471967 3.9638171 -1.2021382 0
4.7295752 3.9760921 -1.2010449 0
4.7083106 3.9852345 -1.1990314 0
4.6807027 3.9888802 -1.1953998 0
4.7058115 4.0375919 -1.2052629 0
4.6839967 4.0462193 -1.2031435 0
4.6708202 4.0622635 -1.2032506 0
4.6443601 4.0666809 -1.1999401 0
4.628376 4.0801811 -1.199338 0
4.6091595 4.090786 -1.1979059 0
4.6191511 4.1274233 -1.2040925 0
4.5763979 4.116899 -1.1965392 0
4.5871367 4.15447 -1.2029822 0
4.5586643 4.1565895 -1.1991633 0
4.5627394 4.1884074 -1.2039225 0
4.5121102 4.1698947 -1.1942458 0
4.5286775 4.2134447 -1.202363 0
4.5187345 4.2325478 -1.2034842 0
4.480104 4.2246523 -1.1969614 0
4.4729891 4.2463655 -1.1988575 0
4.4753723 4.2772474 -1.2033331 0
4.4559956 4.2874074 -1.2019815 0
4.4336605 4.2946372 -1.1998342 0
4.4362082 4.3260283 -1.204442 0
4.4295707 4.3486257 -1.2065918 0
4.3795624 4.3284626 -1.1969162 0
4.3780184 4.3560495 -1.2004789 0
4.3556352 4.362937 -1.1983458 0
4.3454976 4.3820696 -1.1995922 0
4.3401647 4.4061408 -1.2021914 0
4.3173132 4.4124365 -1.1999528 0
4.3102875 4.4349046 -1.2021261 0
4.2989435 4.4530077 -1.2031195 0
4.2961636 4.480092 -1.2065387 0
4.2564349 4.4685574 -1.1995821 0
4.2492619 4.4910817 -1.2017975 0
4.2212353 4.4915299 -1.1981232 0
4.2122679 4.5122089 -1.1998653 0
4.1843796 4.5125713 -1.1962243 0
4.1857944 4.5445638 -1.200978 0
4.1753006 4.5637827 -1.2023507 0
4.147275 4.5637798 -1.1986799 0
4.1106133 4.5540209 -1.19249 0
4.1241269 4.599906 -1.2008777 0
4.1242023 4.6311364 -1.2054143 0
4.1140738 4.6510677 -1.2070049 0
4.0766363 4.6399999 -1.2005789 0
4.0569839 4.6489754 -1.199375 0
4.0484481 4.6707125 -1.2014743 0
4.0187054 4.6679292 -1.1972855 0
4.0107617 4.6904163 -1.1995974 0
3.9881468 4.6957526 -1.1975356 0
3.9810433 4.719367 -1.2001472 0
3.9715507 4.7402711 -1.20207 0
3.9613972 4.7604847 -1.2038211 0
3.9327638 4.7584333 -1.1999612 0
3.8957229 4.7459307 -1.1935078 0
3.9069076 4.7922297 -1.2018501 0
3.8702519 4.779902 -1.1954974 0
3.8694415 4.8117995 -1.2002237 0
3.85941 4.8324132 -1.202131 0
3.8499043 4.853796 -1.2042325 0
3.828275 4.8599052 -1.2025568 0
3.794225 4.8500447 -1.1969624 0
3.7881298 4.8758512 -1.2001899 0
3.7573767 4.8698816 -1.1956129 0
3.7496121 4.8936558 -1.1983565 0
3.7475662 4.9251018 -1.2029732 0
3.7207768 4.924067 -1.1996667 0
3.7038875 4.9360361 -1.1995505 0
3.7065277 4.9742079 -1.2058001 0
3.6869822 4.9827595 -1.2048696 0
3.659579 4.9805632 -1.2013648 0
3.6294196 4.9743843 -1.1969326 0
3.632117 5.0132971 -1.2033587 0
3.6088197 5.0164557 -1.2012057 0
3.5912182 5.0274601 -1.2009509 0
3.5701942 5.0336246 -1.1995572 0
3.5346525 5.0190916 -1.1932629 0
3.5543945 5.0832429 -1.2056745 0
3.5240936 5.0760636 -1.2011625 0
3.5052094 5.0851741 -1.2005305 0
3.4870636 5.0953245 -1.20016 0
3.4683712 5.1046486 -1.1996104 0
3.4368589 5.0949345 -1.1946127 0
3.4380968 5.1338139 -1.2010192 0
3.4243557 5.1505628 -1.2022449 0
3.4128246 5.1707373 -1.2042763 0
3.3762624 5.1528382 -1.1974643 0
3.3715026 5.1834016 -1.2019333 0
3.3397603 5.1724606 -1.196793 0
3.3177919 5.1764407 -1.1951333 0
3.3162489 5.212419 -1.2008661 0
3.2798944 5.1936445 -1.1940005 0
3.2801907 5.2328939 -1.2004887 0
3.2532513 5.2287927 -1.1970388 0
3.2426887 5.2509847 -1.1996235 0
3.2276728 5.2660823 -1.2005935 0
3.2250164 5.3015618 -1.2062104 0
3.1993604 5.2993217 -1.2032534 0
3.1705375 5.2915974 -1.1990792 0
3.16185 5.3174553 -1.2025295 0
3.122453 5.2915049 -1.1942866 0
3.1212797 5.3302674 -1.2006667 0
3.1007833 5.3362155 -1.1996579 0
3.0811169 5.343534 -1.1989739 0
3.0677118 5.3617482 -1.2007462 0
3.0472574 5.3676701 -1.1997776 0
3.0387857 5.3947973 -1.203557 0
3.0135655 5.3922234 -1.2007219 0
2.9825778 5.3790469 -1.1955543 0
2.97206 5.4027123 -1.1985927 0
2.9551959 5.414968 -1.1991067 0
2.9407222 5.4316769 -1.2006166 0
2.9155185 5.4285178 -1.1977509 0
2.9055331 5.4537134 -1.2011539 0
2.8898559 5.4683905 -1.2022457 0
2.8671401 5.4697213 -1.2004181 0
2.8410072 5.464344 -1.1971407 0
2.8235559 5.4755559 -1.1975162 0
2.8081369 5.4907708 -1.1987779 0
2.7959876 5.5125284 -1.2014748 0
2.7786093 5.5240984 -1.2019593 0
2.767065 5.5474024 -1.2050043 0
2.7462082 5.5521159 -1.2040215 0
2.7066672 5.5186577 -1.1947911 0
2.7017064 5.5555806 -1.200817 0
2.6699338 5.537375 -1.1949402 0
2.6754963 5.5968003 -1.2058214 0
2.633738 5.5572548 -1.1953921 0
2.6315346 5.6010532 -1.2029088 0
2.6143532 5.613307 -1.2036512 0
2.5928946 5.6163588 -1.2024347 0
2.570565 5.6174059 -1.2008069 0
2.5462236 5.613883 -1.1982222 0
2.5245559 5.6160898 -1.1968799 0
2.5094919 5.6330075 -1.1986853 0
2.4862452 5.6315451 -1.1965935 0
2.4690721 5.6437864 -1.1974289 0
2.4574044 5.6688004 -1.2009811 0
2.4387341 5.6778226 -1.2011535 0
2.4140611 5.6727552 -1.1983625 0
2.393369 5.6768823 -1.1975325 0
2.3791208 5.6963649 -1.1999528 0
2.3672442 5.7217984 -1.2036318 0
2.3441548 5.7202063 -1.2016367 0
2.320534 5.7171216 -1.1993476 0
2.3012471 5.7246075 -1.1992928 0
2.281544 5.7310438 -1.1990317 0
2.2549458 5.7199655 -1.1951256 0
2.2442548 5.7492681 -1.199669 0
2.2331085 5.7778277 -1.2040594 0
2.1952455 5.7369914 -1.1940087 0
2.1845896 5.7669997 -1.1987231 0
2.17521 5.8008752 -1.2042418 0
2.1502781 5.7933974 -1.2011859 0
2.1290977 5.7958264 -1.2002027 0
2.0997176 5.7756023 -1.1945502 0
2.0950325 5.8234453 -1.2029858 0
2.0657871 5.8031635 -1.1973585 0
2.0484524 5.8161159 -1.1986072 0
2.0367703 5.8454218 -1.2032325 0
2.0104613 5.8327832 -1.1992366 0
1.9926662 5.8446898 -1.2003044 0
1.9709784 5.8451681 -1.1990386 0
1.9551035 5.8629408 -1.201333 0
1.9351752 5.8686743 -1.2011716 0
1.9168293 5.8792448 -1.202013 0
1.8938284 5.8754683 -1.1999359 0
1.8736091 5.8801861 -1.1996098 0
1.8573893 5.8975668 -1.2018783 0
1.8328441 5.8884645 -1.1987642 0
1.8141847 5.8981323 -1.1994874 0
1.7963123 5.9104772 -1.2007663 0
1.7771897 5.9188118 -1.2012423 0
1.7542534 5.9143472 -1.1991358 0
1.7354041 5.9235759 -1.1998204 0
1.720363 5.9460526 -1.203198 0
1.6914325 5.9203382 -1.1968404 0
1.6707784 5.9231582 -1.1962713 0
1.6566772 5.9494386 -1.2004504 0
1.6376936 5.9584999 -1.2011641 0
1.6214767 5.9778562 -1.2039634 0
1.5971112 5.9671421 -1.2007203 0
1.5710304 5.9494948 -1.1961026 0
1.5555751 5.9720092 -1.1995736 0
1.5393568 5.9920349 -1.2025527 0
1.5079907 5.9526854 -1.1936342 0
1.4985223 5.9997406 -1.2020555 0
1.4765019 5.9970307 -1.200514 0
1.4488045 5.9707003 -1.1942638 0
1.4387761 6.0173402 -1.2026211 0
1.4161048 6.0115676 -1.2005118 0
1.3899963 5.9906602 -1.1953992 0
1.3708795 5.9995608 -1.1962514 0
1.3560584 6.0276909 -1.2009468 0
1.3370805 6.0378003 -1.2020611 0
1.3149673 6.0337052 -1.2003613 0
1.2939676 6.0345244 -1.1996545 0
1.2715837 6.0286641 -1.1976351 0
1.2565866 6.058074 -1.2026339 0
1.2352289 6.0571575 -1.2016231 0
1.2102531 6.0380144 -1.1970137 0
1.1966609 6.0758476 -1.2037119 0
1.1757612 6.0771289 -1.2031779 0
1.1483947 6.0442762 -1.1959046 0
1.1312289 6.0647445 -1.1991972 0
1.1074574 6.0497589 -1.1954931 0
1.0898733 6.0685048 -1.1984686 0
1.071226 6.0818071 -1.2003796 0
1.0492702 6.0763383 -1.1985991 0
1.0296956 6.0845737 -1.199536 0
1.0112145 6.0996037 -1.2018238 0
0.9937191 6.1212001 -1.2054157 0
0.9694587 6.1010141 -1.2007939 0
0.94971234 6.1088266 -1.2016981 0
0.92836297 6.1063046 -1.2005829 0
0.90809637 6.1108093 -1.2008631 0
0.89038676 6.1329947 -1.2046295 0
0.86242187 6.0837646 -1.1943851 0
0.84476703 6.1064839 -1.1982827 0
0.82600343 6.1219931 -1.2007759 0
0.80777127 6.1422048 -1.2042022 0
0.78168702 6.1020527 -1.1958097 0
0.76466632 6.1322484 -1.201218 0
0.74342996 6.1292391 -1.2001334 0
0.72288191 6.1317506 -1.2001439 0
0.70082557 6.1210942 -1.1975915 0
0.681705 6.1360674 -1.200067 0
0.66170633 6.1436868 -1.2011167 0
0.64135778 6.148304 -1.2015921 0
0.61856991 6.1289172 -1.1973912 0
0.59797585 6.1305318 -1.1973082 0
0.57839727 6.1429029 -1.1993388 0
0.55927902 6.1611228 -1.2025232 0
0.5366773 6.140748 -1.1981885 0
0.5163132 6.1452227 -1.1987171 0
0.49713483 6.1646309 -1.2021711 0
0.4755201 6.154058 -1.1997916 0
0.45409942 6.145 -1.1977221 0
0.43471792 6.1638436 -1.2011042 0
0.41365707 6.1594267 -1.1999664 0
0.39305803 6.1616364 -1.2001333 0
0.37177378 6.1526055 -1.1981249 0
0.3517417 6.1643066 -1.2001671 0
0.32952324 6.13661 -1.1945528 0
0.31078416 6.1741881 -1.2016582 0
0.29059651 6.1861582 -1.2037915 0
0.26923445 6.1728964 -1.2010285 0
0.24759245 6.1503162 -1.1964669 0
0.22760327 6.1682687 -1.1998042 0
0.20696461 6.1702986 -1.2000573 0
0.18619259 6.1682081 -1.1995225 0
0.16566823 6.1746688 -1.2006642 0
0.14428836 6.1463752 -1.1950617 0
0.12465388 6.1952295 -1.2044725 0
0.10375987 6.188344 -1.2030594 0
0.082756668 6.1697006 -1.1993744 0
0.062305674 6.1933341 -1.2039213 0
0.041496269 6.1869516 -1.2026467 0
0.020770229 6.1923847 -1.2036825 0
8.1997377e-06 6.180109 -1.2012897 0
-0.020695584 6.1750154 -1.2003063 0
-0.041529022 6.1942854 -1.2040724 0
-0.062090497 6.1735735 -1.20008 0
-0.082828358 6.1762671 -1.2006508 0
-0.10277677 6.130681 -1.1918494 0
-0.12509558 6.2180023 -1.2088999 0
-0.14501739 6.1781282 -1.2012354 0
-0.16577253 6.1791677 -1.2015389 0
-0.18652031 6.1796088 -1.2017394 0
-0.208075 6.2038946 -1.2065911 0
-0.22792569 6.1774511 -1.2015901 0
-0.24817598 6.1652188 -1.1993659 0
-0.26910135 6.1702209 -1.2005078 0
-0.29044861 6.1833596 -1.2032468 0
-0.31034905 6.1658702 -1.2000391 0
-0.33254024 6.1931014 -1.2055494 0
-0.34993365 6.1329064 -1.1940534 0
-0.37228477 6.1613331 -1.1998243 0
-0.3912349 6.1333127 -1.1946164 0
-0.41389295 6.1631837 -1.2006981 0
-0.43590677 6.180934 -1.2044342 0
-0.4569031 6.1831632 -1.2051603 0
-0.47629708 6.1643262 -1.2017932 0
-0.49599218 6.1506653 -1.1994474 0
-0.51908994 6.1784682 -1.205202 0
-0.53702205 6.1448808 -1.1989946 0
-0.55811346 6.1484632 -1.200052 0
-0.57813472 6.1402888 -1.1988282 0
-0.60211283 6.1731143 -1.2056243 0
-0.62126315 6.155766 -1.2026362 0
-0.64038837 6.1391687 -1.1998065 0
-0.66079313 6.1353612 -1.1994886 0
-0.68473697 6.163507 -1.2054332 0
-0.70025814 6.116282 -1.1966497 0
-0.72414249 6.1425838 -1.2022638 0
-0.74129343 6.1117601 -1.1967106 0
-0.76312518 6.1200218 -1.1988225 0
-0.78224474 6.106535 -1.1966877 0
-0.80338168 6.1089525 -1.1976825 0
-0.82611644 6.1229534 -1.2009637 0
-0.84426081 6.1029439 -1.1975876 0
-0.86720908 6.1176515 -1.2010375 0
-0.88735509 6.112227 -1.2005498 0
-0.90695989 6.1032729 -1.1993817 0
-0.92678887 6.0960603 -1.1985682 0
-0.94883382 6.1032829 -1.2006069 0
-0.967237 6.0871363 -1.1980619 0
-0.98701358 6.0799971 -1.1973014 0
-1.0078888 6.0796432 -1.1978904 0
-1.0312856 6.0940676 -1.2014071 0
-1.0505431 6.083806 -1.2000717 0
-1.0716451 6.084281 -1.2008674 0
-1.0917985 6.0793171 -1.2006034 0
-1.1100032 6.0637574 -1.1982588 0
-1.1302856 6.0597768 -1.1982143 0
-1.1553211 6.0808191 -1.2031343 0
-1.1687486 6.0409689 -1.1960182 0
-1.1895229 6.03969 -1.1965479 0
-1.2147504 6.0605354 -1.2014778 0
-1.2311034 6.0370097 -1.1976254 0
-1.2562294 6.0564327 -1.2023073 0
-1.2774172 6.0564003 -1.2031444 0
-1.2961123 6.0446048 -1.2016578 0
-1.3128408 6.024025 -1.1984348 0
-1.3356472 6.031404 -1.2007869 0
-1.3559101 6.0271058 -1.2008296 0
-1.3779585 6.0306149 -1.2024425 0
-1.3927059 6.0024104 -1.1977431 0
-1.4188286 6.0232019 -1.2028344 0
-1.4364936 6.0078645 -1.2007266 0
-1.4533764 5.9896111 -1.1980456 0
-1.4759774 5.9949689 -1.2001004 0
-1.495298 5.9868989 -1.1994818 0
-1.5120876 5.968924 -1.1968895 0
-1.5341187 5.9717112 -1.198473 0
-1.5567499 5.976584 -1.2004918 0
-1.5728096 5.9562964 -1.1974692 0
-1.5920178 5.9481754 -1.1969029 0
-1.6133076 5.9478021 -1.1979095 0
-1.6337534 5.9442263 -1.1982858 0
-1.6578592 5.9537449 -1.2013184 0
-1.6760917 5.9420552 -1.2000868 0
-1.7024934 5.9591136 -1.2046782 0
-1.7119318 5.9169707 -1.1973122 0
-1.7277203 5.8974061 -1.1945188 0
-1.7596403 5.9325666 -1.2028288 0
-1.7631229 5.8720198 -1.1917448 0
-1.7972591 5.9136481 -1.2014097 0
-1.8178731 5.9101801 -1.2019365 0
-1.8360435 5.8987985 -1.2008671 0
-1.8534098 5.8849854 -1.1993134 0
-1.8682146 5.8633099 -1.1961658 0
-1.88571 5.8503346 -1.1948019 0
-1.9147277 5.8728514 -1.2007048 0
-1.9244903 5.8363233 -1.1945491 0
-1.9611474 5.8811169 -1.2050563 0
-1.9726412 5.8501506 -1.2000598 0
-1.9968468 5.8570027 -1.2028319 0
-2.0126019 5.8390431 -1.2005227 0
-2.0355823 5.8420625 -1.2025399 0
-2.056397 5.8387222 -1.2032648 0
-2.0680993 5.8097081 -1.1987077 0
-2.0830121 5.7900815 -1.1960925 0
-2.1139483 5.8147936 -1.2026548 0
-2.1281068 5.7931762 -1.1996527 0
-2.1454806 5.7805185 -1.1985145 0
-2.166631 5.7780433 -1.1995007 0
-2.1893055 5.7794952 -1.2013192 0
-2.1964002 5.7400546 -1.194645 0
-2.225035 5.7569842 -1.1997144 0
-2.2455072 5.752521 -1.2003466 0
-2.2559061 5.7224464 -1.1956426 0
-2.2808309 5.7292967 -1.1986649 0
-2.2973142 5.7148681 -1.197251 0
-2.3254068 5.7291708 -1.201874 0
-2.3349693 5.697835 -1.1969359 0
-2.3598948 5.7040772 -1.1999027 0
-2.3811367 5.7012339 -1.2009772 0
-2.3938816 5.6781402 -1.1977965 0
-2.4172568 5.680306 -1.1999563 0
-2.4317284 5.6615534 -1.1977104 0
-2.4524558 5.6574264 -1.1985701 0
-2.4706805 5.6475034 -1.1982161 0
-2.4930794 5.6470661 -1.19989 0
-2.512886 5.6406665 -1.2003138 0
-2.5334973 5.6360211 -1.2011261 0
-2.5510414 5.6245446 -1.2004962 0
-2.5710647 5.6185379 -1.2010474 0
-2.5897408 5.6095667 -1.200979 0
-2.5981812 5.5786228 -1.1962124 0
-2.6303673 5.5986075 -1.202382 0
-2.639241 5.5689039 -1.1978965 0
-2.6747394 5.5952549 -1.205487 0
-2.6874404 5.5737214 -1.202782 0
-2.6918654 5.5353813 -1.1964494 0
-2.7265048 5.5591426 -1.2035545 0
-2.7263346 5.5119739 -1.1953148 0
-2.7589483 5.5311666 -1.2014761 0
-2.7731051 5.5131927 -1.1995846 0
-2.795433 5.5114717 -1.2012428 0
-2.8187358 5.5115309 -1.2033087 0
-2.82618 5.4806805 -1.1986353 0
-2.8530765 5.4875932 -1.2022325 0
-2.8801506 5.4945774 -1.2058715 0
-2.8795738 5.4489689 -1.1979741 0
-2.8972549 5.43821 -1.1977376 0
-2.9124107 5.4227657 -1.19648 0
-2.9340148 5.4193225 -1.1978841 0
-2.9650161 5.4329963 -1.2030972 0
-2.9841845 5.4247866 -1.2034881 0
-2.9873741 5.3877306 -1.1974826 0
-2.998831 5.3658924 -1.1948568 0
-3.0408044 5.3984146 -1.2043622 0
-3.0481429 5.3692627 -1.2001319 0
-3.0731788 5.3713365 -1.2028917 0
-3.102335 5.3803649 -1.2072362 0
-3.1003091 5.3354321 -1.1994798 0
-3.1154516 5.3203473 -1.1984302 0
-3.1304724 5.3051271 -1.1973593 0
-3.1498239 5.2972622 -1.197961 0
-3.1733379 5.2963033 -1.2001436 0
-3.1856055 5.2765703 -1.1980855 0
-3.2026925 5.2648959 -1.1978662 0
-3.2257085 5.2629089 -1.1998681 0
-3.2341154 5.237133 -1.1964569 0
-3.2741377 5.2623935 -1.2047291 0
-3.2684069 5.2141256 -1.1961811 0
-3.2914689 5.2120032 -1.1982191 0
-3.3102257 5.2029824 -1.1986901 0
-3.3373199 5.2069387 -1.2021726 0
-3.3412628 5.174818 -1.1973363 0
-3.3652496 5.1738181 -1.1997089 0
-3.3849449 5.1661196 -1.2005486 0
-3.4023652 5.1549206 -1.2005904 0
-3.414057 5.1351023 -1.1986339 0
-3.4302499 5.1221261 -1.1982828 0
-3.4566329 5.1242771 -1.2014906 0
-3.45278 5.0817308 -1.1942225 0
-3.4921618 5.1028032 -1.2019192 0
-3.5094104 5.0912976 -1.2019739 0
-3.5284123 5.0823131 -1.2026391 0
-3.5365434 5.0577421 -1.1996238 0
-3.5477109 5.0376625 -1.1976758 0
-3.5628495 5.0232978 -1.197094 0
-3.5875773 5.0223913 -1.1997377 0
-3.6034324 5.0089951 -1.1994169 0
-3.6099958 4.9827914 -1.196034 0
-3.6327181 4.9789333 -1.1980247 0
-3.6479826 4.9648085 -1.1975623 0
-3.6656537 4.9539628 -1.197904 0
-3.7010694 4.9669099 -1.2040286 0
-3.7264729 4.9661622 -1.2068694 0
-3.7225151 4.9263949 -1.2002314 0
-3.7285821 4.9001799 -1.1968836 0
-3.747581 4.8910317 -1.1977115 0
-3.7816379 4.9013534 -1.2033371 0
-3.7747309 4.8586316 -1.195949 0
-3.8028665 4.8611174 -1.1996925 0
-3.8269942 4.8583059 -1.2021586 0
-3.8449342 4.8475561 -1.2026818 0
-3.8626764 4.8365293 -1.2031524 0
-3.8769958 4.8212199 -1.2025708 0
-3.897052 4.8130274 -1.2037797 0
-3.9101169 4.7961922 -1.2028413 0
-3.9267039 4.783699 -1.2030032 0
-3.9296827 4.7547312 -1.199025 0
-3.9461854 4.7422295 -1.1992022 0
-3.9718881 4.7406993 -1.202176 0
-3.979233 4.7172465 -1.1996052 0
-4.0082879 4.7194924 -1.2035872 0
-4.0211043 4.7025366 -1.2026945 0
-4.0297375 4.6807685 -1.2005759 0
-4.0394106 4.6603112 -1.1987959 0
-4.0545759 4.6462407 -1.1986667 0
-4.0837512 4.6481228 -1.2026778 0
-4.0968413 4.6316109 -1.2019528 0
-4.1137733 4.6194506 -1.2023697 0
-4.1166501 4.5915909 -1.1987041 0
-4.1211371 4.5657039 -1.1955465 0
-4.1471047 4.5636168 -1.1986341 0
-4.1792488 4.5681229 -1.2034912 0
-4.1697068 4.5271215 -1.1963657 0
-4.2064643 4.5364127 -1.2025414 0
-4.2162437 4.5164919 -1.2010013 0
-4.2351036 4.5063105 -1.2020631 0
-4.2605972 4.5030861 -1.2050067 0
-4.2602477 4.4725842 -1.2006601 0
-4.2725978 4.4555411 -1.1999238 0
-4.2853646 4.4389663 -1.1993227 0
-4.2993479 4.4236722 -1.1990784 0
-4.3155661 4.4106741 -1.1994705 0
-4.3384933 4.4044676 -1.2017317 0
-4.3447337 4.3813224 -1.1993846 0
-4.3764348 4.3837953 -1.2040715 0
-4.3809414 4.3589811 -1.2012837 0
-4.393044 4.3418097 -1.2006038 0
-4.4093246 4.3287721 -1.20108 0
-4.4124641 4.302897 -1.1979986 0
-4.4520168 4.3124409 -1.2048049 0
-4.4407306 4.2727427 -1.197867 0
-4.465075 4.2674289 -1.2005675 0
-4.4709501 4.2444525 -1.1983141 0
-4.4610815 4.2067366 -1.1918821 0
-4.5092106 4.2236495 -1.2009507 0
-4.5291419 4.2138996 -1.2024895 0
-4.5505872 4.2054753 -1.2044327 0
-4.5459337 4.1730027 -1.1994911 0
-4.5559573 4.1541433 -1.1984541 0
-4.5921998 4.1590781 -1.2043129 0
-4.59237 4.1312895 -1.2007182 0
-4.6032863 4.1132693 -1.1999599 0
-4.6180768 4.0987225 -1.2002263 0
-4.6206932 4.0734305 -1.19735 0
-4.6318998 4.0557919 -1.1967235 0
-4.662704 4.0552263 -1.2011626 0
-4.6533499 4.0197668 -1.1952741 0
-4.6926413 4.0263138 -1.2018925 0
-4.6845536 3.9921837 -1.1963861 0
-4.7246718 3.9991045 -1.2032007 0
-4.7223468 3.9700367 -1.1992121 0
-4.7408733 3.9585586 -1.2005396 0
-4.7433653 3.933723 -1.197824 0
-4.7544236 3.9160643 -1.1972941 0
-4.774261 3.9056103 -1.1989853 0
-4.7832131 3.8862374 -1.1979545 0
-4.8012295 3.8742237 -1.1992068 0
-4.8104024 3.8550673 -1.1982627 0
-4.8407369 3.8527951 -1.2025945 0
-4.8536067 3.8365269 -1.2025894 0
-4.850925 3.8080504 -1.1987547 0
-4.8799744 3.8044796 -1.2027744 0
-4.8814917 3.7794166 -1.2000184 0
-4.8907652 3.760437 -1.1991919 0
-4.9047403 3.7450829 -1.199533 0
-4.9056726 3.7198236 -1.196704 0
-4.9174247 3.7028337 -1.1965356 0
-4.9439163 3.6968722 -1.1999589 0
-4.95819 3.6816914 -1.2004205 0
-4.9619236 3.6587183 -1.1983478 0
-4.996243 3.6582284 -1.2036672 0
-4.9959345 3.6323349 -1.2006521 0
-5.0082855 3.6157088 -1.2007003 0
-5.0041056 3.5872302 -1.1968079 0
-5.0328336 3.5823395 -1.2007992 0
-5.0238395 3.5506201 -1.1958063 0
-5.0538592 3.5464878 -1.2001146 0
-5.077486 3.5377204 -1.2029018 0
-5.0425658 3.4883339 -1.1918514 0
-5.1033735 3.5051587 -1.2034394 0
-5.0985603 3.4767518 -1.1995486 0
-5.1130428 3.4615703 -1.2002187 0
-5.0933151 3.4233668 -1.1928869 0
-5.1406937 3.4302452 -1.2012829 0
-5.1565261 3.4158785 -1.2022995 0
-5.1545048 3.3897285 -1.1991715 0
-5.1651716 3.3719907 -1.1990162 0
-5.1745386 3.3534162 -1.1985738 0
-5.1800661 3.3323896 -1.1972594 0
-5.1900849 3.314285 -1.197 0
-5.2185497 3.3078828 -1.2010003 0
-5.2211103 3.2850187 -1.199048 0
-5.2315326 3.2671435 -1.1989192 0
-5.2597175 3.2602837 -1.2028664 0
-5.2603464 3.2363107 -1.2005221 0
-5.2669125 3.2160573 -1.199553 0
-5.2878666 3.2045619 -1.2018714 0
-5.2790833 3.1750882 -1.1974488 0
-5.3117976 3.1705606 -1.2024513 0
-5.3278489 3.1559622 -1.2036828 0
-5.3295259 3.1328647 -1.2016819 0
-5.3303556 3.1093526 -1.1995116 0
-5.3471079 3.0951431 -1.2009394 0
-5.3701739 3.0845032 -1.2037903 0
-5.35637 3.0527365 -1.198395 0
-5.3566313 3.0291371 -1.1961744 0
-5.3870759 3.0225608 -1.2007031 0
-5.3701324 2.9894254 -1.1946861 0
-5.4026561 2.9838474 -1.1996891 0
-5.4091454 2.9638069 -1.1989167 0
-5.4200387 2.9461908 -1.1991351 0
-5.4408379 2.9339073 -1.2015536 0
-5.4553976 2.9181917 -1.2026014 0
-5.4594007 2.8968329 -1.201336 0
-5.4634862 2.8755667 -1.2001067 0
-5.4589 2.8498213 -1.1969938 0
-5.497963 2.8467975 -1.2034596 0
-5.4881606 2.818428 -1.1992388 0
-5.5061231 2.8043628 -1.2011024 0
-5.5190492 2.7876816 -1.2018765 0
-5.5426559 2.77632 -1.2049834 0
-5.5339365 2.7487817 -1.2010775 0
-5.5234122 2.7205045 -1.1968069 0
-5.5640774 2.7173908 -1.2036372 0
-5.5611229 2.6928928 -1.2010382 0
-5.5782685 2.6781442 -1.2027951 0
-5.6031675 2.6670187 -1.206229 0
-5.5578651 2.6226354 -1.1945767 0
-5.59796 2.6186433 -1.2013006 0
-5.6002097 2.5968463 -1.1999084 0
-5.6154585 2.5810766 -1.2013146 0
-5.6052551 2.5536578 -1.1972933 0
-5.6290669 2.5417504 -1.2005526 0
-5.6288342 2.518959 -1.1986949 0
-5.645997 2.5039527 -1.2005553 0
-5.6528559 2.4843473 -1.2002358 0
-5.6691456 2.4688606 -1.2019302 0
-5.6809363 2.451369 -1.2026806 0
-5.684741 2.4304345 -1.2017542 0
-5.6911077 2.4106197 -1.2013848 0
-5.6814575 2.3840973 -1.1976535 0
-5.7046723 2.3713758 -1.2008644 0
-5.7102666 2.3512785 -1.2003758 0
-5.7028446 2.3258905 -1.1971694 0
-5.7477689 2.3217669 -1.2049594 0
-5.7087798 2.2837839 -1.1951737 0
-5.7290044 2.2696218 -1.1978079 0
-5.7391472 2.2514074 -1.1983436 0
-5.7687149 2.2407179 -1.202942 0
-5.7794409 2.2226121 -1.2036179 0
-5.7667584 2.1955688 -1.1994369 0
-5.7665615 2.1733851 -1.1978736 0
-5.7880282 2.1593409 -1.2008221 0
-5.7702541 2.1306982 -1.1956458 0
-5.8193116 2.1266687 -1.2043266 0
-5.8055711 2.0996096 -1.2000195 0
-5.8084683 2.0786619 -1.1991709 0
-5.8346725 2.0659978 -1.203144 0
-5.8284826 2.0418403 -1.2004492 0
-5.8456883 2.0258887 -1.2025872 0
-5.8299513 1.9985656 -1.1979644 0
-5.830934 1.9770801 -1.1967976 0
-5.8411202 1.9587228 -1.1975336 0
-5.8575172 1.9423981 -1.1995534 0
-5.8922515 1.9320126 -1.2053332 0
-5.8817644 1.906757 -1.2018734 0
-5.881104 1.8847761 -1.2004404 0
-5.860805 1.8566254 -1.1950197 0
-5.8875604 1.8434032 -1.1992081 0
-5.9293208 1.8346723 -1.2064544 0
-5.8994746 1.803786 -1.1991442 0
-5.9119411 1.7859452 -1.2004544 0
-5.9091544 1.7635047 -1.1986811 0
-5.90869 1.7418123 -1.1973954 0
-5.9119024 1.7212366 -1.1968703 0
-5.9473319 1.7099422 -1.2028756 0
-5.965601 1.6935606 -1.2054154 0
-5.9518318 1.6681085 -1.2014962 0
-5.9377708 1.6427157 -1.1975392 0
-5.9390016 1.6216395 -1.1966841 0
-5.9504576 1.6033489 -1.1979027 0
-5.982285 1.5904303 -1.2032295 0
-5.953794 1.5615019 -1.1964394 0
-5.9661374 1.5433786 -1.1978732 0
-5.9817147 1.526029 -1.1999668 0
-5.9720259 1.5022491 -1.1970061 0
-5.9951305 1.4867064 -1.2006311 0
-6.0022154 1.4671192 -1.2010581 0
-6.0165219 1.4492561 -1.2029419 0
-5.9921103 1.4221365 -1.1971009 0
-6.0056124 1.404088 -1.1988511 0
-6.0281992 1.3880693 -1.2024242 0
-6.033433 1.3679891 -1.2025465 0
-6.0572019 1.3520417 -1.2063736 0
-6.0106025 1.3204994 -1.1962042 0
-6.0291634 1.3034023 -1.1990217 0
-6.0331979 1.2831162 -1.1989619 0
-6.0390811 1.2632186 -1.1992825 0
-6.0202713 1.2382308 -1.194716 0
-6.0704384 1.2273494 -1.2038481 0
-6.0313921 1.1984202 -1.1953012 0
-6.0551023 1.1820422 -1.199208 0
-6.0527325 1.1605263 -1.1979612 0
-6.0640383 1.1416283 -1.1994345 0
-6.0687981 1.1214689 -1.1996255 0
-6.0712547 1.1008849 -1.1993748 0
-6.0583167 1.0775713 -1.1960984 0
-6.1039462 1.0645869 -1.2043957 0
-6.0772953 1.038955 -1.1984429 0
-6.1023364 1.0221899 -1.2026985 0
-6.0853777 0.99838519 -1.1986896 0
-6.1062446 0.98079604 -1.2021455 0
-6.0830956 0.95616722 -1.1969502 0
-6.0950532 0.93711728 -1.1986781 0
-6.1116509 0.91870427 -1.2013297 0
-6.1209331 0.89912391 -1.2025549 0
-6.1086378 0.876405 -1.1995553 0
-6.1176572 0.8567754 -1.2007556 0
-6.1119952 0.83509779 -1.199088 0
-6.1022749 0.81293744 -1.1966395 0
-6.0945749 0.79112417 -1.1946027 0
-6.1152949 0.77297384 -1.1981493 0
-6.1339445 0.75444537 -1.201301 0
-6.1180534 0.73167634 -1.1977016 0
-6.1132746 0.71032321 -1.1962931 0
-6.131433 0.69160599 -1.1993859 0
-6.1264343 0.67024779 -1.1979618 0
-6.1394658 0.65085012 -1.2000765 0
-6.1469855 0.6308133 -1.2011262 0
-6.1553049 0.61081922 -1.202345 0
-6.1622682 0.59065264 -1.2033114 0
-6.1090097 0.56488383 -1.1925352 0
-6.1566834 0.54847974 -1.2014759 0
-6.1511636 0.52720672 -1.2000469 0
-6.1585441 0.50704497 -1.2011483 0
-6.1571112 0.48614907 -1.2005441 0
-6.1414671 0.46419969 -1.1971836 0
-6.1443973 0.44370762 -1.1974581 0
-6.1641817 0.42436612 -1.2010298 0
-6.166389 0.40375 -1.2011894 0
-6.1713762 0.38330084 -1.2019037 0
-6.1730299 0.3626309 -1.2019823 0
-6.154891 0.34086192 -1.1982211 0
-6.1817036 0.32156089 -1.2032242 0
-6.1623292 0.29983956 -1.1992508 0
-6.1777296 0.27983034 -1.2020586 0
-6.1683912 0.25868648 -1.2000659 0
-6.1678987 0.23795247 -1.1998081 0
-6.1689014 0.21727975 -1.1998546 0
-6.1671529 0.19651756 -1.1993798 0
-6.1764598 0.17608668 -1.2010682 0
-6.1760869 0.15535383 -1.2008876 0
-6.1622133 0.13433267 -1.1980957 0
-6.1738706 0.11387853 -1.2002811 0
-6.1631193 0.093010582 -1.1981236 0
-6.1466107 0.072149247 -1.1948606 0
-6.166409 0.051704686 -1.1986688 0
-6.1635613 0.031014562 -1.1980883 0
-6.1673541 0.010355382 -1.1988121 0
-6.1664305 1.6363178e-05 -1.1986308 0
-7.6007991 -0.012762227 -1.2038481 0
-7.5897374 -0.038190968 -1.2021097 0
-7.5840802 -0.063591704 -1.2012407 0
-7.5803037 -0.088978015 -1.2006831 0
-7.5722775 -0.11427686 -1.1994656 0
-7.5790124 -0.13979672 -1.2006 0
-7.5789819 -0.16521741 -1.2006762 0
-7.5716972 -0.19045913 -1.1996166 0
-7.5576339 -0.21546303 -1.1974962 0
-7.5705447 -0.24123691 -1.1996633 0
-7.6068006 -0.26792514 -1.2055441 0
-7.564817 -0.2918444 -1.1990387 0
-7.5716758 -0.31753665 -1.2002879 0
-7.5696764 -0.34288085 -1.2001464 0
-7.5780082 -0.36872202 -1.2016567 0
-7.5678158 -0.39366391 -1.2002431 0
-7.5164409 -0.41626543 -1.1923097 0
-7.557138 -0.44393948 -1.1989948 0
-7.5734267 -0.47038144 -1.2018225 0
-7.565093 -0.49533144 -1.2007569 0
-7.5641069 -0.52074236 -1.2008708 0
-7.5269237 -0.54354447 -1.1952502 0
-7.5674572 -0.57198244 -1.2019845 0
-7.5630069 -0.59715486 -1.2015889 0
-7.564229 -0.62277782 -1.202108 0
-7.5373311 -0.64601296 -1.1981709 0
-7.5298762 -0.6708132 -1.1973367 0
-7.5247936 -0.69579756 -1.1968927 0
-7.5464935 -0.72333044 -1.2007233 0
-7.5399456 -0.74822348 -1.2000738 0
-7.5153055 -0.77123249 -1.1965569 0
-7.5208883 -0.79729599 -1.1978647 0
-7.539094 -0.82479638 -1.201198 0
-7.531312 -0.84950787 -1.2004052 0
-7.5317087 -0.87513608 -1.2009293 0
-7.5220385 -0.8995831 -1.1998616 0
-7.5330768 -0.92653179 -1.2021111 0
-7.4948244 -0.94734651 -1.196507 0
-7.5017128 -0.97378182 -1.1981212 0
-7.4973884 -0.99879271 -1.1979587 0
-7.5269041 -1.0284206 -1.2032191 0
-7.4792399 -1.0474645 -1.1961544 0
-7.4786334 -1.072958 -1.1966259 0
-7.5031896 -1.1021681 -1.2011396 0
-7.4801416 -1.124416 -1.1980468 0
-7.5159144 -1.1555753 -1.20439 0
-7.4940276 -1.1779437 -1.2015089 0
-7.4929447 -1.2035303 -1.2019755 0
-7.4661455 -1.2249181 -1.1983286 0
-7.4752107 -1.2521572 -1.2004505 0
-7.4981217 -1.2818549 -1.2048134 0
-7.4688973 -1.3026475 -1.2008126 0
-7.4533119 -1.3256941 -1.1990147 0
-7.4816041 -1.3566198 -1.204291 0
-7.4443932 -1.3756686 -1.199037 0
-7.4583521 -1.4041247 -1.2020367 0
-7.451282 -1.4286784 -1.2016627 0
-7.4537377 -1.4550757 -1.2028387 0
-7.4267411 -1.475672 -1.1992737 0
-7.4277458 -1.5017761 -1.2002423 0
-7.4266539 -1.5274911 -1.2008867 0
-7.4250073 -1.5531183 -1.2014557 0
-7.3915243 -1.5719995 -1.1968839 0
-7.4023557 -1.600263 -1.1994998 0
-7.4113116 -1.6282282 -1.201829 0
-7.411499 -1.6543375 -1.2027521 0
-7.3872728 -1.6749517 -1.1997252 0
-7.3971019 -1.7032763 -1.2022421 0
-7.3795438 -1.7253077 -1.2003219 0
-7.3826032 -1.7521491 -1.2017683 0
-7.3651586 -1.7741147 -1.1998901 0
-7.3738484 -1.8023869 -1.2022836 0
-7.342104 -1.8207365 -1.1980964 0
-7.3699737 -1.8538996 -1.2036518 0
-7.3428564 -1.8732775 -1.200242 0
-7.3175988 -1.8929878 -1.1971443 0
-7.3207383 -1.9200103 -1.1987042 0
-7.3228064 -1.9468168 -1.2001048 0
-7.3075123 -1.9690068 -1.1986736 0
-7.2801371 -1.9878354 -1.1952697 0
-7.3002186 -2.019644 -1.1996717 0
-7.2845879 -2.0416374 -1.1982213 0
-7.3024282 -2.0730693 -1.2022923 0
-7.2836542 -2.0941539 -1.2003506 0
-7.2646675 -2.1150911 -1.1983835 0
-7.2726183 -2.1438825 -1.2008741 0
-7.2370329 -2.1597915 -1.1961871 0
-7.2621636 -2.1938355 -1.20155 0
-7.2233934 -2.2085791 -1.1963538 0
-7.244453 -2.2416055 -1.2010796 0
-7.2381372 -2.2662706 -1.2012856 0
-7.2267241 -2.2893305 -1.2006586 0
-7.2309184 -2.3173647 -1.2026396 0
-7.2094932 -2.3371818 -1.2003727 0
-7.2139306 -2.3653784 -1.2024252 0
-7.198463 -2.3870661 -1.2011743 0
-7.2036886 -2.4156375 -1.203391 0
-7.2006574 -2.4415085 -1.2042453 0
-7.1635056 -2.4557214 -1.1994022 0
-7.1528263 -2.4788918 -1.198999 0
-7.1474924 -2.5039172 -1.1995054 0
-7.1460838 -2.5303552 -1.2006861 0
-7.1280165 -2.5508852 -1.1990807 0
-7.1219645 -2.5756886 -1.1995087 0
-7.1203203 -2.6021225 -1.2006943 0
-7.1019053 -2.6224174 -1.199065 0
-7.1033454 -2.6500466 -1.2008016 0
-7.0865145 -2.6708682 -1.1994634 0
-7.0976267 -2.7022681 -1.202871 0
-7.0608025 -2.7153881 -1.1981664 0
-7.0652122 -2.7443109 -1.2004694 0
-7.0484228 -2.7650225 -1.1991851 0
-7.0285382 -2.7844498 -1.1973836 0
-7.0518417 -2.8210726 -1.2029582 0
-7.0006666 -2.8278651 -1.195839 0
-7.0209913 -2.8634937 -1.2009442 0
-7.0036426 -2.8838434 -1.1996237 0
-6.9903259 -2.9058092 -1.1990049 0
-6.9931545 -2.9345217 -1.2011708 0
-6.9868546 -2.9594676 -1.2017864 0
-6.9955387 -2.9908483 -1.2049981 0
-6.9699764 -3.0076001 -1.2023252 0
-6.9183826 -3.012892 -1.1951611 0
-6.9338517 -3.0473263 -1.1995918 0
-6.9359961 -3.0760565 -1.2017403 0
-6.913136 -3.0936971 -1.1995698 0
-6.9036436 -3.1172731 -1.1997296 0
-6.9037457 -3.1452279 -1.2015731 0
-6.9083419 -3.1753347 -1.2042193 0
-6.8780475 -3.1893861 -1.2007959 0
-6.881145 -3.2188985 -1.203214 0
-6.8357038 -3.2256196 -1.1971527 0
-6.8347192 -3.2532177 -1.1988838 0
-6.8354082 -3.2817008 -1.200928 0
-6.8139396 -3.299551 -1.199093 0
-6.8169613 -3.3292756 -1.2015823 0
-6.786777 -3.3427627 -1.1982306 0
-6.7804298 -3.3679318 -1.199097 0
-6.7734694 -3.3928354 -1.1998711 0
-6.7636237 -3.4163184 -1.2001493 0
-6.7452464 -3.4354696 -1.1989255 0
-6.7517586 -3.467345 -1.2021426 0
-6.7426744 -3.4912982 -1.2026026 0
-6.731791 -3.5143347 -1.2027563 0
-6.6716042 -3.5114291 -1.1940995 0
-6.6801858 -3.5445983 -1.1977559 0
-6.676681 -3.5714784 -1.1992679 0
-6.6639957 -3.5934808 -1.1991467 0
-6.6374016 -3.6079173 -1.1965313 0
-6.6563559 -3.6471851 -1.2021458 0
-6.6383739 -3.6663251 -1.2011116 0
-6.6169419 -3.6834948 -1.1994616 0
-6.629086 -3.7194233 -1.2039168 0
-6.6015635 -3.7331376 -1.2011847 0
-6.5674314 -3.7429523 -1.197251 0
-6.5562043 -3.7657316 -1.1974993 0
-6.5721521 -3.8042529 -1.2027351 0
-6.5301943 -3.8092535 -1.1973872 0
-6.5214744 -3.8335299 -1.1981384 0
-6.5299811 -3.868048 -1.2020772 0
-6.5263529 -3.8955171 -1.2038068 0
-6.4871283 -3.9016631 -1.1989779 0
-6.4807353 -3.9274664 -1.2002233 0
-6.4980807 -3.9678276 -1.2058927 0
-6.4568272 -3.9724185 -1.200702 0
-6.4149332 -3.9763548 -1.1953839 0
-6.4347081 -4.0185385 -1.2015728 0
-6.408659 -4.0322008 -1.1992263 0
-6.3838964 -4.0465612 -1.1971246 0
-6.369802 -4.0676289 -1.1970323 0
-6.3770146 -4.1023989 -1.2009659 0
-6.3523121 -4.1166849 -1.1989063 0
-6.3386111 -4.1380496 -1.1989323 0
-6.3287749 -4.1619573 -1.1997044 0
-6.2878814 -4.1653309 -1.1945932 0
-6.30474 -4.2069817 -1.200469 0
-6.2837329 -4.2234812 -1.1991587 0
-6.2786174 -4.2506733 -1.2008955 0
-6.2715487 -4.2766228 -1.2022793 0
-6.2463908 -4.2902193 -1.2002072 0
-6.2439075 -4.3193951 -1.2025059 0
-6.2190371 -4.3330917 -1.2005074 0
-6.1890564 -4.3430996 -1.1975242 0
-6.1752176 -4.3643613 -1.1976712 0
-6.1926579 -4.4078956 -1.2039132 0
-6.1293511 -4.3938708 -1.1944631 0
-6.1506796 -4.440455 -1.2015141 0
-6.1018391 -4.4363918 -1.1948723 0
-6.1295009 -4.4879951 -1.203229 0
-6.0917091 -4.491776 -1.1987599 0
-6.0932965 -4.5245619 -1.2020508 0
-6.0754943 -4.5430231 -1.201537 0
-6.0396309 -4.5478578 -1.1974533 0
-6.050251 -4.5877228 -1.2026018 0
-6.0145664 -4.5925059 -1.1985627 0
-5.9859943 -4.6025424 -1.1959373 0
-6.0027995 -4.6475711 -1.2024013 0
-5.9818959 -4.6635489 -1.2013394 0
-5.9680514 -4.6850119 -1.2017069 0
-5.9458528 -4.6998916 -1.2004033 0
-5.9043646 -4.699348 -1.1952016 0
-5.9269452 -4.749867 -1.2029895 0
-5.8881521 -4.7512865 -1.1983422 0
-5.8726726 -4.7713947 -1.1984409 0
-5.8499823 -4.7856102 -1.1970782 0
-5.8503823 -4.8187699 -1.2004595 0
-5.8204222 -4.8269377 -1.1976259 0
-5.8321929 -4.8697944 -1.2034007 0
-5.7928805 -4.8700252 -1.1986516 0
-5.7878346 -4.8989973 -1.2009994 0
-5.7721443 -4.9190297 -1.2011591 0
-5.7453866 -4.9295754 -1.1990236 0
-5.7376313 -4.9564171 -1.2008666 0
-5.7055655 -4.9622188 -1.1976306 0
-5.6848526 -4.9777803 -1.1967794 0
-5.6633935 -4.9926362 -1.1957792 0
-5.6485076 -5.0132699 -1.1961784 0
-5.6328635 -5.0332489 -1.1964325 0
-5.6275105 -5.0625005 -1.198894 0
-5.6293373 -5.0983958 -1.2029182 0
-5.6128564 -5.1178293 -1.2030563 0
-5.5853877 -5.1271844 -1.2008466 0
-5.5529981 -5.1318645 -1.1975754 0
-5.5387087 -5.1531968 -1.1982132 0
-5.4964366 -5.148356 -1.1927959 0
-5.5183678 -5.2037425 -1.2013347 0
-5.5051465 -5.2262568 -1.2022644 0
-5.4829679 -5.2402649 -1.2012511 0
-5.453258 -5.2469673 -1.1985896 0
-5.4314141 -5.2611327 -1.1976588 0
-5.4214149 -5.2867942 -1.1993557 0
-5.4084225 -5.309618 -1.2004131 0
-5.3818364 -5.3190703 -1.1984638 0
-5.3696504 -5.3427339 -1.1997324 0
-5.349721 -5.3587179 -1.1992872 0
-5.3382568 -5.3832126 -1.2007567 0
-5.3234863 -5.404439 -1.2015033 0
-5.2978139 -5.4145689 -1.1997997 0
-5.2734232 -5.4259148 -1.1983892 0
-5.255898 -5.4442863 -1.198548 0
-5.2384963 -5.4627972 -1.1987497 0
-5.2128258 -5.47264 -1.1970675 0
-5.1966457 -5.4924097 -1.197574 0
-5.1859212 -5.5180163 -1.1993594 0
-5.1697359 -5.5378842 -1.1999036 0
-5.15762 -5.5621753 -1.2014132 0
-5.1329284 -5.572907 -1.2000072 0
-5.1210313 -5.5975366 -1.2016068 0
-5.0990887 -5.6112127 -1.2008657 0
-5.0679317 -5.614634 -1.1979548 0
-5.0510697 -5.6338153 -1.1984272 0
-5.0292711 -5.6474838 -1.1977412 0
-5.0113525 -5.6654949 -1.1979908 0
-4.9996519 -5.6906004 -1.199748 0
-4.9636984 -5.6880274 -1.1956902 0
-4.960928 -5.7234759 -1.1996386 0
-4.9394212 -5.7374172 -1.1990829 0
-4.9263487 -5.7611871 -1.2005918 0
-4.9015365 -5.7712336 -1.1992539 0
-4.8884158 -5.7950521 -1.2007908 0
-4.8695741 -5.8121438 -1.2009425 0
-4.8448868 -5.8222218 -1.1996617 0
-4.8146529 -5.8255038 -1.197005 0
-4.8147793 -5.8655953 -1.2019191 0
-4.7823439 -5.8660755 -1.1987252 0
-4.7570581 -5.8751717 -1.197318 0
-4.7520466 -5.9093852 -1.2010367 0
-4.7240849 -5.9151149 -1.1989753 0
-4.7025485 -5.9288054 -1.1985477 0
-4.6886382 -5.9521489 -1.2000821 0
-4.6661563 -5.9646406 -1.1994396 0
-4.6651654 -6.0047507 -1.2043533 0
-4.6431427 -6.0179429 -1.2038701 0
-4.6282725 -6.0404372 -1.205259 0
-4.5993481 -6.0445585 -1.2029974 0
-4.5684104 -6.0458565 -1.2002007 0
-4.5298438 -6.0367913 -1.1953794 0
-4.524065 -6.0713873 -1.1992196 0
-4.4847651 -6.0609541 -1.194182 0
-4.4790926 -6.0959272 -1.1981071 0
-4.467011 -6.1223989 -1.2003596 0
-4.458777 -6.1543446 -1.203685 0
-4.4287539 -6.1562428 -1.2011454 0
-4.3932061 -6.1502233 -1.1970903 0
-4.3814988 -6.1775198 -1.1995372 0
-4.3596497 -6.1905956 -1.1992311 0
-4.3375363 -6.2032719 -1.1988628 0
-4.3280258 -6.2340736 -1.2020044 0
-4.2940536 -6.2296228 -1.1983635 0
-4.2628846 -6.2289963 -1.1954869 0
-4.2657065 -6.2781792 -1.2021745 0
-4.2370734 -6.2812395 -1.2000335 0
-4.2152567 -6.2943158 -1.1998249 0
-4.1819348 -6.2900715 -1.1963364 0
-4.1686416 -6.3159046 -1.1985847 0
-4.1466336 -6.3286119 -1.198351 0
-4.1306953 -6.3506336 -1.1998917 0
-4.0978026 -6.3465171 -1.1965114 0
-4.0776157 -6.3619599 -1.1968385 0
-4.0683007 -6.3945179 -1.2003906 0
-4.0488963 -6.4113808 -1.201001 0
-4.0315599 -6.4315925 -1.2022483 0
-4.0102267 -6.4454803 -1.2023243 0
-3.9798608 -6.4447479 -1.1996918 0
-3.9632535 -6.4662514 -1.2012143 0
-3.9200926 -6.4442272 -1.1946746 0
-3.9269617 -6.5045366 -1.2034075 0
-3.8853774 -6.4846978 -1.1973203 0
-3.8647163 -6.4995427 -1.197662 0
-3.8635724 -6.547492 -1.2041038 0
-3.8174505 -6.5191717 -1.196535 0
-3.8014936 -6.5421257 -1.1984019 0
-3.7780387 -6.5522346 -1.1979266 0
-3.7722032 -6.5930996 -1.2030787 0
-3.7562397 -6.6165657 -1.2050558 0
-3.724901 -6.6129079 -1.2021083 0
-3.7092001 -6.6369758 -1.204216 0
-3.6717732 -6.6220455 -1.1992666 0
-3.6586077 -6.650784 -1.202243 0
-3.6325171 -6.6561031 -1.200996 0
-3.6091533 -6.6663485 -1.2006545 0
-3.5918674 -6.6878805 -1.2023568 0
-3.5643826 -6.690423 -1.2006586 0
-3.5353856 -6.6899505 -1.19844 0
-3.5243468 -6.723536 -1.2023329 0
-3.4854136 -6.7038274 -1.1967119 0
-3.4635706 -6.7167425 -1.1969377 0
-3.4605708 -6.7665238 -1.2037345 0
-3.4312549 -6.7650566 -1.2014202 0
-3.4083636 -6.7761455 -1.2013532 0
-3.3717315 -6.7596803 -1.1964231 0
-3.3683696 -6.8100095 -1.2033254 0
-3.3427675 -6.8156567 -1.2023361 0
-3.3180003 -6.822926 -1.2016492 0
-3.2882273 -6.819746 -1.1991408 0
-3.2675757 -6.835402 -1.1999605 0
-3.2349842 -6.8259459 -1.1963897 0
-3.2261677 -6.8667393 -1.2016369 0
-3.1905696 -6.8505559 -1.1969262 0
-3.1715896 -6.8698936 -1.1984402 0
-3.1531351 -6.8905334 -1.2001898 0
-3.1174295 -6.8733187 -1.195364 0
-3.1065328 -6.9107962 -1.2000637 0
-3.0764673 -6.9057355 -1.197387 0
-3.0627968 -6.937531 -1.2011127 0
-3.0312979 -6.928968 -1.1978638 0
-3.0085645 -6.9402809 -1.198069 0
-2.9931052 -6.9685516 -1.2012101 0
-2.9673326 -6.972928 -1.2002429 0
-2.942838 -6.9802313 -1.1997948 0
-2.9256601 -7.0050044 -1.2023602 0
-2.9028637 -7.0164819 -1.2026528 0
-2.876559 -7.0194316 -1.2014985 0
-2.8516581 -7.0257111 -1.2009301 0
-2.8237491 -7.0244431 -1.1990883 0
-2.7971649 -7.0262938 -1.1977965 0
-2.7719538 -7.0314784 -1.1970893 0
-2.7458382 -7.034265 -1.1959896 0
-2.7293689 -7.0618815 -1.1991224 0
-2.7054653 -7.0704412 -1.1990288 0
-2.6813574 -7.0784512 -1.198856 0
-2.6593966 -7.0921674 -1.1996621 0
-2.6360569 -7.1022668 -1.1998687 0
-2.6063468 -7.0950513 -1.1971666 0
-2.5870242 -7.1160736 -1.1992435 0
-2.5618737 -7.1211576 -1.1986459 0
-2.5464919 -7.1536093 -1.2026644 0
-2.5232675 -7.1643062 -1.2030337 0
-2.4935727 -7.1564817 -1.2003092 0
-2.4719474 -7.1717162 -1.2014675 0
-2.4413311 -7.1607308 -1.1982491 0
-2.4165752 -7.1667004 -1.1978855 0
-2.3977065 -7.1902771 -1.2004758 0
-2.3736758 -7.1985502 -1.2005216 0
-2.3507602 -7.2102499 -1.2011516 0
-2.3297055 -7.2278113 -1.2027692 0
-2.2986267 -7.214139 -1.1992047 0
-2.2793684 -7.2374978 -1.2018105 0
-2.2522538 -7.2359891 -1.2002993 0
-2.231102 -7.2536492 -1.2019811 0
-2.1972971 -7.2299218 -1.1968217 0
-2.1809399 -7.263545 -1.2011704 0
-2.1565628 -7.2707767 -1.2011639 0
-2.1316066 -7.2760324 -1.2008446 0
-2.0955491 -7.2428718 -1.1942055 0
-2.0744305 -7.2609777 -1.1960373 0
-2.0577867 -7.2952342 -1.2005368 0
-2.0403244 -7.3272634 -1.2046752 0
-2.0114434 -7.318408 -1.2021037 0
-1.9852407 -7.3190126 -1.201103 0
-1.9595715 -7.3214474 -1.2004176 0
-1.9430029 -7.3582349 -1.2053744 0
-1.9052018 -7.3143401 -1.1971307 0
-1.878696 -7.3130131 -1.1958758 0
-1.8633487 -7.3555179 -1.2017981 0
-1.8386928 -7.3617892 -1.2018087 0
-1.8144623 -7.369791 -1.2021152 0
-1.7870209 -7.3646169 -1.2002871 0
-1.759356 -7.3581762 -1.1982692 0
-1.736838 -7.3732133 -1.1997629 0
-1.7129865 -7.3827848 -1.2003791 0
-1.6915071 -7.4028559 -1.2027137 0
-1.6628581 -7.3915095 -1.1999577 0
-1.6364777 -7.3898687 -1.1987939 0
-1.6119339 -7.3964262 -1.1989741 0
-1.5873737 -7.4029441 -1.1991613 0
-1.5624477 -7.4077673 -1.1990873 0
-1.5359918 -7.4052005 -1.1978314 0
-1.5079917 -7.3947973 -1.1953241 0
-1.4873008 -7.4203215 -1.1986371 0
-1.4647437 -7.437098 -1.2005471 0
-1.4393092 -7.4394293 -1.2001376 0
-1.4198542 -7.4731407 -1.2048012 0
-1.3892139 -7.4479632 -1.1999846 0
-1.3610282 -7.4350638 -1.1971643 0
-1.3362819 -7.4406414 -1.1973342 0
-1.3134358 -7.4570513 -1.1992595 0
-1.2865573 -7.4505887 -1.1975197 0
-1.2688512 -7.4978886 -1.2044315 0
-1.235074 -7.450038 -1.1960731 0
-1.2143594 -7.4804459 -1.2002945 0
-1.1884378 -7.4792256 -1.1994526 0
-1.1661135 -7.5009131 -1.202297 0
-1.1334686 -7.4555202 -1.1944052 0
-1.1150783 -7.5037799 -1.2015309 0
-1.0930828 -7.5293078 -1.205025 0
-1.0590795 -7.4711847 -1.1951476 0
-1.0387203 -7.5086408 -1.2005756 0
-1.0116233 -7.49788 -1.1983058 0
-0.98859382 -7.517314 -1.2008753 0
-0.9618358 -7.5084991 -1.1989453 0
-0.93515325 -7.4996319 -1.197022 0
-0.91172624 -7.5169315 -1.1992885 0
-0.88969183 -7.5468659 -1.2035817 0
-0.86133981 -7.5232215 -1.1993436 0
-0.83558691 -7.521349 -1.1985917 0
-0.80909032 -7.5122771 -1.196707 0
-0.7838226 -7.5142198 -1.1965911 0
-0.75931597 -7.5236578 -1.1976819 0
-0.73561847 -7.5418696 -1.2001817 0
-0.71233237 -7.5655832 -1.2035685 0
-0.68318105 -7.5262723 -1.1969436 0
-0.66097683 -7.5632348 -1.2024627 0
-0.63558912 -7.5651002 -1.2024138 0
-0.60745645 -7.5329037 -1.1969659 0
-0.58337349 -7.5501285 -1.1993854 0
-0.55782866 -7.548965 -1.1988968 0
-0.53381664 -7.5692458 -1.2018266 0
-0.50849336 -7.5718565 -1.2019637 0
-0.48430809 -7.5924029 -1.2049607 0
-0.45633346 -7.5523438 -1.1983535 0
-0.43153238 -7.5629988 -1.1998079 0
-0.40810153 -7.6003256 -1.2055056 0
-0.38034013 -7.5564198 -1.1983327 0
-0.35547498 -7.5677061 -1.1999266 0
-0.33003232 -7.567306 -1.199681 0
-0.30513161 -7.5801177 -1.2015432 0
-0.27903309 -7.5626111 -1.1986132 0
-0.25345665 -7.5569792 -1.1975791 0
-0.22793624 -7.5517607 -1.1966243 0
-0.20270705 -7.5559015 -1.197166 0
-0.17803259 -7.5846643 -1.2016219 0
-0.15222114 -7.5663056 -1.1986258 0
-0.12758848 -7.6107111 -1.2055858 0
-0.10178115 -7.5895214 -1.2021683 0
-0.075868264 -7.543478 -1.1948282 0
-0.050792042 -7.5759168 -1.1999326 0
-0.025426207 -7.5865083 -1.2015898 0
1.0038834e-05 -7.5662293 -1.1983712 0
0.025428141 -7.5810828 -1.2007304 0
0.050908212 -7.5902395 -1.2022011 0
0.076271802 -7.5816011 -1.2008666 0
0.10201222 -7.6052461 -1.2046592 0
0.12726305 -7.590097 -1.2023205 0
0.15224823 -7.5666537 -1.198681 0
0.17812982 -7.5879483 -1.2021422 0
0.20318004 -7.5727825 -1.1998408 0
0.22915348 -7.5914211 -1.2029089 0
0.2543053 -7.5816813 -1.2014939 0
0.27966928 -7.5793085 -1.2012596 0
0.30560488 -7.591373 -1.2033274 0
0.33084056 -7.5853758 -1.2025459 0
0.35570362 -7.5721445 -1.2006305 0
0.38070932 -7.5633554 -1.1994326 0
0.405651 -7.5543137 -1.1982076 0
0.43217936 -7.5739841 -1.2015507 0
0.45610625 -7.5482507 -1.1977043 0
0.48213875 -7.5580788 -1.1995134 0
0.50821823 -7.5674596 -1.2012659 0
0.53266466 -7.5526252 -1.1991879 0
0.55767137 -7.5465646 -1.1985157 0
0.58392859 -7.5570521 -1.2004855 0
0.60879862 -7.5492973 -1.1995711 0
0.63309157 -7.5351329 -1.1976509 0
0.65795147 -7.5283866 -1.1969225 0
0.68375438 -7.5323663 -1.1979131 0
0.71189541 -7.5607276 -1.2027963 0
0.73687065 -7.5545006 -1.2021919 0
0.75898314 -7.5201602 -1.1971254 0
0.78812188 -7.5552411 -1.2031238 0
0.81591934 -7.5754952 -1.206778 0
0.83575314 -7.5226636 -1.1988015 0
0.86134642 -7.5231023 -1.199325 0
0.88796604 -7.5320554 -1.20122 0
0.91306841 -7.5278301 -1.2010278 0
0.93626052 -7.5083499 -1.1984138 0
0.96358263 -7.5219779 -1.2010978 0
0.98737305 -7.5078769 -1.1993682 0
1.0172576 -7.5394893 -1.2049563 0
1.0369859 -7.4959569 -1.198548 0
1.0610863 -7.4851985 -1.1973898 0
1.0894164 -7.5039134 -1.2009611 0
1.1127083 -7.4876947 -1.1989558 0
1.1395292 -7.4952507 -1.2007707 0
1.165939 -7.49966 -1.2020966 0
1.1884665 -7.4792776 -1.1994616 0
1.21105 -7.4599352 -1.197004 0
1.2392765 -7.475265 -1.2001238 0
1.2661381 -7.4817357 -1.2018374 0
1.2894582 -7.4672704 -1.2002014 0
1.3100618 -7.4377799 -1.1961608 0
1.3396556 -7.4593129 -1.2003394 0
1.3640519 -7.4514704 -1.1998066 0
1.3835641 -7.4175639 -1.1950873 0
1.4176975 -7.4616818 -1.2029544 0
1.4388036 -7.4367099 -1.1996995 0
1.4682167 -7.4546275 -1.2033774 0
1.4906292 -7.4368253 -1.2013037 0
1.5141289 -7.4247918 -1.2001731 0
1.5412524 -7.4304638 -1.2019185 0
1.5597732 -7.39499 -1.1970197 0
1.5836649 -7.3855515 -1.1963446 0
1.618834 -7.4279928 -1.2040919 0
1.6342927 -7.379909 -1.197179 0
1.6612103 -7.3840933 -1.1987545 0
1.684464 -7.371942 -1.1976919 0
1.7104411 -7.3717256 -1.1985818 0
1.740484 -7.3886037 -1.202268 0
1.7595779 -7.3590174 -1.1984071 0
1.7902275 -7.3777461 -1.2024277 0
1.805811 -7.3345685 -1.1963706 0
1.8333284 -7.3402276 -1.1982896 0
1.8633367 -7.3553886 -1.2017778 0
1.8898412 -7.3563156 -1.2029577 0
1.9143878 -7.3495269 -1.2028904 0
1.9345663 -7.3262057 -1.2001283 0
1.9605492 -7.3250232 -1.2010047 0
1.9785252 -7.2941775 -1.1970283 0
2.0057938 -7.2977767 -1.1987158 0
2.0317502 -7.2963963 -1.1996013 0
2.0565686 -7.2908416 -1.1998149 0
2.0843177 -7.2955122 -1.2017268 0
2.0951819 -7.2415309 -1.1939853 0
2.1299152 -7.2701883 -1.1998811 0
2.1520481 -7.2554855 -1.1986387 0
2.1812818 -7.2646132 -1.2013481 0
2.2027082 -7.2476568 -1.1997585 0
2.2246318 -7.2325454 -1.198485 0
2.2545607 -7.2433333 -1.2015185 0
2.2807047 -7.2416739 -1.202505 0
2.2936132 -7.198339 -1.1965792 0
2.3240662 -7.2102504 -1.1998478 0
2.3529789 -7.21699 -1.2022754 0
2.378468 -7.2130184 -1.2029356 0
2.3956759 -7.1841245 -1.1994495 0
2.4202678 -7.1775885 -1.1997064 0
2.4429765 -7.1654949 -1.1990473 0
2.473351 -7.1757259 -1.2021403 0
2.4808872 -7.1200142 -1.1941938 0
2.5205579 -7.1565523 -1.2017328 0
2.533762 -7.1177888 -1.1966434 0
