# .PCD v0.7 - Point Cloud Data file format
VERSION 0.7
FIELDS x y z intensity
SIZE 4 4 4 4
TYPE F F F F
COUNT 1 1 1 1
WIDTH 1407
HEIGHT 1
VIEWPOINT 0 0 0 1 0 0 0
POINTS 1407
DATA ascii
-9.4754333 2.383523 -1.1996796 0
-9.4864025 2.3524919 -1.200063 0
-9.494565 2.3207529 -1.2001045 0
-9.5139294 2.2917094 -1.2015742 0
-9.5199261 2.2594104 -1.201368 0
-9.5153971 2.2246616 -1.1998484 0
-9.5060654 2.1888919 -1.1977395 0
-9.5285883 2.1604624 -1.199658 0
-9.5113287 2.1230452 -1.1965821 0
-9.5468493 2.0973952 -1.2001593 0
-9.5426216 2.062952 -1.1987517 0
-9.5501337 2.0310838 -1.1988331 0
-9.5644617 2.0006366 -1.199783 0
-9.554327 1.9651043 -1.1976783 0
-9.5863676 1.9382163 -1.2008735 0
-9.5973358 1.906963 -1.2014397 0
-9.5868387 1.8714874 -1.1993333 0
-9.5886507 1.8384887 -1.1987822 0
-9.6313667 1.8132209 -1.2033558 0
-9.6138515 1.7765685 -1.2004164 0
-9.6147337 1.7434148 -1.19979 0
-9.5958166 1.7067738 -1.1967086 0
-9.6294355 1.679466 -1.2001922 0
-9.6550255 1.6505923 -1.2026852 0
-9.6414042 1.6150119 -1.2003073 0
-9.6548052 1.5839962 -1.2013077 0
-9.6367159 1.5478667 -1.1984044 0
-9.6373596 1.5148418 -1.1978461 0
-9.6577702 1.4848866 -1.1997575 0
-9.6732464 1.4540838 -1.2010676 0
-9.6751442 1.4212137 -1.2007048 0
-9.669426 1.3872705 -1.1994112 0
-9.6662674 1.3537568 -1.1984496 0
-9.6477518 1.3181975 -1.1955993 0
-9.6767721 1.2891275 -1.1986533 0
-9.7116919 1.2606547 -1.2024485 0
-9.6904926 1.2248793 -1.1993085 0
-9.6833105 1.1910001 -1.1979187 0
-9.7232428 1.1628317 -1.2023696 0
-9.6961327 1.1266283 -1.1985433 0
-9.7160521 1.0959395 -1.2005446 0
-9.7103062 1.0623326 -1.1993878 0
-9.7191925 1.0303401 -1.2000519 0
-9.704895 0.99593157 -1.1978676 0
-9.7435694 0.96689916 -1.2022343 0
-9.7188931 0.93155468 -1.1987973 0
-9.7645569 0.90290248 -1.2040497 0
-9.7064056 0.86471337 -1.196515 0
-9.7457066 0.83528942 -1.2010077 0
-9.7389421 0.80182618 -1.1998359 0
-9.7476997 0.76965237 -1.2005903 0
-9.7366142 0.73593706 -1.1989142 0
-9.7442083 0.7036621 -1.1995521 0
-9.7430086 0.67074639 -1.1991208 0
-9.749692 0.6383701 -1.1996732 0
-9.7529173 0.60574841 -1.1998134 0
-9.7512608 0.57283187 -1.1993666 0
-9.7513227 0.54003465 -1.1991447 0
-9.7245102 0.50585121 -1.1956322 0
-9.7570353 0.47474661 -1.1994288 0
-9.7525072 0.44175574 -1.1986834 0
-9.7585192 0.40924722 -1.1992469 0
-9.7818441 0.37737548 -1.201951 0
-9.7699051 0.34411356 -1.2003355 0
-9.7899055 0.3119573 -1.2026576 0
-9.7745571 0.27866599 -1.2006505 0
-9.7434111 0.24508661 -1.196717 0
-9.7468462 0.2124756 -1.1970447 0
-9.7898684 0.18057649 -1.2022474 0
-9.7904568 0.14775246 -1.202252 0
-9.7777185 0.11477139 -1.2006338 0
-9.7658815 0.081885882 -1.1991398 0
-9.7871637 0.049248245 -1.201726 0
-9.7708769 0.016405927 -1.1997128 0
-9.7911463 2.5981688e-05 -1.2021998 0
-13.745193 -0.023079058 -1.2025485 0
-13.731457 -0.069095619 -1.2013602 0
-13.727395 -0.11510275 -1.2010319 0
-13.679157 -0.16056669 -1.1968518 0
-13.718749 -0.2070362 -1.20037 0
-13.701647 -0.25273016 -1.1989409 0
-13.673739 -0.29807958 -1.1965796 0
-13.730767 -0.34538493 -1.2016647 0
-13.676306 -0.3899022 -1.1970061 0
-13.699971 -0.43655229 -1.1991987 0
-13.715165 -0.4830727 -1.2006638 0
-13.723227 -0.52943081 -1.2015181 0
-13.711984 -0.57504541 -1.2006959 0
-13.706474 -0.62085712 -1.2003889 0
-13.694589 -0.66633558 -1.1995369 0
-13.69378 -0.71232533 -1.1996685 0
-13.678044 -0.75749904 -1.1985058 0
-13.688889 -0.80414546 -1.1996855 0
-13.688089 -0.85015976 -1.1998584 0
-13.688929 -0.89629525 -1.2001888 0
-13.67936 -0.94174004 -1.1996199 0
-13.699824 -0.98931044 -1.2016987 0
-13.673985 -1.0335413 -1.1997293 0
-13.705269 -1.0821315 -1.2027857 0
-13.690953 -1.127203 -1.2018542 0
-13.654994 -1.1703483 -1.1990353 0
-13.660079 -1.2169338 -1.1998334 0
-13.666288 -1.2636852 -1.2007442 0
-13.642724 -1.3076534 -1.1990522 0
-13.6481 -1.3543637 -1.1999171 0
-13.646106 -1.4003848 -1.2001479 0
-13.672665 -1.4494511 -1.2029042 0
-13.633378 -1.4915268 -1.1998811 0
-13.623796 -1.5367206 -1.1994845 0
-13.640496 -1.5849379 -1.2014159 0
-13.600984 -1.6265824 -1.1984094 0
-13.623773 -1.6756577 -1.2009056 0
-13.600486 -1.7191026 -1.1993543 0
-13.584742 -1.7634072 -1.1984805 0
-13.595044 -1.8111148 -1.1999185 0
-13.574491 -1.854718 -1.1986464 0
-13.596163 -1.9041371 -1.2011172 0
-13.599247 -1.951081 -1.2019607 0
-13.617333 -2.0002947 -1.2041453 0
-13.578268 -2.0410872 -1.2012892 0
-13.535965 -2.0811608 -1.1981572 0
-13.54191 -2.1285758 -1.1993084 0
-13.557404 -2.1776147 -1.2013205 0
-13.522608 -2.2185595 -1.1988896 0
-13.515628 -2.2639751 -1.1989369 0
-13.54468 -2.3155551 -1.202196 0
-13.489711 -2.352735 -1.1980106 0
-13.495789 -2.4004478 -1.1992583 0
-13.493545 -2.4467494 -1.1997812 0
-13.488674 -2.4926069 -1.2000844 0
-13.447499 -2.5316539 -1.1971697 0
-13.458794 -2.580534 -1.1989386 0
-13.481223 -2.6317267 -1.2017159 0
-13.441081 -2.6707041 -1.1989291 0
-13.445406 -2.7184546 -1.2001212 0
-13.429842 -2.7622082 -1.1995518 0
-13.431201 -2.8094578 -1.2005079 0
-13.420064 -2.854125 -1.200361 0
-13.416798 -2.9004829 -1.2009319 0
-13.39088 -2.9419093 -1.1994882 0
-13.388139 -2.9883969 -1.2001334 0
-13.36468 -3.0302379 -1.1989346 0
-13.347263 -3.0733762 -1.1982898 0
-13.351561 -3.1215413 -1.1996084 0
-13.349579 -3.1683204 -1.2003781 0
-13.3494 -3.215595 -1.2013247 0
-13.317092 -3.2550914 -1.1993927 0
-13.314416 -3.3017843 -1.2001419 0
-13.323319 -3.3514495 -1.2019506 0
-13.298429 -3.392637 -1.2007245 0
-13.257291 -3.4295251 -1.1980417 0
-13.283253 -3.4837992 -1.2014366 0
-13.261026 -3.525532 -1.2004887 0
-13.260351 -3.5729973 -1.2015053 0
-13.2299 -3.6124136 -1.199837 0
-13.207454 -3.6539118 -1.1989055 0
-13.20854 -3.7019322 -1.200124 0
-13.198632 -3.7469289 -1.2003585 0
-13.181643 -3.7899094 -1.1999624 0
-13.154035 -3.8297663 -1.1986111 0
-13.158975 -3.8791113 -1.2002398 0
-13.156943 -3.9265063 -1.2012485 0
-13.15611 -3.9743445 -1.2023823 0
-13.11062 -4.0086203 -1.1994464 0
-13.123833 -4.0608253 -1.201894 0
-13.074702 -4.0937071 -1.1986449 0
-13.093255 -4.1477699 -1.2016139 0
-13.069373 -4.1884723 -1.2007042 0
-13.022519 -4.2216554 -1.1976933 0
-13.048647 -4.2785254 -1.2014089 0
-12.995493 -4.3094063 -1.1978385 0
-12.991791 -4.3565817 -1.1988369 0
-12.982125 -4.4018164 -1.1993002 0
-12.958972 -4.4424653 -1.1985306 0
-12.93895 -4.4841375 -1.1980624 0
-12.943533 -4.5343919 -1.1998878 0
-12.941458 -4.582438 -1.2011129 0
-12.90247 -4.6173744 -1.1989245 0
-12.894569 -4.6633759 -1.1996366 0
-12.889252 -4.7103796 -1.2006043 0
-12.854087 -4.7464423 -1.1988045 0
-12.85287 -4.795023 -1.2001836 0
-12.852904 -4.8441882 -1.2016966 0
-12.81509 -4.8790689 -1.199684 0
-12.819248 -4.9299259 -1.2016138 0
-12.779177 -4.9637618 -1.1994109 0
-12.760294 -5.0057302 -1.1992072 0
-12.734017 -5.0447521 -1.1983206 0
-12.728813 -5.0921316 -1.1994307 0
-12.720406 -5.1383095 -1.2002552 0
-12.705867 -5.182056 -1.200516 0
-12.675635 -5.2193623 -1.1993062 0
-12.645779 -5.2567248 -1.1981423 0
-12.675436 -5.318965 -1.202635 0
-12.638561 -5.3533983 -1.2008327 0
-12.632419 -5.4008203 -1.2019627 0
-12.588529 -5.4320498 -1.1995128 0
-12.572502 -5.4752092 -1.1997281 0
-12.563614 -5.5215244 -1.2006398 0
-12.553772 -5.5674934 -1.2014765 0
-12.527374 -5.6061244 -1.2007422 0
-12.492647 -5.640933 -1.1992197 0
-12.500099 -5.6948304 -1.2017611 0
-12.467736 -5.7306423 -1.2004904 0
-12.444195 -5.7704377 -1.2000798 0
-12.450809 -5.8243055 -1.202594 0
-12.403695 -5.8530335 -1.1999321 0
-12.398674 -5.9015718 -1.2013538 0
-12.353653 -5.9310279 -1.1989117 0
-12.364923 -5.987534 -1.201947 0
-12.328194 -6.0208578 -1.2003322 0
-12.307426 -6.0619063 -1.2002822 0
-12.287441 -6.1033397 -1.2003222 0
-12.251769 -6.136919 -1.1988407 0
-12.251306 -6.1881561 -1.2008188 0
-12.211128 -6.219337 -1.198918 0
-12.196507 -6.2634792 -1.1995376 0
-12.177348 -6.305325 -1.1997256 0
-12.155294 -6.3456769 -1.1996423 0
-12.149189 -6.3944163 -1.2011489 0
-12.101314 -6.421123 -1.1985373 0
-12.061213 -6.4517627 -1.1967015 0
-12.055245 -6.5006485 -1.1982652 0
-12.041459 -6.5454211 -1.1990695 0
-12.008928 -6.5799942 -1.1980202 0
-12.02639 -6.642087 -1.2019771 0
-11.988482 -6.6737032 -1.2004179 0
-11.958291 -6.7095141 -1.1996408 0
-11.907971 -6.7338743 -1.196851 0
-11.913254 -6.7896776 -1.1996632 0
-11.912713 -6.8423858 -1.2019122 0
-11.870321 -6.8710685 -1.1999527 0
-11.85512 -6.9154387 -1.2007531 0
-11.834757 -6.9568462 -1.2010463 0
-11.806201 -6.9934273 -1.2005212 0
-11.751405 -7.0142999 -1.1973339 0
-11.765307 -7.0762067 -1.201161 0
-11.737803 -7.1133637 -1.2007812 0
-11.702565 -7.1457653 -1.1996206 0
-11.699508 -7.1978607 -1.2017742 0
-11.650743 -7.2218194 -1.1992457 0
-11.627558 -7.2615242 -1.1993585 0
-11.603573 -7.3007369 -1.1994026 0
-11.580066 -7.3402576 -1.19951 0
-11.533494 -7.3650594 -1.197237 0
-11.521381 -7.4118228 -1.1985525 0
-11.504623 -7.4556966 -1.1994029 0
-11.494891 -7.5042357 -1.2010046 0
-11.459538 -7.5360727 -1.199944 0
-11.435086 -7.5750346 -1.2000364 0
-11.416546 -7.6179509 -1.2007644 0
-11.408951 -7.6682911 -1.2026631 0
-11.364367 -7.6937656 -1.2006757 0
-11.328375 -7.7249155 -1.1996027 0
-11.306815 -7.7658792 -1.2000701 0
-11.294511 -7.8132892 -1.2015378 0
-11.254987 -7.8418722 -1.2001235 0
-11.217972 -7.8720837 -1.1989843 0
-11.206617 -7.9203248 -1.2006022 0
-11.19861 -7.9711013 -1.202601 0
-11.13475 -7.9820285 -1.1986103 0
-11.136887 -8.040225 -1.2017354 0
-11.111381 -8.07862 -1.2018992 0
-11.070727 -8.1059408 -1.2004348 0
-11.033865 -8.1359177 -1.1993887 0
-11.010107 -8.1755276 -1.1997792 0
-10.99842 -8.2241993 -1.2015036 0
-10.950303 -8.2456064 -1.1992606 0
-10.927258 -8.2858114 -1.1997726 0
-10.904324 -8.326148 -1.2003127 0
-10.87331 -8.3603268 -1.1999776 0
-10.834454 -8.388402 -1.1987866 0
-10.830531 -8.4435968 -1.2014782 0
-10.769594 -8.4542961 -1.1978559 0
-10.761495 -8.5064087 -1.2001206 0
-10.718736 -8.5311575 -1.1985352 0
-10.704583 -8.5786772 -1.2001622 0
-10.689663 -8.6257372 -1.2017251 0
-10.644733 -8.648572 -1.1999273 0
-10.623755 -8.6908216 -1.2008405 0
-10.589972 -8.7226162 -1.2003208 0
-10.552281 -8.7511177 -1.1993676 0
-10.507093 -8.7732668 -1.1975682 0
-10.505383 -8.8317852 -1.2007415 0
-10.463946 -8.8570004 -1.1993929 0
-10.449267 -8.9048815 -1.2011259 0
-10.406461 -8.9288044 -1.1996397 0
-10.372941 -8.9605999 -1.1992322 0
-10.361891 -9.0118971 -1.2014412 0
-10.316546 -9.033392 -1.1996886 0
-10.296171 -9.0767202 -1.2008514 0
-10.266281 -9.1117229 -1.2009217 0
-10.229856 -9.1408939 -1.2002391 0
-10.19855 -9.1746016 -1.2001684 0
-10.175764 -9.2160177 -1.2011164 0
-10.123625 -9.2307692 -1.1986084 0
-10.120821 -9.2905483 -1.2019578 0
-10.071195 -9.3074064 -1.1997635 0
-10.034037 -9.3356361 -1.199059 0
-10.012879 -9.3787794 -1.2002816 0
-9.9632816 -9.3952332 -1.1981056 0
-9.946104 -9.4422359 -1.1998402 0
-9.9159794 -9.4770489 -1.2000324 0
-9.8779507 -9.5042791 -1.1992799 0
-9.8435965 -9.5349884 -1.1989837 0
-9.8222313 -9.5783329 -1.2002863 0
-9.7815399 -9.6028442 -1.1992414 0
-9.7559347 -9.6421547 -1.2000589 0
-9.7169876 -9.6682796 -1.1992489 0
-9.6963043 -9.7126112 -1.2007084 0
-9.6530714 -9.7343636 -1.1993897 0
-9.6450377 -9.791707 -1.2024639 0
-9.6035738 -9.8152208 -1.2013905 0
-9.5744963 -9.8513613 -1.2018782 0
-9.5198784 -9.8611012 -1.1991656 0
-9.499486 -9.9062338 -1.200774 0
-9.4610796 -9.9326315 -1.200122 0
-9.4385052 -9.9756918 -1.2014945 0
-9.4049234 -10.007195 -1.201484 0
-9.3636713 -10.030479 -1.2005036 0
-9.3289347 -10.060681 -1.2003679 0
-9.2912388 -10.087656 -1.1998628 0
-9.254776 -10.115921 -1.1995273 0
-9.2411633 -10.169294 -1.2021754 0
-9.1871147 -10.178173 -1.1995769 0
-9.1576672 -10.214194 -1.2001967 0
-9.1343079 -10.257124 -1.2016357 0
-9.0986414 -10.286306 -1.201474 0
-9.0289259 -10.276717 -1.1968112 0
-9.0153332 -10.330897 -1.199594 0
-8.9802237 -10.360579 -1.1995378 0
-8.9428949 -10.387679 -1.1991971 0
-8.9185066 -10.429873 -1.2006092 0
-8.8907299 -10.468244 -1.201588 0
-8.8500538 -10.491441 -1.200838 0
-8.7949085 -10.497278 -1.1981243 0
-8.7802391 -10.551433 -1.2009385 0
-8.7404451 -10.575527 -1.2003387 0
-8.7061062 -10.606195 -1.2004998 0
-8.6672401 -10.631332 -1.2000489 0
-8.6365194 -10.666473 -1.2007403 0
-8.606513 -10.702589 -1.2015507 0
-8.557272 -10.71472 -1.1996849 0
-8.5298376 -10.754115 -1.2008868 0
-8.4815168 -10.767145 -1.1991596 0
-8.4446878 -10.794651 -1.1990629 0
-8.4210291 -10.839098 -1.2008572 0
-8.3842716 -10.866793 -1.2008042 0
-8.3427362 -10.888247 -1.2000773 0
-8.3068447 -10.917027 -1.2001729 0
-8.2829504 -10.961697 -1.2020239 0
-8.2198257 -10.954323 -1.1981864 0
-8.2091675 -11.016869 -1.2020104 0
-8.168107 -11.038821 -1.2014108 0
-8.1257877 -11.058984 -1.2006333 0
-8.0733528 -11.065181 -1.1983607 0
-8.0481539 -11.108676 -1.2001419 0
-8.0190353 -11.146957 -1.2013663 0
-7.9792438 -11.170459 -1.2010092 0
-7.9315734 -11.182806 -1.1994706 0
-7.8926516 -11.207372 -1.1992605 0
-7.8598666 -11.240686 -1.1999987 0
-7.8206849 -11.264888 -1.1997763 0
-7.7709599 -11.273765 -1.1979401 0
-7.7497149 -11.324008 -1.2005111 0
-7.7169633 -11.357668 -1.2013298 0
-7.6556993 -11.349174 -1.1977097 0
-7.6245933 -11.385214 -1.1988084 0
-7.5909781 -11.417632 -1.1995354 0
-7.5491438 -11.437701 -1.1989778 0
-7.5220394 -11.480173 -1.2007796 0
-7.478457 -11.497565 -1.1999694 0
-7.443398 -11.528046 -1.2005391 0
-7.4053454 -11.553936 -1.2006429 0
-7.3504829 -11.553421 -1.1980217 0
-7.3269734 -11.602179 -1.2005234 0
-7.2855239 -11.622677 -1.2001102 0
-7.2358556 -11.629908 -1.1983449 0
-7.1979928 -11.655998 -1.1985399 0
-7.1539693 -11.672068 -1.1977191 0
-7.120698 -11.705692 -1.1987128 0
-7.0861845 -11.737408 -1.1995209 0
-7.0639658 -11.789764 -1.2024444 0
-7.0033894 -11.778051 -1.1988481 0
-6.9665322 -11.805995 -1.1993082 0
-6.913734 -11.806785 -1.197027 0
-6.896564 -11.868542 -1.200937 0
-6.8491988 -11.878533 -1.1996176 0
-6.82867 -11.935226 -1.2030241 0
-6.7665753 -11.919232 -1.1991185 0
-6.7325807 -11.952515 -1.2001892 0
-6.6874056 -11.965962 -1.1992813 0
-6.6673026 -12.024484 -1.2028993 0
-6.607409 -12.01125 -1.1993525 0
-6.5795307 -12.056112 -1.2016227 0
-6.5322924 -12.065582 -1.2003769 0
-6.4825764 -12.070238 -1.198671 0
-6.4488754 -12.104678 -1.1999371 0
-6.4109445 -12.131322 -1.2004409 0
-6.3648705 -12.142515 -1.19943 0
-6.318193 -12.152382 -1.1983052 0
-6.2901444 -12.198187 -1.2007357 0
-6.2515154 -12.223714 -1.2011784 0
-6.1964874 -12.216986 -1.1984689 0
-6.1589808 -12.24463 -1.1991484 0
-6.1170111 -12.263444 -1.1989757 0
-6.0816932 -12.295678 -1.2001268 0
-6.0442791 -12.323839 -1.2008907 0
-5.9910412 -12.319597 -1.1985133 0
-5.9495335 -12.339265 -1.1984792 0
-5.9105225 -12.36415 -1.1989648 0
-5.8720918 -12.390349 -1.1995894 0
-5.8322544 -12.413668 -1.199947 0
-5.7747083 -12.399028 -1.1966536 0
-5.7351017 -12.422647 -1.1970706 0
-5.7033138 -12.463428 -1.199151 0
-5.6644292 -12.488953 -1.1997727 0
-5.6214757 -12.505541 -1.199549 0
-5.581358 -12.528454 -1.1999451 0
-5.5431156 -12.555692 -1.200767 0
-5.4916692 -12.552906 -1.198733 0
-5.4485793 -12.569008 -1.1985193 0
-5.4180112 -12.614223 -1.2010919 0
-5.3678789 -12.613967 -1.1993471 0
-5.3304868 -12.643587 -1.2004575 0
-5.2765718 -12.63387 -1.1978483 0
-5.2460346 -12.680136 -1.2005605 0
-5.2018003 -12.693527 -1.2001704 0
-5.1620755 -12.717952 -1.2008365 0
-5.1188078 -12.733701 -1.2006963 0
-5.0642838 -12.721147 -1.1979048 0
-5.0318809 -12.764125 -1.2003564 0
-4.9950385 -12.796247 -1.2017956 0
-4.9510493 -12.810185 -1.2015388 0
-4.9032044 -12.813994 -1.2003473 0
-4.8579903 -12.824492 -1.1997982 0
-4.8179722 -12.848727 -1.2005476 0
-4.7752638 -12.865882 -1.2006477 0
-4.7376313 -12.896877 -1.202051 0
-4.6891737 -12.898413 -1.200722 0
-4.6455789 -12.913166 -1.2006388 0
-4.603992 -12.933542 -1.2010913 0
-4.5563326 -12.936783 -1.1999668 0
-4.5197148 -12.971451 -1.2017701 0
-4.4801903 -12.998113 -1.2028418 0
-4.4221396 -12.970692 -1.1989254 0
-4.381249 -12.993223 -1.1996435 0
-4.3410006 -13.017856 -1.2005672 0
-4.2982645 -13.035171 -1.2008283 0
-4.2501493 -13.036055 -1.1995902 0
-4.2044535 -13.044137 -1.19903 0
-4.1640263 -13.068615 -1.19999 0
-4.1187911 -13.078073 -1.1995836 0
-4.0774913 -13.10007 -1.2003406 0
-4.0323677 -13.109836 -1.1999899 0
-3.9806652 -13.097864 -1.1976657 0
-3.9435682 -13.133917 -1.1997466 0
-3.8993437 -13.146502 -1.1996953 0
-3.8574824 -13.167143 -1.2003919 0
-3.8159206 -13.189013 -1.2012124 0
-3.7662811 -13.182838 -1.1994933 0
-3.7209978 -13.191626 -1.1991509 0
-3.6818337 -13.222292 -1.2008097 0
-3.6351461 -13.226066 -1.2000388 0
-3.5898709 -13.234824 -1.1997346 0
-3.5478723 -13.255735 -1.2005452 0
-3.5022116 -13.263023 -1.200135 0
-3.4590642 -13.279839 -1.2006004 0
-3.4108243 -13.276976 -1.1993009 0
-3.3717201 -13.309772 -1.2012355 0
-3.3248186 -13.311964 -1.2004205 0
-3.2789605 -13.318134 -1.1999788 0
-3.2333095 -13.325018 -1.1996155 0
-3.1902673 -13.342693 -1.200237 0
-3.1411786 -13.334911 -1.1985829 0
-3.0985246 -13.354302 -1.1993853 0
-3.0571387 -13.379522 -1.2007231 0
-3.011102 -13.384539 -1.2002604 0
-2.9581108 -13.357989 -1.1969836 0
-2.9267075 -13.429319 -1.2024891 0
-2.8769493 -13.417064 -1.2005213 0
-2.8319175 -13.426488 -1.2005082 0
-2.7846141 -13.424959 -1.19953 0
-2.7395587 -13.434081 -1.1995176 0
-2.6961195 -13.451263 -1.2002379 0
-2.6504815 -13.45757 -1.200001 0
-2.6053448 -13.466375 -1.2000005 0
-2.5674083 -13.513081 -1.2033886 0
-2.5176172 -13.497648 -1.2012558 0
-2.4717667 -13.502838 -1.2009734 0
-2.4225788 -13.489325 -1.1990423 0
-2.3822336 -13.525166 -1.2015114 0
-2.332315 -13.506681 -1.199168 0
-2.2896957 -13.530257 -1.2005727 0
-2.2414105 -13.520317 -1.1990172 0
-2.1999056 -13.551404 -1.2011132 0
-2.1504316 -13.533365 -1.1988685 0
-2.1061678 -13.547723 -1.1995081 0
-2.0597079 -13.547966 -1.1989114 0
-2.0145929 -13.556951 -1.199102 0
-1.9700243 -13.569805 -1.199648 0
-1.9223109 -13.560777 -1.1982734 0
-1.8785638 -13.579654 -1.1993781 0
-1.8357714 -13.606245 -1.2011763 0
-1.791248 -13.620733 -1.2019185 0
-1.7453305 -13.624792 -1.2017535 0
-1.6955963 -13.598145 -1.1988949 0
-1.6502488 -13.605846 -1.1990794 0
-1.6016884 -13.586422 -1.1968875 0
-1.5614887 -13.638549 -1.2010117 0
-1.5176275 -13.660584 -1.2024972 0
-1.4691116 -13.640471 -1.2002864 0
-1.424318 -13.654414 -1.2010864 0
-1.3787972 -13.661768 -1.2013198 0
-1.3325266 -13.661622 -1.2009073 0
-1.2863196 -13.661823 -1.2005391 0
-1.2396069 -13.656143 -1.199668 0
-1.1942418 -13.665124 -1.2000985 0
-1.1510922 -13.700875 -1.2028925 0
-1.1022384 -13.668561 -1.1997242 0
-1.0568317 -13.677714 -1.2002099 0
-1.0098751 -13.666404 -1.1989136 0
-0.96601588 -13.697609 -1.2013602 0
-0.91772234 -13.66559 -1.1982753 0
-0.87193561 -13.669164 -1.1983256 0
-0.82672858 -13.682404 -1.1992366 0
-0.78227073 -13.710009 -1.2014195 0
-0.73611617 -13.709144 -1.2011206 0
-0.68781585 -13.665203 -1.1970621 0
-0.64361167 -13.701847 -1.2000762 0
-0.59700233 -13.688657 -1.1987389 0
-0.55142033 -13.698453 -1.1994282 0
-0.50502551 -13.687666 -1.1983286 0
-0.46004763 -13.716626 -1.2007223 0
-0.41341913 -13.696999 -1.198876 0
-0.36739594 -13.694675 -1.1985582 0
-0.32173482 -13.706764 -1.199515 0
-0.27640343 -13.738911 -1.2022403 0
-0.22972837 -13.703403 -1.199059 0
-0.18406495 -13.725183 -1.2009041 0
-0.13788527 -13.709745 -1.1995062 0
-0.091876224 -13.703853 -1.1989568 0
-0.046031278 -13.734517 -1.2016195 0
1.817926e-05 -13.701635 -1.1987361 0
0.045965087 -13.703917 -1.1989423 0
0.092113152 -13.733755 -1.2015731 0
0.13797455 -13.715001 -1.1999661 0
0.18404707 -13.721134 -1.2005498 0
0.2299065 -13.711857 -1.1997988 0
0.27545848 -13.690135 -1.1979723 0
0.32199571 -13.716326 -1.2003518 0
0.36835107 -13.72892 -1.2015554 0
0.41370815 -13.705368 -1.1996087 0
0.46015626 -13.718779 -1.2009108 0
0.50597239 -13.712341 -1.200489 0
0.55100882 -13.687327 -1.1984541 0
0.59874475 -13.727773 -1.2021645 0
0.64261007 -13.679749 -1.198141 0
0.68874121 -13.682865 -1.1986095 0
0.73497289 -13.687173 -1.1991959 0
0.78036213 -13.67592 -1.1984324 0
0.82724506 -13.690348 -1.1999331 0
0.8727302 -13.681048 -1.1993678 0
0.91813302 -13.671163 -1.1987642 0
0.96487886 -13.680969 -1.199901 0
1.0102346 -13.670775 -1.1992973 0
1.0570619 -13.680221 -1.20043 0
1.1031582 -13.679515 -1.200686 0
1.1497597 -13.68458 -1.2014621 0
1.1950359 -13.673793 -1.2008601 0
1.2392881 -13.652229 -1.1993245 0
1.2864369 -13.66268 -1.2006147 0
1.3326924 -13.662948 -1.2010242 0
1.3764253 -13.637904 -1.1992216 0
1.4242657 -13.653563 -1.2010118 0
1.469633 -13.644973 -1.2006829 0
1.5165385 -13.650453 -1.2016057 0
1.5638728 -13.659052 -1.2028174 0
1.6046847 -13.611526 -1.1990994 0
1.6516069 -13.616742 -1.20004 0
1.6962813 -13.603343 -1.1993536 0
1.7412151 -13.59238 -1.198895 0
1.7880204 -13.595912 -1.1997286 0
1.8323708 -13.580769 -1.1989276 0
1.8807098 -13.594901 -1.2007252 0
1.9249877 -13.5794 -1.1999195 0
1.9679128 -13.555008 -1.1983404 0
2.0174389 -13.575854 -1.2007746 0
2.0636427 -13.573605 -1.2011808 0
2.108227 -13.560732 -1.2006603 0
2.1511483 -13.537643 -1.199248 0
2.1974339 -13.535952 -1.1997441 0
2.2426898 -13.527813 -1.1996825 0
2.2852256 -13.503625 -1.1982101 0
2.3352237 -13.523312 -1.200645 0
2.3785775 -13.504199 -1.1996493 0
2.4258907 -13.50756 -1.2006637 0
2.4688001 -13.486429 -1.1995145 0
2.5098839 -13.455989 -1.1975489 0
2.5585473 -13.466247 -1.1992184 0
2.6016738 -13.447209 -1.1982932 0
2.6495373 -13.452588 -1.1995573 0
2.696341 -13.452184 -1.2003207 0
2.7434473 -13.452967 -1.2012045 0
2.7894034 -13.447869 -1.2015778 0
2.8299358 -13.416916 -1.199653 0
2.8727598 -13.397351 -1.1987582 0
2.9178579 -13.388541 -1.1988386 0
2.9693854 -13.408733 -1.2015313 0
3.0053382 -13.358753 -1.1979488 0
3.0527 -13.359934 -1.1989658 0
3.1018775 -13.368592 -1.2006694 0
3.1394577 -13.327447 -1.1979127 0
3.1868415 -13.328209 -1.1989349 0
3.228173 -13.303696 -1.1976967 0
3.2777412 -13.313031 -1.1995198 0
3.323364 -13.30599 -1.1998825 0
3.3646042 -13.281535 -1.1986878 0
3.4115565 -13.27968 -1.199546 0
3.4574263 -13.273407 -1.2000197 0
3.5005639 -13.256641 -1.1995584 0
3.5490038 -13.259823 -1.2009162 0
3.5903172 -13.23633 -1.199872 0
3.6309893 -13.210804 -1.198655 0
3.6738966 -13.193651 -1.1982095 0
3.7242231 -13.202926 -1.2001791 0
3.7579377 -13.153503 -1.196825 0
3.81179 -13.174605 -1.1999012 0
3.8451564 -13.124941 -1.1965454 0
3.9030364 -13.158824 -1.2008207 0
3.9430358 -13.132017 -1.1995741 0
3.9884877 -13.123477 -1.2000087 0
4.0301576 -13.102527 -1.1993219 0
4.076736 -13.097521 -1.2001081 0
4.1223912 -13.089381 -1.200622 0
4.165904 -13.074388 -1.2005211 0
4.209568 -13.059886 -1.2004788 0
4.2527084 -13.043787 -1.2003028 0
4.2886281 -13.005831 -1.1981266 0
4.3343377 -12.997759 -1.198715 0
4.3736172 -12.970476 -1.1975445 0
4.4292221 -12.991353 -1.2008363 0
4.4700627 -12.968618 -1.2001134 0
4.5188165 -12.968762 -1.2015221 0
4.5588427 -12.943799 -1.2006187 0
4.5932446 -12.903242 -1.1982785 0
4.6408801 -12.899997 -1.1994154 0
4.6923475 -12.907036 -1.2015259 0
4.732955 -12.884042 -1.2008559 0
4.767725 -12.845466 -1.1987436 0
4.8210626 -12.856866 -1.2013091 0
4.8649168 -12.842674 -1.2015004 0
4.9001927 -12.806023 -1.1996018 0
4.943491 -12.790529 -1.1996964 0
4.9865775 -12.774472 -1.1997517 0
5.0345449 -12.770783 -1.2009839 0
5.0841184 -12.770871 -1.2025884 0
5.125309 -12.749776 -1.2022133 0
5.1539226 -12.697768 -1.1989321 0
5.2199283 -12.737667 -1.2043451 0
5.2468376 -12.681981 -1.2007365 0
5.281024 -12.644436 -1.1988515 0
5.3330612 -12.6496 -1.2010297 0
5.3757539 -12.63238 -1.2010992 0
5.4164114 -12.610405 -1.2007297 0
5.4588823 -12.592683 -1.2007784 0
5.4999285 -12.571695 -1.2005286 0
5.5382409 -12.54456 -1.1997039 0
5.5867019 -12.54036 -1.2010869 0
5.622211 -12.507089 -1.1996988 0
5.6639957 -12.487908 -1.1996739 0
5.7050729 -12.467185 -1.1995139 0
5.7454414 -12.444956 -1.1992218 0
5.7955136 -12.443613 -1.2009581 0
5.8333573 -12.415929 -1.2001671 0
5.8758249 -12.398141 -1.2003453 0
5.9122486 -12.367677 -1.1993083 0
5.9517746 -12.343829 -1.1989241 0
5.9956613 -12.329015 -1.1994309 0
6.0337853 -12.302361 -1.1987994 0
6.0755014 -12.283077 -1.1988984 0
6.1308661 -12.291139 -1.201685 0
6.1685824 -12.263637 -1.2010114 0
6.209218 -12.242004 -1.200925 0
6.243854 -12.208653 -1.1997001 0
6.2785964 -12.175713 -1.1985251 0
6.3313456 -12.1776 -1.2007936 0
6.3722448 -12.156506 -1.2008135 0
6.4170666 -12.142829 -1.2015811 0
6.4471235 -12.101312 -1.1996051 0
6.4933076 -12.090143 -1.2006494 0
6.5277719 -12.057157 -1.1995404 0
6.5644255 -12.028358 -1.1988581 0
6.6082668 -12.012733 -1.1995025 0
6.6540604 -12.000527 -1.2005045 0
6.6957755 -11.980864 -1.2007766 0
6.7434788 -11.971788 -1.2021263 0
6.7663288 -11.918724 -1.1990691 0
6.824419 -11.927724 -1.2022697 0
6.8522811 -11.883806 -1.200152 0
6.8958483 -11.867238 -1.200807 0
6.9335966 -11.840632 -1.2004604 0
6.9725366 -11.816098 -1.2003365 0
7.0015774 -11.774933 -1.1985327 0
7.0349493 -11.741264 -1.1974998 0
7.10496 -11.768435 -1.2026938 0
7.135509 -11.729969 -1.2012008 0
7.1656146 -11.690998 -1.1996636 0
7.2127442 -11.679816 -1.200991 0
7.2461371 -11.646363 -1.2000426 0
7.2820992 -11.617146 -1.199541 0
7.3329029 -11.611499 -1.2014898 0
7.3521976 -11.556048 -1.1982962 0
7.3946576 -11.537193 -1.1989051 0
7.4382005 -11.519928 -1.1996958 0
7.4793653 -11.498895 -1.2001102 0
7.5103893 -11.462326 -1.198915 0
7.5491529 -11.437649 -1.1989745 0
7.5930486 -11.420681 -1.1998577 0
7.6377988 -11.404867 -1.2008799 0
7.6787066 -11.383216 -1.2013043 0
7.7106237 -11.348273 -1.2003382 0
7.7406416 -11.310686 -1.199101 0
7.7878013 -11.298133 -1.2005316 0
7.8192582 -11.26277 -1.1995529 0
7.8695059 -11.254409 -1.2014658 0
7.9071078 -11.227836 -1.2014525 0
7.9331183 -11.184921 -1.1996999 0
7.9608512 -11.144648 -1.1982362 0
8.0284252 -11.159947 -1.2027686 0
8.0504074 -11.111724 -1.2004735 0
8.0867052 -11.08342 -1.2003382 0
8.1110601 -11.038877 -1.1984527 0
8.1585522 -11.025846 -1.200001 0
8.1897192 -10.990708 -1.1991584 0
8.2158308 -10.948939 -1.1975999 0
8.2853193 -10.964771 -1.2023635 0
8.3189735 -10.932906 -1.201921 0
8.3335285 -10.87617 -1.1987486 0
8.3948765 -10.880478 -1.202319 0
8.4023705 -10.815022 -1.1981922 0
8.4642878 -10.819646 -1.2018418 0
8.4991407 -10.78946 -1.2016474 0
8.5272942 -10.75085 -1.2005248 0
8.5515928 -10.70755 -1.1988846 0
8.5905418 -10.68267 -1.199317 0
8.6361933 -10.666014 -1.2006911 0
8.676384 -10.64249 -1.201311 0
8.7099123 -10.610776 -1.2010207 0
8.7220974 -10.55327 -1.1978152 0
8.76511 -10.533195 -1.1988654 0
8.7891731 -10.490376 -1.1973392 0
8.839509 -10.478884 -1.1994034 0
8.8890924 -10.466259 -1.201363 0
8.9137602 -10.424265 -1.1999664 0
8.9513292 -10.397421 -1.2003244 0
8.9969511 -10.379823 -1.2017684 0
9.0281925 -10.345578 -1.2013016 0
9.0507431 -10.301494 -1.1996995 0
9.0782995 -10.263254 -1.1987841 0
9.1136341 -10.233854 -1.1989125 0
9.1551247 -10.211304 -1.19986 0
9.1744223 -10.164058 -1.1979162 0
9.2158184 -10.14135 -1.1988747 0
9.2670078 -10.129236 -1.2011091 0
9.3184509 -10.117146 -1.2033734 0
9.3420334 -10.074754 -1.20205 0
9.3570824 -10.023367 -1.1996553 0
9.3927002 -9.9941349 -1.1999191 0
9.4342747 -9.9711685 -1.2009525 0
9.4378042 -9.908144 -1.1971663 0
9.491374 -9.8977213 -1.1997453 0
9.5369377 -9.8787193 -1.2013111 0
9.5410795 -9.816927 -1.1976801 0
9.5966177 -9.8080597 -1.2005172 0
9.6259766 -9.7723036 -1.2000842 0
9.6660194 -9.7473688 -1.2009952 0
9.6869345 -9.7031746 -1.1995449 0
9.7150936 -9.6663437 -1.1990119 0
9.7571516 -9.6433067 -1.2002056 0
9.7951069 -9.6161127 -1.2009016 0
9.8133593 -9.5696297 -1.1991988 0
9.8458948 -9.5371637 -1.1992605 0
9.8903503 -9.5161591 -1.2007823 0
9.9220896 -9.4828386 -1.2007688 0
9.9488258 -9.4447699 -1.2001654 0
9.9797745 -9.4107361 -1.2000859 0
10.023741 -9.3889027 -1.2015806 0
10.033665 -9.3352404 -1.1990116 0
10.081264 -9.3166618 -1.2009599 0
10.095242 -9.2670183 -1.198917 0
10.133213 -9.2394619 -1.1997408 0
10.153632 -9.1959238 -1.1985011 0
10.194669 -9.1710606 -1.1997087 0
10.221564 -9.1334362 -1.1992635 0
10.271578 -9.116375 -1.2015383 0
10.279531 -9.0620022 -1.1989079 0
10.331609 -9.0465326 -1.2014374 0
10.346657 -8.998601 -1.1996721 0
10.364217 -8.9530153 -1.1982208 0
10.398108 -8.9215899 -1.1986741 0
10.451243 -8.906517 -1.2013502 0
10.461238 -8.85466 -1.1990798 0
10.517052 -8.841548 -1.2020726 0
10.535405 -8.7968588 -1.2007924 0
10.561724 -8.7589016 -1.2004381 0
10.588211 -8.721118 -1.2001185 0
10.629417 -8.695406 -1.2014778 0
10.659708 -8.6606913 -1.2016127 0
10.68116 -8.6188297 -1.2007667 0
10.692878 -8.5692501 -1.1988473 0
10.691992 -8.5098257 -1.1955423 0
10.749976 -8.4972572 -1.1988335 0
10.776053 -8.459321 -1.1985719 0
10.825509 -8.4396343 -1.2009186 0
10.84583 -8.3971643 -1.200043 0
10.857075 -8.3477974 -1.1981834 0
10.905684 -8.3271408 -1.2004601 0
10.931785 -8.289197 -1.2002672 0
10.959195 -8.2522573 -1.200232 0
11.004965 -8.2290478 -1.2022163 0
11.010878 -8.176053 -1.1998607 0
11.045799 -8.1446724 -1.2006837 0
11.072263 -8.1070204 -1.200599 0
11.09182 -8.064353 -1.1997809 0
11.136807 -8.040123 -1.2017245 0
11.17216 -8.0088015 -1.202635 0
11.171627 -7.9518499 -1.1997008 0
11.206225 -7.9200029 -1.2005579 0
11.230109 -7.8805561 -1.2002792 0
11.253261 -7.8406248 -1.1999372 0
11.272317 -7.7978921 -1.1991746 0
11.299063 -7.7605104 -1.1992452 0
11.32894 -7.7252574 -1.1996605 0
11.349152 -7.6834211 -1.199066 0
11.37384 -7.6446486 -1.1989597 0
11.411687 -7.614665 -1.2002512 0
11.421682 -7.5661125 -1.1986277 0
11.46413 -7.5390496 -1.2004229 0
11.494468 -7.5039153 -1.2009583 0
11.512388 -7.4606857 -1.2002105 0
11.556537 -7.4343953 -1.2022076 0
11.563192 -7.3839812 -1.2003179 0
11.573598 -7.3361144 -1.1988379 0
11.634754 -7.3203125 -1.2026236 0
11.653736 -7.2778301 -1.2020566 0
11.6657 -7.2310472 -1.2007833 0
11.699966 -7.1981001 -1.2018194 0
11.718651 -7.1555448 -1.2012676 0
11.72955 -7.1083198 -1.199935 0
11.761703 -7.0739961 -1.2007911 0
11.780351 -7.0315356 -1.2002814 0
11.80009 -6.9897656 -1.199898 0
11.817876 -6.9468808 -1.1993314 0
11.84434 -6.9091082 -1.1996595 0
11.879561 -6.8763742 -1.2008848 0
11.906572 -6.8388162 -1.2012907 0
11.914784 -6.7905083 -1.1998155 0
11.928889 -6.7456613 -1.1989516 0
11.962115 -6.7116179 -1.2000226 0
11.999571 -6.6798348 -1.2015265 0
11.999204 -6.6270299 -1.1992582 0
12.032729 -6.5929942 -1.2003928 0
12.062565 -6.5568523 -1.2011694 0
12.072592 -6.5099611 -1.1999876 0
12.086629 -6.4653168 -1.1992215 0
12.120731 -6.431385 -1.2004589 0
12.141234 -6.3901882 -1.2003608 0
12.154695 -6.3453231 -1.1995815 0
12.195683 -6.3147783 -1.2015305 0
12.229604 -6.2804341 -1.202791 0
12.213326 -6.2204161 -1.1991322 0
12.2391 -6.1819506 -1.1996208 0
12.256879 -6.1394382 -1.1993392 0
12.259298 -6.0893197 -1.1975714 0
12.286928 -6.0517697 -1.1982816 0
12.331273 -6.0223212 -1.2006304 0
12.319019 -5.9652658 -1.1974833 0
12.36139 -5.9347014 -1.1996609 0
12.381025 -5.8931308 -1.1996422 0
12.401971 -5.8521795 -1.1997638 0
12.41559 -5.8077903 -1.1991909 0
12.431422 -5.7644749 -1.1988465 0
12.443018 -5.7192407 -1.1981088 0
12.479671 -5.6854839 -1.1997958 0
12.515009 -5.65099 -1.2013649 0
5.1331367 -2.2971132 -0.49200785 0
5.1222601 -2.2716634 -0.49023256 0
5.1359844 -2.2571735 -0.49081898 0
5.159647 -2.2469625 -0.49235758 0
5.1294036 -2.2133622 -0.48876074 0
5.1239376 -2.1906545 -0.48753729 0
5.1388321 -2.1766725 -0.48825732 0
5.1382871 -2.156152 -0.48751596 0
5.1242962 -2.1301031 -0.48550817 0
5.1164908 -2.1067677 -0.48409668 0
5.1653895 -2.1066749 -0.48805216 0
5.1521554 -2.0811574 -0.48613968 0
5.2168498 -2.0869725 -0.49158105 0
5.2337213 -2.0733931 -0.49251303 0
5.3110147 -2.0834394 -0.49912646 0
5.3537111 -2.0795033 -0.50248098 0
5.433321 -2.0894873 -0.50929248 0
5.4750948 -2.0845075 -0.51255018 0
12.853055 -4.8442063 -1.2017095 0
12.850983 -4.7942796 -1.2000061 0
12.86628 -4.7509055 -1.1999404 0
12.878261 -4.7063246 -1.1995795 0
12.895084 -4.6635237 -1.1996833 0
12.934264 -4.6287141 -1.2018778 0
12.92063 -4.5750246 -1.1991788 0
12.932996 -4.5306625 -1.1989099 0
12.952071 -4.4886465 -1.1992763 0
12.962983 -4.4438019 -1.1989003 0
12.977681 -4.4002709 -1.1988885 0
13.00829 -4.3620763 -1.2003584 0
12.995383 -4.3093314 -1.1978275 0
13.029452 -4.2721939 -1.1996406 0
13.038806 -4.2268968 -1.1991903 0
13.082728 -4.1927142 -1.2019302 0
13.05709 -4.1362748 -1.1982939 0
13.113632 -4.1058578 -1.2022129 0
13.12772 -4.0619893 -1.2022491 0
13.110143 -4.0084362 -1.1994017 0
13.121102 -3.9637308 -1.1991818 0
13.154734 -3.9258089 -1.2010459 0
13.159883 -3.8793411 -1.2003217 0
13.187157 -3.8393719 -1.2016284 0
13.169058 -3.786253 -1.1988157 0
13.210583 -3.750284 -1.2014445 0
13.208608 -3.7019134 -1.2001293 0
13.242619 -3.6636026 -1.2020967 0
13.233134 -3.6132588 -1.2001293 0
13.249261 -3.5699713 -1.2004995 0
13.231651 -3.5176849 -1.1978285 0
13.24081 -3.4726305 -1.1975969 0
13.249124 -3.4273748 -1.1973028 0
13.292915 -3.3911932 -1.2002259 0
13.299424 -3.3454013 -1.1997942 0
13.318297 -3.3027093 -1.2004911 0
13.312242 -3.2538683 -1.1989551 0
13.333636 -3.2117603 -1.1999054 0
13.341217 -3.1662984 -1.1996254 0
13.345066 -3.1199856 -1.1990242 0
13.372387 -3.079124 -1.2005446 0
13.363981 -3.0300422 -1.1988711 0
13.400498 -2.9911182 -1.2012407 0
13.411555 -2.9464147 -1.2013395 0
13.41524 -2.9001091 -1.2007918 0
13.416015 -2.8532267 -1.1999981 0
13.409418 -2.8048642 -1.1985601 0
13.41014 -2.7581189 -1.1977915 0
13.440903 -2.7175069 -1.1997186 0
13.458302 -2.674089 -1.2004647 0
13.452412 -2.6260653 -1.199147 0
13.47722 -2.5840299 -1.2005794 0
13.490196 -2.539655 -1.2009702 0
13.49322 -2.4934101 -1.2004883 0
13.499293 -2.4477549 -1.2002918 0
13.500738 -2.4012914 -1.1996976 0
13.507264 -2.3557596 -1.199569 0
13.519641 -2.3112376 -1.1999731 0
13.499899 -2.2613037 -1.1975412 0
13.537875 -2.2210274 -1.2002426 0
13.564571 -2.1787291 -1.2019551 0
13.553529 -2.1303654 -1.2003369 0
13.560447 -2.0848882 -1.2003238 0
13.56157 -2.0385404 -1.1998115 0
13.588226 -1.9959823 -1.201571 0
13.592366 -1.9500571 -1.2013522 0
13.574352 -1.9010457 -1.1991899 0
13.602547 -1.8585147 -1.2011235 0
13.601954 -1.8119985 -1.2005278 0
13.593725 -1.7645367 -1.1992726 0
13.625735 -1.7222575 -1.2015805 0
13.612361 -1.6742175 -1.1998993 0
13.592706 -1.6255558 -1.1976796 0
13.613227 -1.5817327 -1.1990137 0
13.62954 -1.5373318 -1.1999899 0
13.631425 -1.4912766 -1.1997088 0
13.630788 -1.4449751 -1.1992196 0
13.633955 -1.3991014 -1.1990788 0
13.638331 -1.3533578 -1.1990579 0
13.657115 -1.3089962 -1.2003168 0
13.640522 -1.2612661 -1.19848 0
13.669689 -1.2177534 -1.2006772 0
13.626872 -1.1679016 -1.1965656 0
13.682831 -1.1264977 -1.201141 0
13.668522 -1.0791936 -1.1995605 0
13.706269 -1.0359448 -1.2025616 0
13.67451 -0.98744589 -1.1994779 0
13.674499 -0.94136888 -1.1991934 0
13.683118 -0.89587826 -1.199679 0
13.69655 -0.85064882 -1.2005999 0
13.707971 -0.8052299 -1.2013576 0
13.700278 -0.75869393 -1.2004538 0
13.683551 -0.71175683 -1.1987722 0
13.714529 -0.66726929 -1.2012833 0
13.692599 -0.62019223 -1.1991737 0
13.718386 -0.57527739 -1.2012563 0
13.711801 -0.52895355 -1.2005177 0
13.726965 -0.48345184 -1.2016966 0
13.696815 -0.43641534 -1.1989224 0
13.720526 -0.39112645 -1.2008762 0
13.71813 -0.34503064 -1.2005587 0
13.735934 -0.29939893 -1.2020222 0
13.729178 -0.25320157 -1.20135 0
13.71222 -0.20690128 -1.1997986 0
13.735443 -0.16119091 -1.2017765 0
13.715011 -0.11496252 -1.1999483 0
13.710632 -0.068954453 -1.1995382 0
13.707714 -0.022979753 -1.1992695 0
13.727746 0.023013335 -1.201022 0
13.705264 0.068927459 -1.1990687 0
13.721415 0.11501619 -1.2005086 0
13.707917 0.16086788 -1.1993681 0
13.727467 0.20713131 -1.2011325 0
13.733616 0.25328341 -1.2017382 0
13.733876 0.29935405 -1.2018421 0
13.738283 0.34553748 -1.2023224 0
13.704354 0.39066544 -1.1994609 0
13.705998 0.43670797 -1.1997262 0
13.709051 0.48282093 -1.2001284 0
13.671181 0.52738661 -1.1969612 0
13.723946 0.57551056 -1.2017431 0
13.682471 0.61973345 -1.1982867 0
13.704004 0.66675723 -1.2003615 0
13.730434 0.71419549 -1.2028795 0
13.699524 0.75865215 -1.2003876 0
13.688663 0.80409575 -1.1996654 0
13.693357 0.85045052 -1.2003201 0
13.681421 0.89576721 -1.1995302 0
13.704032 0.94340205 -1.2017833 0
13.661696 0.98652059 -1.1983539 0
13.670747 1.03326 -1.1994449 0
13.663548 1.0788008 -1.199124 0
13.666125 1.1251224 -1.1996745 0
13.665694 1.171229 -1.1999747 0
13.673501 1.218093 -1.201012 0
13.667377 1.2637494 -1.2008395 0
13.656732 1.3089595 -1.2002831 0
13.65634 1.3551447 -1.2006412 0
13.634414 1.3991485 -1.1991192 0
13.614024 1.4431981 -1.1977447 0
13.617774 1.4897833 -1.1985074 0
13.637294 1.5382063 -1.2006725 0
13.614942 1.5819319 -1.1991647 0
13.642307 1.6314876 -1.2020501 0
13.607689 1.673643 -1.1994876 0
13.607878 1.7200004 -1.2000058 0
13.616488 1.7674913 -1.2012808 0
13.594248 1.810972 -1.1998477 0
13.59931 1.8580724 -1.2008376 0
13.574085 1.9010084 -1.1991663 0
13.574145 1.947443 -1.1997417 0
13.584731 1.995469 -1.2012619 0
13.580716 2.0414183 -1.2015054 0
13.580273 2.0879364 -1.2020787 0
1.8483765 0.2905308 -0.1636972 0
1.8462189 0.296538 -0.16359325 0
1.8392849 0.30175355 -0.16306755 0
1.8420979 0.30856103 -0.16340774 0
1.8841203 0.32209805 -0.16723032 0
1.8426807 0.32137617 -0.16364694 0
1.863881 0.33151677 -0.16562749 0
1.873418 0.33969688 -0.16657525 0
1.8528838 0.34239411 -0.16485059 0
1.8899956 0.35580924 -0.16825761 0
1.8867123 0.36174533 -0.16807234 0
1.8565766 0.36242509 -0.16549511 0
1.8761042 0.37277132 -0.16734628 0
1.8614632 0.37635413 -0.16615194 0
1.876418 0.38593063 -0.16760133 0
1.9009353 0.39762095 -0.16990934 0
1.8786004 0.39952791 -0.16803178 0
1.8900909 0.40860018 -0.16918115 0
1.8580722 0.40820402 -0.16643673 0
1.9053088 0.42528298 -0.17079473 0
1.8933554 0.42928424 -0.16985126 0
1.9006608 0.43764588 -0.17063731 0
1.9054184 0.44547382 -0.17119756 0
1.9301698 0.45809117 -0.17355844 0
1.9222982 0.46303657 -0.17298926 0
1.8899856 0.46196309 -0.17021985 0
1.9166834 0.47530463 -0.17276692 0
1.9337001 0.48641226 -0.17444681 0
1.9361743 0.49394286 -0.17481843 0
1.9349273 0.50054038 -0.17485639 0
1.9488939 0.51113099 -0.17627239 0
1.9497733 0.51835465 -0.17650814 0
1.9349276 0.5213601 -0.17532146 0
1.9360418 0.52862912 -0.17558202 0
1.9281026 0.5334143 -0.17502323 0
1.9602981 0.54940337 -0.17811197 0
1.9502095 0.55363488 -0.17736299 0
1.9817511 0.56977582 -0.18040428 0
1.9571543 0.56981528 -0.17833808 0
1.9718132 0.58126169 -0.1798504 0
1.9988869 0.59653419 -0.18250121 0
2.0050387 0.6056987 -0.18324727 0
1.9952298 0.61004311 -0.18253671 0
1.9804367 0.61278832 -0.18137027 0
1.9855858 0.62168384 -0.18203171 0
2.0196583 0.63979512 -0.18535097 0
2.0174985 0.64656198 -0.18535067 0
2.0319505 0.65871406 -0.18688023 0
1.9996481 0.65565944 -0.18411051 0
2.0165184 0.66868716 -0.18586916 0
2.0095084 0.67384934 -0.18543023 0
2.0275018 0.68745387 -0.18730223 0
2.0195274 0.69230825 -0.18677893 0
2.023083 0.70111597 -0.18732412 0
2.0558786 0.72021145 -0.1905833 0
2.0326149 0.71972215 -0.18864939 0
2.065233 0.73907357 -0.1919056 0
2.0305257 0.73434216 -0.18890823 0
2.0378592 0.74472994 -0.18982175 0
2.0525572 0.75791186 -0.19142646 0
2.0623043 0.76937807 -0.19257499 0
2.071058 0.78056401 -0.19363569 0
2.0809495 0.7922703 -0.19480778 0
2.0888994 0.80332619 -0.19580305 0
2.0723171 0.80493516 -0.1945006 0
2.0697007 0.81191558 -0.19450942 0
2.0875454 0.82700276 -0.19644594 0
2.0804532 0.83227396 -0.19604003 0
2.0940723 0.84587783 -0.19758949 0
2.1011705 0.85695058 -0.19852924 0
2.107228 0.86767274 -0.19937532 0
2.1069026 0.87581193 -0.19962125 0
2.1272881 0.89266253 -0.20183514 0
2.1014812 0.89013159 -0.19966865 0
2.1335237 0.91215265 -0.20300254 0
2.1397789 0.92332482 -0.20389113 0
2.1352293 0.92986608 -0.20375356 0
2.1136918 0.92892992 -0.2019944 0
2.1295185 0.944417 -0.20380834 0
2.1574805 0.96548706 -0.20679313 0
2.1767781 0.98289591 -0.20895746 0
2.1618791 0.98490798 -0.2078431 0
2.1386788 0.98301059 -0.20592831 0
2.1677186 1.0051754 -0.20904784 0
12.40757 5.8040385 -1.1984161 0
12.421985 5.8616233 -1.2017 0
12.399933 5.9021306 -1.2014743 0
12.356594 5.9323993 -1.1991955 0
12.366362 5.9881897 -1.2020851 0
12.327562 6.0205088 -1.2002691 0
12.324438 6.0702448 -1.2019398 0
12.282219 6.1007051 -1.1998105 0
12.263229 6.1426187 -1.1999605 0
12.241448 6.1831365 -1.199851 0
12.221519 6.2245884 -1.1999365 0
12.205684 6.2681503 -1.2004384 0
12.189979 6.3118238 -1.2009684 0
12.154446 6.3451929 -1.1995568 0
12.131937 6.3852949 -1.1994416 0
12.125157 6.4337339 -1.2008972 0
12.104465 6.4748573 -1.2009912 0
12.06459 6.5056458 -1.1991922 0
12.065072 6.5582151 -1.2014191 0
12.003679 6.5770769 -1.1974949 0
12.014007 6.6352057 -1.2007377 0
12.000695 6.6804605 -1.2016391 0
11.959504 6.7101531 -1.1997607 0
11.919117 6.7401352 -1.1979694 0
11.925189 6.7964382 -1.2008632 0
11.896183 6.832849 -1.2002425 0
11.879847 6.8765397 -1.2009138 0
11.83531 6.9038405 -1.1987448 0
11.84184 6.9609675 -1.2017633 0
11.821264 7.0023079 -1.202051 0
11.789274 7.0368614 -1.2011905 0
11.777935 7.0837593 -1.2024482 0
11.7489 7.1200466 -1.2019145 0
11.692985 7.1398726 -1.1986365 0
11.681838 7.1869469 -1.1999573 0
11.664869 7.2305326 -1.2006978 0
11.627945 7.2617235 -1.1993965 0
11.598439 7.2974644 -1.1988699 0
11.596376 7.350553 -1.2011974 0
11.561967 7.3831983 -1.2001905 0
11.523396 7.4130759 -1.19876 0
11.493283 7.4483042 -1.1982186 0
11.479384 7.4940686 -1.1993823 0
11.470241 7.5430679 -1.2010627 0
11.416227 7.5624981 -1.1980551 0
11.429383 7.6264725 -1.2021124 0
11.385655 7.6525893 -1.2002051 0
11.360937 7.6914001 -1.2003112 0
11.318259 7.7179732 -1.1985294 0
11.305824 7.7651544 -1.1999629 0
11.268837 7.7954841 -1.1988045 0
11.262721 7.8472166 -1.2009461 0
11.225353 7.8772187 -1.1997709 0
11.195772 7.9126153 -1.1994381 0
11.176551 7.9553552 -1.2002298 0
11.149812 7.9927802 -1.2002293 0
11.124755 8.0314217 -1.200424 0
11.09209 8.0645494 -1.1998101 0
11.047245 8.0887022 -1.1978862 0
11.035243 8.1368895 -1.1995362 0
11.013964 8.1783457 -1.2001971 0
10.971682 8.2041607 -1.1985803 0
10.948777 8.2444124 -1.1990911 0
10.918801 8.2793522 -1.1988416 0
10.89611 8.3198309 -1.1994061 0
10.876018 8.3623629 -1.200274 0
10.847581 8.3985195 -1.2002367 0
10.809916 8.4274778 -1.1991887 0
10.797693 8.4763079 -1.2009789 0
10.758529 8.5040178 -1.1997873 0
10.711385 8.5252609 -1.1977108 0
10.728335 8.5976648 -1.2028227 0
10.661316 8.6028166 -1.1985358 0
10.637024 8.6422606 -1.1990556 0
10.612918 8.6819086 -1.1996129 0
10.59971 8.7305899 -1.201422 0
10.554169 8.752636 -1.1995795 0
10.540902 8.8014488 -1.201419 0
10.49715 8.8248177 -1.1997979 0
10.46733 8.8598156 -1.199778 0
10.43025 8.8886271 -1.1989372 0
10.400389 8.9235468 -1.1989371 0
10.386088 8.9719095 -1.2007494 0
10.353769 9.0047855 -1.2004967 0
10.345098 9.0583439 -1.203006 0
10.294465 9.0751667 -1.2006496 0
10.248831 9.0961866 -1.1988775 0
10.215654 9.1281557 -1.19857 0
10.225666 9.198945 -1.2033565 0
10.181174 9.2208681 -1.2017522 0
10.128895 9.2355251 -1.1992295 0
10.098639 9.2701359 -1.1993204 0
10.095263 9.3295984 -1.2026277 0
10.055175 9.3552523 -1.201582 0
10.011756 9.377677 -1.2001439 0
9.9785385 9.4095707 -1.1999372 0
9.9462624 9.4423361 -1.1998562 0
9.9061728 9.4676266 -1.1988425 0
9.8766356 9.5029631 -1.1991172 0
9.842392 9.5337706 -1.1988338 0
9.821723 9.5777855 -1.2002209 0
9.7971973 9.618165 -1.2011579 0
9.7590857 9.6452179 -1.2004434 0
9.7309208 9.6820917 -1.2009653 0
9.6940155 9.710268 -1.2004218 0
9.6521358 9.7333689 -1.1992702 0
9.6058092 9.7518301 -1.19757 0
9.5947733 9.8061743 -1.2002864 0
9.5612574 9.8376875 -1.2002131 0
9.5089684 9.8497486 -1.197788 0
9.5064821 9.913476 -1.2016549 0
9.4573498 9.9286633 -1.1996455 0
9.414566 9.9503374 -1.1984438 0
9.3909569 9.99228 -1.1996963 0
9.3370161 10.001872 -1.1970826 0
9.3160782 10.046762 -1.1987102 0
9.2988501 10.095865 -1.2008423 0
9.2489643 10.109515 -1.1987705 0
9.2233973 10.149691 -1.1998607 0
9.1770973 10.167021 -1.1982653 0
9.1656981 10.223097 -1.2012457 0
9.1211748 10.242321 -1.1999044 0
9.0835819 10.269226 -1.1994817 0
9.0495214 10.300103 -1.1995375 0
9.0174074 10.333219 -1.1998664 0
8.9799614 10.360222 -1.1994991 0
8.9405737 10.384927 -1.198882 0
8.9226522 10.434665 -1.2011635 0
8.8753481 10.450076 -1.1995054 0
8.8520765 10.493781 -1.2011086 0
8.8122683 10.517941 -1.2004855 0
8.7638788 10.531715 -1.198697 0
8.7388372 10.573524 -1.200114 0
8.7005472 10.599367 -1.1997294 0
8.6588726 10.621011 -1.1988864 0
8.6297321 10.658032 -1.1997926 0
8.6036549 10.698977 -1.2011477 0
8.5599947 10.718071 -1.2000626 0
8.5170889 10.737985 -1.1990881 0
8.4772234 10.761636 -1.1985486 0
8.4439516 10.793651 -1.1989543 0
8.4158392 10.832358 -1.2001129 0
8.3731365 10.852302 -1.1992054 0
8.3407011 10.88553 -1.1997803 0
8.3021641 10.910815 -1.1994925 0
8.2654352 10.938457 -1.1994778 0
8.2329445 10.971745 -1.2000946 0
8.2120686 11.020701 -1.202431 0
8.1664734 11.036552 -1.2011662 0
8.1334658 11.069371 -1.2017634 0
8.0769863 11.0701 -1.1988956 0
8.0557547 11.119105 -1.2012711 0
7.9962225 11.115184 -1.1979442 0
7.9808607 11.17266 -1.201248 0
7.9373646 11.190907 -1.2003419 0
7.9086151 11.229976 -1.2016815 0
7.8705301 11.255874 -1.2016222 0
7.829227 11.277128 -1.2010822 0
7.7771969 11.282749 -1.1988969 0
7.7390351 11.308339 -1.1988522 0
7.7059598 11.34141 -1.1996123 0
7.6867123 11.395083 -1.2025568 0
7.6300383 11.393279 -1.1996598 0
7.5963645 11.425669 -1.2003818 0
7.5489802 11.437387 -1.1989471 0
7.5363073 11.501883 -1.2030523 0
7.4735918 11.490019 -1.1991838 0
7.4423208 11.526309 -1.2003603 0
7.4011087 11.547258 -1.1999511 0
7.3663735 11.57833 -1.2006066 0
7.3304772 11.607658 -1.2010924 0
7.2862725 11.623803 -1.2002285 0
7.234252 11.627261 -1.1980742 0
7.2209353 11.693081 -1.2023549 0
7.1690421 11.69659 -1.2002374 0
7.125772 11.713964 -1.1995618 0
7.0748415 11.718549 -1.1975955 0
7.0480614 11.763148 -1.1997317 0
7.0081515 11.785989 -1.199658 0
6.9704375 11.812541 -1.199975 0
6.9333353 11.840187 -1.2004153 0
6.8919368 11.860507 -1.2001259 0
6.8588572 11.89521 -1.2013037 0
6.8063693 11.896175 -1.1990898 0
6.7643681 11.91527 -1.1987216 0
6.7215872 11.932924 -1.1982238 0
6.693181 11.976221 -1.2003113 0
6.6551132 12.002425 -1.2006944 0
6.6133041 12.021891 -1.2004168 0
6.5598559 12.019985 -1.1980236 0
6.5235281 12.049318 -1.1987605 0
6.4919782 12.087667 -1.2004035 0
6.4648018 12.134494 -1.2028944 0
6.4155498 12.139958 -1.2012972 0
6.3682117 12.148811 -1.2000536 0
6.3280187 12.171202 -1.2001628 0
6.2772741 12.173149 -1.1982727 0
6.2395463 12.200231 -1.1988724 0
6.2026219 12.228999 -1.1996491 0
6.1651597 12.256833 -1.200345 0
6.1231937 12.275757 -1.200181 0
6.0795798 12.291324 -1.1997033 0
6.048008 12.331361 -1.2016251 0
6.0013008 12.340611 -1.2005591 0
5.9620728 12.365188 -1.2009987 0
5.911859 12.366862 -1.1992292 0
5.8814487 12.410007 -1.2014942 0
5.820807 12.389215 -1.197585 0
5.7834754 12.417766 -1.1984636 0
5.7535877 12.462602 -1.2009223 0
5.7051249 12.467299 -1.199525 0
5.6707168 12.502728 -1.2010975 0
5.6252966 12.513952 -1.2003572 0
5.5748553 12.513769 -1.19854 0
5.5451751 12.560267 -1.201206 0
5.4931092 12.556108 -1.1990402 0
5.4465933 12.564335 -1.1980752 0
5.4098763 12.59519 -1.1992811 0
5.3778501 12.637304 -1.2015675 0
5.3308735 12.644411 -1.200537 0
5.2834377 12.650214 -1.1993994 0
5.2389674 12.662958 -1.1989355 0
5.1987028 12.685873 -1.199448 0
5.1576314 12.706906 -1.1997949 0
5.1105204 12.712987 -1.1987444 0
5.0737152 12.74474 -1.2001277 0
5.0312872 12.76252 -1.2002068 0
4.9963174 12.799424 -1.2020952 0
4.9365768 12.772639 -1.1980184 0
4.8974996 12.798985 -1.1989425 0
4.8532572 12.811894 -1.1986208 0
4.8165789 12.844909 -1.2001919 0
4.7743731 12.863377 -1.200415 0
4.7265291 12.866549 -1.1992255 0
4.6850061 12.886842 -1.1996461 0
4.6466422 12.916014 -1.2009047 0
4.6016617 12.926887 -1.2004744 0
4.5479541 12.912884 -1.1977512 0
4.5156999 12.959818 -1.2006935 0
4.4780927 12.991915 -1.2022693 0
4.4255757 12.980658 -1.1998477 0
4.375001 12.974579 -1.1979233 0
4.3368125 13.00518 -1.1993994 0
4.2998028 13.03972 -1.2012484 0
4.2501864 13.036051 -1.1995909 0
4.205153 13.046188 -1.1992197 0
4.1657205 13.073812 -1.2004683 0
4.1261992 13.101474 -1.2017311 0
4.0789661 13.104686 -1.2007647 0
4.0326781 13.110722 -1.2000721 0
3.9941945 13.142255 -1.2017257 0
3.943804 13.134576 -1.1998078 0
3.9010832 13.15224 -1.2002198 0
3.8544381 13.156622 -1.1994337 0
3.8130674 13.17902 -1.2003033 0
3.7643464 13.175935 -1.198866 0
3.7268233 13.212144 -1.201017 0
3.6783695 13.209715 -1.1996684 0
3.632319 13.215643 -1.1990939 0
3.5910554 13.239052 -1.2001187 0
3.5456932 13.247453 -1.199796 0
3.504421 13.271249 -1.2008802 0
3.4631367 13.295328 -1.2020017 0
3.4181693 13.305421 -1.2018712 0
3.3671305 13.291507 -1.1995878 0
