# .PCD v0.7 - Point Cloud Data file format
VERSION 0.7
FIELDS x y z intensity
SIZE 4 4 4 4
TYPE F F F F
COUNT 1 1 1 1
WIDTH 1405
HEIGHT 1
VIEWPOINT 0 0 0 1 0 0 0
POINTS 1405
DATA ascii
2.2634754 0.56130308 -0.4533008 0
2.2496827 0.56589603 -0.45091599 0
2.2562304 0.57559323 -0.45261261 0
2.2643449 0.58575642 -0.45463189 0
2.2649181 0.59401375 -0.45514429 0
2.271678 0.60393423 -0.45690706 0
2.2604322 0.60906631 -0.45505336 0
2.2940726 0.62638813 -0.46224579 0
2.2859378 0.63241023 -0.46103132 0
2.2676785 0.63555139 -0.45777592 0
2.2819278 0.64780468 -0.4610883 0
2.2791569 0.65528339 -0.46096978 0
2.3091655 0.67230147 -0.4674924 0
2.2966425 0.67701662 -0.46541402 0
2.3091168 0.68911707 -0.46840754 0
2.297997 0.69419795 -0.4666214 0
2.3139701 0.70749813 -0.47034386 0
2.2823069 0.70619321 -0.46438655 0
2.3136766 0.72440857 -0.47126099 0
2.3406725 0.74148721 -0.47726333 0
2.3014045 0.73754728 -0.46975815 0
2.2973511 0.74475121 -0.46943787 0
2.3089268 0.75706804 -0.47231925 0
2.3359113 0.77459937 -0.47836781 0
2.3204825 0.77812845 -0.47573978 0
2.3258672 0.78861898 -0.47738314 0
2.3423328 0.8029682 -0.4813126 0
2.3347812 0.80913758 -0.48031563 0
2.3337948 0.81757051 -0.48067391 0
2.3367743 0.82742095 -0.48185623 0
2.3297889 0.83374876 -0.48098955 0
4.4928374 1.6248403 -0.9286747 0
4.4680562 1.6328386 -0.92467874 0
4.4563766 1.6455281 -0.92339826 0
4.4504046 1.6602999 -0.92330915 0
4.4599195 1.6809053 -0.92644709 0
4.4477148 1.6933578 -0.92508602 0
4.4590683 1.7148199 -0.92863816 0
4.4591498 1.7320354 -0.92985928 0
4.4257264 1.7361525 -0.92409819 0
4.4450645 1.7609584 -0.92936361 0
4.4727359 1.7892936 -0.93639809 0
4.4446397 1.7953641 -0.93177098 0
4.4509997 1.8153152 -0.93437505 0
4.4416218 1.8288834 -0.9336884 0
5.6992383 2.3690991 -1.1997192 0
5.6947212 2.3896453 -1.2004482 0
5.67945 2.405664 -1.1989225 0
5.6793852 2.4281268 -1.2006207 0
5.680275 2.4510658 -1.2025392 0
5.6789694 2.4731209 -1.2040114 0
5.6785135 2.4956057 -1.2056822 0
5.6477323 2.5047045 -1.2009228 0
5.6604724 2.5330997 -1.205431 0
5.6294856 2.5419216 -1.2006404 0
5.6263752 2.5632617 -1.2018032 0
5.6025004 2.5751026 -1.1985409 0
5.5960379 2.5948937 -1.199013 0
5.594728 2.6171134 -1.2006056 0
5.5924301 2.6389277 -1.2020046 0
5.5692325 2.6508482 -1.1989222 0
5.5744739 2.6763041 -1.2019753 0
5.5395188 2.6824131 -1.1963708 0
5.5458059 2.7084491 -1.1996832 0
5.5471115 2.7321589 -1.2019404 0
5.517097 2.7403991 -1.1974211 0
5.5195022 2.7647038 -1.1999481 0
5.5032086 2.7796621 -1.1984254 0
5.516397 2.809577 -1.203342 0
5.5077682 2.8284791 -1.2035216 0
5.4853082 2.8402267 -1.2006879 0
5.4736719 2.8575144 -1.2002312 0
5.4615154 2.874511 -1.1996722 0
5.436265 2.8845384 -1.1962434 0
5.4448342 2.9125226 -1.2002711 0
5.4349227 2.9306991 -1.2002456 0
5.4415936 2.9578886 -1.2039021 0
5.4020982 2.9599271 -1.197353 0
5.4133906 2.9897571 -1.202071 0
5.4046078 3.0085983 -1.202354 0
5.3919625 3.0252836 -1.2017905 0
5.3625207 3.032449 -1.1974877 0
5.3439541 3.0456417 -1.1956153 0
5.355999 3.0763426 -1.2006111 0
5.3378596 3.0897708 -1.1988604 0
5.3415728 3.1158767 -1.2020339 0
5.3437452 3.1412041 -1.2048861 0
5.311429 3.1462169 -1.1999712 0
5.2957292 3.1609507 -1.1988119 0
5.2793837 3.1752496 -1.197515 0
5.2900147 3.2058449 -1.2023578 0
5.2650328 3.2148902 -1.1991228 0
5.2622204 3.2374442 -1.2009478 0
5.2375455 3.2465212 -1.197794 0
5.231215 3.2669261 -1.1988444 0
5.2126632 3.2796845 -1.1971061 0
5.2311478 3.3158488 -1.2038976 0
5.1735668 3.3037174 -1.1931884 0
5.2020454 3.3465097 -1.2023375 0
5.1759462 3.3543088 -1.1988978 0
5.1835051 3.3839397 -1.20327 0
5.1538053 3.3892491 -1.1990068 0
5.1493354 3.4110954 -1.2006208 0
5.1217747 3.4176013 -1.1968597 0
5.1158419 3.438488 -1.1981606 0
5.1061997 3.4569175 -1.1986102 0
5.1030979 3.4798262 -1.200614 0
5.1002445 3.5029895 -1.2026992 0
5.0736365 3.5098083 -1.199193 0
5.0629478 3.5275707 -1.1994554 0
5.0620975 3.5522492 -1.2020688 0
5.0573707 3.5742981 -1.2037853 0
5.0072565 3.5641141 -1.1946945 0
5.0039825 3.587122 -1.1967762 0
5.0140476 3.6198487 -1.2020794 0
4.9760809 3.6178801 -1.1958785 0
5.0114231 3.669323 -1.207322 0
4.9765582 3.6694889 -1.2018799 0
4.9604897 3.6833785 -1.2009749 0
4.9559746 3.7058687 -1.2028832 0
4.9508424 3.7279768 -1.2046646 0
4.9150481 3.7269123 -1.1989887 0
4.9160542 3.753701 -1.2022974 0
4.8772297 3.7500093 -1.1958706 0
4.8955202 3.790257 -1.2034645 0
4.8888502 3.8113785 -1.2049595 0
4.8495355 3.8069389 -1.1984088 0
4.8612251 3.8425279 -1.2044744 0
4.8270326 3.8418665 -1.1991874 0
4.825531 3.8671703 -1.2020288 0
4.7971187 3.8708854 -1.1981775 0
4.7973189 3.8976767 -1.2014848 0
4.7740097 3.9053838 -1.1989197 0
4.756794 3.9179955 -1.1978885 0
4.7416906 3.9323127 -1.1973984 0
4.7318492 3.9510021 -1.1982517 0
4.7359776 3.9814749 -1.2026709 0
4.7218633 3.996706 -1.2024828 0
4.7065749 4.0109282 -1.2020073 0
4.6995459 4.0322161 -1.2036581 0
4.6679521 4.0323596 -1.1990222 0
4.6503234 4.0444369 -1.1979705 0
4.6571712 4.0778985 -1.2032499 0
4.6393871 4.0898886 -1.2021912 0
4.6249294 4.1047826 -1.2020044 0
4.5874381 4.0990863 -1.1958257 0
4.5966663 4.1351328 -1.2018386 0
4.588264 4.1554914 -1.2032778 0
4.5751224 4.1715961 -1.2034926 0
4.5426679 4.1699829 -1.1986264 0
4.5463853 4.20157 -1.2033176 0
4.5177679 4.2032948 -1.1994666 0
4.5045514 4.2192626 -1.1997068 0
4.4869108 4.231071 -1.1987801 0
4.493144 4.2654996 -1.2042595 0
4.4692359 4.2713828 -1.2016833 0
4.4493003 4.2809658 -1.2001756 0
4.43963 4.3004198 -1.2014498 0
4.415905 4.3062291 -1.1989297 0
4.391058 4.3108163 -1.1961011 0
4.3855338 4.3343639 -1.1985481 0
4.3874226 4.3654065 -1.2030576 0
4.3473024 4.3545909 -1.1960533 0
4.3459148 4.3824902 -1.1997073 0
4.3247242 4.3904653 -1.1979145 0
4.3181772 4.4133196 -1.200193 0
4.3003531 4.4246831 -1.1993555 0
4.2848864 4.4384475 -1.1991856 0
4.2641244 4.446681 -1.1975406 0
4.2681537 4.4808598 -1.2028847 0
4.2475667 4.4892907 -1.201318 0
4.2256737 4.4962525 -1.199383 0
4.2148552 4.5149803 -1.2006023 0
4.1816478 4.5096254 -1.1954434 0
4.1763229 4.5342808 -1.1982605 0
4.1492424 4.5352998 -1.1948467 0
4.1438713 4.5600343 -1.1976961 0
4.1374168 4.5837159 -1.2002658 0
4.1049123 4.5784745 -1.1952828 0
4.1117806 4.617188 -1.2017837 0
4.0880623 4.6216612 -1.1993736 0
4.0531979 4.6133227 -1.1936762 0
4.0615139 4.6541662 -1.2007141 0
4.0383053 4.6590109 -1.1984642 0
4.0376654 4.6899524 -1.2029343 0
4.011642 4.6914454 -1.1998606 0
3.9935877 4.7021589 -1.1991694 0
3.9727004 4.7094769 -1.1976321 0
3.9818456 4.7525587 -1.205186 0
3.9476402 4.7439523 -1.1996404 0
3.94683 4.7754531 -1.2042531 0
3.919533 4.7749372 -1.2008023 0
3.900739 4.7846632 -1.1999525 0
3.8753753 4.7862296 -1.1970799 0
3.8634896 4.8043985 -1.1983776 0
3.8388438 4.8066616 -1.195725 0
3.8293097 4.8278308 -1.1977905 0
3.8183904 4.8473573 -1.1994519 0
3.8020961 4.860106 -1.1994454 0
3.7919943 4.8808255 -1.2014143 0
3.7727075 4.8897514 -1.2004912 0
3.7382195 4.878787 -1.1947155 0
3.7415154 4.9171495 -1.201031 0
3.7201455 4.9232316 -1.1994631 0
3.7101023 4.9443183 -1.2015632 0
3.6912739 4.9537368 -1.2008377 0
3.6728747 4.9636936 -1.2002594 0
3.6494927 4.966836 -1.1980537 0
3.6252084 4.9686127 -1.1955438 0
3.6205552 4.9973388 -1.1995281 0
3.6031237 5.0085378 -1.1993097 0
3.5776305 5.0084386 -1.196407 0
3.5800846 5.0475693 -1.2028803 0
3.5614994 5.0572133 -1.2023262 0
3.5308166 5.0495234 -1.1976767 0
3.5161912 5.0646815 -1.198469 0
3.5103269 5.092598 -1.2022831 0
3.4863279 5.0942497 -1.1999067 0
3.4740369 5.1129875 -1.2015699 0
3.4490764 5.1130462 -1.1988593 0
3.4391863 5.1354408 -1.2013998 0
3.4169445 5.1394157 -1.1996429 0
3.4013522 5.1533561 -1.2002281 0
3.3805909 5.1594443 -1.1989995 0
3.3715575 5.183486 -1.2019528 0
3.3400869 5.1729665 -1.19691 0
3.3204961 5.1806598 -1.1961074 0
3.3160133 5.2120485 -1.2007807 0
3.2897489 5.209249 -1.1975878 0
3.2797678 5.2322192 -1.2003338 0
3.2627938 5.2441297 -1.2005498 0
3.2485294 5.2604432 -1.2017843 0
3.2215843 5.2561488 -1.1983289 0
3.1953318 5.2527637 -1.1951079 0
3.1990573 5.2988195 -1.2031394 0
3.169174 5.2893219 -1.1985635 0
3.1526599 5.3019996 -1.1990342 0
3.1203675 5.287971 -1.1934891 0
3.1209965 5.3297844 -1.2005577 0
3.0918617 5.3208623 -1.1962062 0
3.0798163 5.3412781 -1.1984679 0
3.0632112 5.3538818 -1.1989846 0
3.0611298 5.3921056 -1.2052395 0
3.0270319 5.3739305 -1.1989017 0
3.0076408 5.3816228 -1.1983613 0
2.9937804 5.399251 -1.2000448 0
2.9661601 5.3919873 -1.1962134 0
2.9598799 5.4235506 -1.2010072 0
2.939235 5.4289298 -1.2000095 0
2.9172816 5.4318004 -1.1984751 0
2.9064341 5.4554043 -1.2015263 0
2.8840349 5.4573755 -1.199824 0
2.8734736 5.4818044 -1.2030699 0
2.8440902 5.4702735 -1.1984398 0
2.8204877 5.4696064 -1.196215 0
2.8058388 5.4862771 -1.1977968 0
2.7928989 5.5064387 -1.2001475 0
2.7620122 5.4911022 -1.1947798 0
2.7598612 5.5329604 -1.2018672 0
2.729109 5.5175462 -1.1965246 0
2.7249484 5.555932 -1.2028608 0
2.7130277 5.5788608 -1.2058488 0
2.6807158 5.5597367 -1.1997658 0
2.6567581 5.5576019 -1.1973763 0
2.6510952 5.5938787 -1.2032701 0
2.6226094 5.582057 -1.1988291 0
2.6078224 5.5992851 -1.2006445 0
2.5786705 5.5855484 -1.1958383 0
2.56177 5.5981865 -1.1966984 0
2.5504947 5.6232991 -1.2002319 0
2.5302954 5.6288581 -1.1996009 0
2.5103812 5.6350036 -1.19911 0
2.5021315 5.6675286 -1.2042394 0
2.4769804 5.6618629 -1.2012641 0
2.4593711 5.6733375 -1.2019424 0
2.4302707 5.6581187 -1.1969851 0
2.4087992 5.6603899 -1.1957504 0
2.392653 5.6751842 -1.1971742 0
2.3670156 5.6673813 -1.1938473 0
2.3526485 5.6865196 -1.1962105 0
2.3349638 5.6977782 -1.1969253 0
2.3207428 5.7176366 -1.1994556 0
2.3057845 5.7358947 -1.2016574 0
2.2871027 5.7450066 -1.2019531 0
2.2616813 5.737051 -1.1986954 0
2.2469008 5.7560463 -1.2010834 0
2.2273641 5.7629652 -1.2009621 0
2.2079442 5.7701778 -1.2009157 0
2.1841829 5.7659259 -1.1984999 0
2.1629558 5.7681956 -1.1974576 0
2.1543634 5.8044043 -1.203468 0
2.1260264 5.7874651 -1.1984713 0
2.1127641 5.8114886 -1.2019724 0
2.0817823 5.7866149 -1.1953775 0
2.0674603 5.8078642 -1.1983284 0
2.051682 5.8252859 -1.2004969 0
2.0320778 5.8319545 -1.2004604 0
2.0107076 5.833498 -1.1993836 0
1.9950851 5.8517847 -1.2017614 0
1.9772292 5.8637056 -1.2028413 0
1.9517535 5.8528948 -1.1992747 0
1.940887 5.8859963 -1.204717 0
1.9128234 5.8669577 -1.1995009 0
1.8943512 5.8770905 -1.2002672 0
1.8644041 5.8512969 -1.193716 0
1.8510318 5.8773804 -1.1977645 0
1.8294555 5.8775773 -1.1965479 0
1.8145534 5.8993311 -1.1997312 0
1.7983493 5.9171791 -1.2021279 0
1.7673105 5.8859096 -1.1945647 0
1.7615929 5.9390917 -1.2041527 0
1.7352844 5.9231672 -1.1997377 0
1.7177664 5.937078 -1.2013819 0
1.6954079 5.9342527 -1.1996534 0
1.6691821 5.9174991 -1.1951283 0
1.6521225 5.9330821 -1.1971501 0
1.6376271 5.9582586 -1.2011154 0
1.6182269 5.9658751 -1.2015504 0
1.5918878 5.9476266 -1.1967933 0
1.568857 5.9412642 -1.1944479 0
1.5561529 5.974227 -1.2000191 0
1.5273246 5.945199 -1.193153 0
1.5207641 6.0031075 -1.2037448 0
1.5023845 6.0152044 -1.2051536 0
1.4757591 5.9940138 -1.1999099 0
1.4578004 6.0077734 -1.2016792 0
1.4407586 6.0256314 -1.2042782 0
1.4169219 6.0150361 -1.2012044 0
1.3884157 5.9838481 -1.1940398 0
1.3759018 6.0215406 -1.2006339 0
1.3465759 5.9855409 -1.192549 0
1.3337156 6.0226049 -1.1990359 0
1.311977 6.0199842 -1.1976316 0
1.2932755 6.0312967 -1.1990128 0
1.2744603 6.0423021 -1.2003444 0
1.2549425 6.050148 -1.2010604 0
1.2333295 6.0478439 -1.1997753 0
1.2113928 6.0437007 -1.198141 0
1.1892345 6.0381417 -1.1962417 0
1.1753092 6.0747929 -1.2027154 0
1.1535356 6.0713339 -1.2012582 0
1.1360778 6.0907402 -1.2043374 0
1.1115409 6.0720663 -1.1999012 0
1.0956463 6.1006489 -1.2048168 0
1.0757545 6.1075172 -1.2054541 0
1.0529729 6.0977812 -1.2028289 0
1.0319543 6.0979199 -1.202167 0
1.0074142 6.0766811 -1.1973072 0
0.98663104 6.0775385 -1.1968178 0
0.97217637 6.1181169 -1.20416 0
0.94763583 6.0954704 -1.1990706 0
0.92900395 6.1105208 -1.2014118 0
0.91541636 6.1600676 -1.210543 0
0.88634336 6.105144 -1.199159 0
0.86371505 6.0928869 -1.1961761 0
0.84854394 6.1337857 -1.2036401 0
0.8248505 6.1134481 -1.1990999 0
0.80552864 6.1251521 -1.200859 0
0.7853052 6.1302972 -1.2013447 0
0.76126117 6.1049409 -1.1958688 0
0.74280745 6.1241069 -1.1991285 0
0.72173166 6.121994 -1.1982343 0
0.70169199 6.1286616 -1.199072 0
0.68088102 6.1286502 -1.1986165 0
0.66046667 6.1321774 -1.1988665 0
0.64121938 6.1469769 -1.2013328 0
0.62278169 6.1706486 -1.2055441 0
0.60006225 6.1519217 -1.2014858 0
0.57880038 6.1471839 -1.2001747 0
0.55683243 6.1341701 -1.1972626 0
0.53843814 6.1608958 -1.2021198 0
0.51676464 6.1505961 -1.1997653 0
0.49500576 6.1382294 -1.1970226 0
0.47586924 6.158576 -1.2006725 0
0.45566058 6.1661258 -1.2018398 0
0.4347294 6.1640067 -1.2011359 0
0.41256586 6.1431785 -1.1968009 0
0.39175197 6.1411619 -1.1961455 0
0.37166288 6.1507702 -1.1977675 0
0.35127723 6.1561666 -1.1985823 0
0.33259839 6.1938777 -1.2057005 0
0.31044039 6.1673584 -1.2003291 0
0.29112482 6.1974049 -1.2059801 0
0.26979429 6.1857319 -1.2035258 0
0.2484417 6.1714125 -1.2005708 0
0.22757098 6.1673937 -1.199634 0
0.20729415 6.1801233 -1.2019681 0
0.18661781 6.1822948 -1.2022619 0
0.16615368 6.1927619 -1.2041824 0
0.1454833 6.1972771 -1.2049587 0
0.12451897 6.1885242 -1.2031689 0
0.10332973 6.1626897 -1.1980721 0
0.082925536 6.1822901 -1.2018217 0
0.062435154 6.2062044 -1.2064232 0
0.041452345 6.1804023 -1.2013737 0
0.020738252 6.1828508 -1.2018294 0
8.1974003e-06 6.1783481 -1.2009474 0
-0.020799801 6.2061105 -1.2063507 0
-0.041379046 6.1719155 -1.1997241 0
-0.062336601 6.1980433 -1.2048366 0
-0.082485273 6.1506844 -1.1956776 0
-0.10393246 6.1996188 -1.2052513 0
-0.12437723 6.1822953 -1.2019578 0
-0.14493378 6.1745663 -1.2005429 0
-0.16499969 6.1503606 -1.1959373 0
-0.18624961 6.17064 -1.1999953 0
-0.20609991 6.1450062 -1.195138 0
-0.22724034 6.1588764 -1.1979771 0
-0.24848148 6.1728082 -1.2008423 0
-0.26810563 6.1473899 -1.1960657 0
-0.29020464 6.1781659 -1.2022361 0
-0.30949873 6.1489758 -1.1967511 0
-0.33062339 6.157403 -1.1986002 0
-0.35215616 6.1718578 -1.2016371 0
-0.37225074 6.1607699 -1.1997147 0
-0.39328367 6.1654305 -1.2008722 0
-0.41494012 6.1787767 -1.2037359 0
-0.43351728 6.1470523 -1.1978319 0
-0.45420414 6.1466384 -1.1980413 0
-0.47603536 6.1609387 -1.2011328 0
-0.49655735 6.1576738 -1.2008141 0
-0.51804453 6.1660256 -1.2027749 0
-0.53768504 6.1524663 -1.2004749 0
-0.55620545 6.1274438 -1.1959494 0
-0.57839203 6.1430216 -1.1993617 0
-0.59916854 6.1429276 -1.1997288 0
-0.61954653 6.1387568 -1.1993133 0
-0.63816005 6.1178064 -1.1956315 0
-0.66227269 6.1490984 -1.2021743 0
-0.67982501 6.1192932 -1.1967862 0
-0.70344436 6.1441112 -1.2020944 0
-0.72378641 6.1395636 -1.2016727 0
-0.74946165 6.1791048 -1.209897 0
-0.76559025 6.1397905 -1.2026949 0
-0.78746176 6.1472616 -1.2046688 0
-0.80745339 6.1399136 -1.2037526 0
-0.82458442 6.1115985 -1.1987365 0
-0.84736067 6.1253519 -1.2019848 0
-0.86700684 6.1162248 -1.2007574 0
-0.88946736 6.1267762 -1.2034076 0
-0.90646785 6.0999622 -1.1987311 0
-0.92587066 6.0900202 -1.1973807 0
-0.95018727 6.1119885 -1.2023195 0
-0.96380436 6.0655341 -1.1938101 0
-0.98831087 6.0879884 -1.1988751 0
-1.0032248 6.0515103 -1.1923473 0
-1.0311397 6.0932055 -1.2012371 0
-1.047366 6.0654073 -1.1964424 0
-1.0727206 6.0903873 -1.2020726 0
-1.0939248 6.0911565 -1.2029415 0
-1.114207 6.0867219 -1.2027967 0
-1.1309569 6.0633755 -1.1989259 0
-1.1503936 6.0548849 -1.1980029 0
-1.1687719 6.0410895 -1.1960421 0
-1.1937426 6.0611157 -1.2007926 0
-1.2109699 6.0416741 -1.1977385 0
-1.2383242 6.0724187 -1.2046498 0
-1.2587991 6.0688214 -1.2047668 0
-1.2756672 6.0481033 -1.2014962 0
-1.298105 6.0538979 -1.2035052 0
-1.3125927 6.0228868 -1.1982083 0
-1.3373417 6.0390553 -1.2023102 0
-1.3601848 6.0461073 -1.2046154 0
-1.3777369 6.0296454 -1.2022492 0
-1.3954667 6.0143089 -1.2001173 0
-1.4169737 6.0153279 -1.2012619 0
-1.4344914 5.9994907 -1.1990529 0
-1.4519954 5.9839191 -1.1969072 0
-1.4779038 6.0027938 -1.2016668 0
-1.5012783 6.0108428 -1.2042791 0
-1.5127325 5.9714704 -1.1974001 0
-1.5375946 5.9852414 -1.2011884 0
-1.5604166 5.9906607 -1.2033193 0
-1.5735248 5.9590054 -1.1980138 0
-1.6009341 5.9814892 -1.2036064 0
-1.6184822 5.9668794 -1.2017517 0
-1.6394917 5.9651041 -1.2024945 0
-1.6554952 5.9452548 -1.1996053 0
-1.673955 5.9344797 -1.1985569 0
-1.6964395 5.9379234 -1.2003944 0
-1.7134811 5.9223256 -1.1983958 0
-1.7373391 5.9302392 -1.2011691 0
-1.7520956 5.9071298 -1.1976715 0
-1.7703155 5.8959746 -1.1966064 0
-1.7866644 5.8787875 -1.1943274 0
-1.8154341 5.9022503 -1.2003238 0
-1.8334341 5.8904147 -1.1991603 0
-1.8503242 5.8751884 -1.1973168 0
-1.8695402 5.8674698 -1.1970146 0
-1.8934569 5.8743691 -1.1997104 0
-1.9094279 5.8565955 -1.1973814 0
-1.9386545 5.8792787 -1.203341 0
-1.9457194 5.8348513 -1.1955763 0
-1.9761328 5.8605051 -1.2021838 0
-1.9914432 5.8411531 -1.199577 0
-2.0140979 5.8433838 -1.2014152 0
-2.0302982 5.8268971 -1.1994183 0
-2.0531495 5.8295012 -1.2013645 0
-2.0687876 5.8116417 -1.1991067 0
-2.0929141 5.8176055 -1.2017783 0
-2.1119726 5.8093591 -1.2015308 0
-2.1285717 5.7944422 -1.1999149 0
-2.1434994 5.7751803 -1.1974077 0
-2.1758213 5.8025527 -1.2045888 0
-2.1873517 5.7743368 -1.200247 0
-2.2022307 5.7552919 -1.1978163 0
-2.225878 5.7591653 -1.200169 0
-2.2486968 5.7606926 -1.2020516 0
-2.2646132 5.7445326 -1.2002573 0
-2.2837644 5.7366657 -1.2002066 0
-2.3042023 5.7320032 -1.2008408 0
-2.3232918 5.7239599 -1.2007809 0
-2.3343797 5.6963954 -1.1966336 0
-2.3475387 5.674211 -1.1936201 0
-2.3750882 5.6867518 -1.1979265 0
-2.3937123 5.6777387 -1.1977118 0
-2.4139025 5.6724243 -1.1982913 0
-2.4384193 5.6771312 -1.2010059 0
-2.4452288 5.6407552 -1.1950382 0
-2.4772601 5.6625433 -1.2014072 0
-2.4986281 5.6596341 -1.2025605 0
-2.5126178 5.6400642 -1.2001857 0
-2.5303051 5.6289196 -1.1996126 0
-2.5629227 5.6507406 -1.2060875 0
-2.5758371 5.6289668 -1.2032766 0
-2.5921702 5.6148291 -1.2021056 0
-2.6027327 5.5883956 -1.198308 0
-2.6195521 5.5755882 -1.1974382 0
-2.6437411 5.5784001 -1.1999391 0
-2.6621392 5.5688968 -1.1998081 0
-2.6769021 5.5518646 -1.1980655 0
-2.6929696 5.537652 -1.1969402 0
-2.7079477 5.5213056 -1.1953628 0
-2.7307765 5.5209541 -1.1972622 0
-2.7668998 5.5471077 -1.2049388 0
-2.7721252 5.5112443 -1.1991607 0
-2.7907445 5.5022278 -1.199228 0
-2.8120165 5.4983926 -1.2004403 0
-2.8358533 5.4994392 -1.202738 0
-2.8576891 5.4964652 -1.2041763 0
-2.879663 5.4936471 -1.2056673 0
-2.8968043 5.4815736 -1.2051424 0
-2.9003572 5.4440331 -1.1990201 0
-2.9145041 5.4266634 -1.19734 0
-2.9452415 5.4400587 -1.2024676 0
-2.9515274 5.4082804 -1.197624 0
-2.9718134 5.4022985 -1.198499 0
-2.9985597 5.4079041 -1.2019663 0
-3.0116169 5.3887706 -1.1999513 0
-3.0401659 5.3972807 -1.2041092 0
-3.0621321 5.3939052 -1.2056398 0
-3.0723917 5.3699608 -1.2025837 0
-3.0743659 5.3318582 -1.1963524 0
-3.1134543 5.3580546 -1.2045656 0
-3.1146584 5.3189931 -1.1981251 0
-3.1325049 5.3085718 -1.1981368 0
-3.1624718 5.3185329 -1.2027713 0
-3.1694338 5.2897873 -1.198667 0
-3.1968603 5.2952123 -1.2023184 0
-3.2306447 5.3108463 -1.2083209 0
-3.2278728 5.2664399 -1.2006731 0
-3.2358146 5.2398844 -1.1970856 0
-3.2711136 5.2575331 -1.2036164 0
-3.2736735 5.222528 -1.1981086 0
-3.3046305 5.2328448 -1.2030104 0
-3.3064513 5.1970496 -1.1973232 0
-3.3361959 5.2051854 -1.2017678 0
-3.356318 5.1981344 -1.2027313 0
-3.3588378 5.1639605 -1.1974232 0
-3.3915231 5.1761589 -1.2028818 0
-3.4024363 5.1550279 -1.2006154 0
-3.4178281 5.1407743 -1.199958 0
-3.4214396 5.1089706 -1.1952052 0
-3.4509614 5.1158695 -1.1995193 0
-3.4804277 5.1224222 -1.2037851 0
-3.4830925 5.089551 -1.1987979 0
-3.5253713 5.1144528 -1.2074405 0
-3.5184522 5.0679665 -1.1992443 0
-3.5344622 5.0547657 -1.1989179 0
-3.5575728 5.0516663 -1.2010051 0
-3.5806229 5.0483565 -1.2030658 0
-3.5935638 5.0307722 -1.2017397 0
-3.6206639 5.0329475 -1.2051524 0
-3.6125221 4.9862785 -1.196871 0
-3.6326761 4.9788756 -1.1980108 0
-3.649924 4.9674506 -1.1981996 0
-3.6684549 4.9577479 -1.1988194 0
-3.6862338 4.9470005 -1.1992023 0
-3.6950605 4.9242997 -1.1966959 0
-3.7104654 4.9104481 -1.1963463 0
-3.7473288 4.9248166 -1.2029012 0
-3.751416 4.8960371 -1.1989371 0
-3.793772 4.9170804 -1.2071983 0
-3.8063955 4.8993883 -1.2059811 0
-3.8137031 4.8749695 -1.2031112 0
-3.8136902 4.8414168 -1.1979795 0
-3.8115585 4.8054771 -1.1922419 0
-3.8569694 4.8293834 -1.2013748 0
-3.8750803 4.8188381 -1.2019768 0
-3.8924944 4.8073983 -1.2023718 0
-3.8899829 4.7714958 -1.1966476 0
-3.9282 4.7855215 -1.2034615 0
-3.9419599 4.7695861 -1.2027709 0
-3.9411695 4.7362022 -1.1976779 0
-3.9710524 4.7397017 -1.201923 0
-3.9793646 4.7174025 -1.1996448 0
-4.0127635 4.724762 -1.204931 0
-4.0139155 4.6941295 -1.2005444 0
-4.0349259 4.6867952 -1.2021217 0
-4.0445595 4.6662517 -1.2003239 0
-4.0621867 4.6549621 -1.2009166 0
-4.0808964 4.6448731 -1.2018371 0
-4.0850272 4.6182547 -1.1984868 0
-4.117918 4.6241045 -1.2035811 0
-4.1201715 4.5955191 -1.1997296 0
-4.1309228 4.5765452 -1.1983854 0
-4.1390128 4.5547123 -1.1962954 0
-4.1511245 4.5373816 -1.1953923 0
-4.1880512 4.5470386 -1.201629 0
-4.19277 4.5216441 -1.1986264 0
-4.215435 4.5156255 -1.2007709 0
-4.2314467 4.5024195 -1.2010251 0
-4.2496996 4.491569 -1.2019247 0
-4.2315612 4.4424677 -1.1925753 0
-4.2755466 4.4586163 -1.2007519 0
-4.2966652 4.4506717 -1.2024853 0
-4.2896295 4.4136724 -1.1963679 0
-4.3187284 4.4139061 -1.2003495 0
-4.3325877 4.3984718 -1.2000959 0
-4.3478231 4.3844376 -1.2002373 0
-4.3692646 4.3766127 -1.2020987 0
-4.3872533 4.3652616 -1.2030145 0
-4.3863173 4.3351617 -1.1987654 0
-4.3887744 4.3085976 -1.1954821 0
-4.4292994 4.319314 -1.2025694 0
-4.4491215 4.3096361 -1.2040213 0
-4.478354 4.3089428 -1.2080158 0
-4.4639621 4.2663651 -1.2002684 0
-4.4798465 4.2528982 -1.2006986 0
-4.504849 4.2480087 -1.2035756 0
-4.5114846 4.2257795 -1.2015563 0
-4.5184631 4.2039638 -1.1996541 0
-4.5185471 4.1758657 -1.1959525 0
-4.5633392 4.1889806 -1.2040837 0
-4.5749025 4.1714177 -1.2034377 0
-4.579144 4.1472535 -1.200889 0
-4.6105351 4.1476307 -1.2054676 0
-4.6071315 4.1167049 -1.2009621 0
-4.62324 4.1033049 -1.2015682 0
-4.6194692 4.0723515 -1.1970328 0
-4.6294394 4.0536375 -1.1960877 0
-4.6527276 4.0465498 -1.1985927 0
-4.6823077 4.0447822 -1.2027124 0
-4.6707573 4.0075369 -1.1962874 0
-4.680687 3.988888 -1.1953984 0
-4.7168674 3.9924986 -1.2012132 0
-4.747066 3.990818 -1.2054894 0
-4.7343826 3.9531388 -1.1988959 0
-4.7417994 3.9324243 -1.1974286 0
-4.7754641 3.9333944 -1.2025927 0
-4.7688251 3.9011633 -1.1976202 0
-4.7865224 3.888926 -1.1987834 0
-4.8170528 3.8869917 -1.203159 0
-4.8218384 3.8642321 -1.2011114 0
-4.8485527 3.8590155 -1.2045361 0
-4.8322215 3.8196228 -1.1972907 0
-4.861455 3.8163166 -1.2013568 0
-4.8699007 3.7966261 -1.2002915 0
-4.9016662 3.7950363 -1.2049779 0
-4.9096856 3.7749846 -1.2038311 0
-4.8926849 3.7358778 -1.1965846 0
-4.9064097 3.7203827 -1.1968838 0
-4.9366603 3.7173181 -1.2012161 0
-4.9474249 3.6994958 -1.2008104 0
-4.9445667 3.6715755 -1.1971222 0
-4.9863071 3.6766977 -1.2042366 0
-4.973012 3.6412189 -1.1980705 0
-4.9969258 3.6330557 -1.2008904 0
-5.0073304 3.6150193 -1.2004712 0
-5.0285497 3.6047533 -1.2026541 0
-5.009594 3.5657978 -1.1952544 0
-5.0295496 3.5546556 -1.1971654 0
-5.0436983 3.5393579 -1.1977019 0
-5.061017 3.5262458 -1.1990002 0
-5.0723419 3.5089326 -1.1988893 0
-5.0965433 3.5004675 -1.2018287 0
-5.1161089 3.4887183 -1.2036773 0
-5.1041493 3.4555492 -1.1981311 0
-5.1195207 3.44098 -1.1990243 0
-5.1326089 3.4248502 -1.1993935 0
-5.1521397 3.4129727 -1.2012768 0
-5.147861 3.3853595 -1.197626 0
-5.1790018 3.3810191 -1.2022266 0
-5.1871495 3.361589 -1.2014949 0
-5.2117729 3.3527873 -1.2045878 0
-5.2014031 3.3215125 -1.1996105 0
-5.2214174 3.3097005 -1.2016603 0
-5.2307501 3.2910838 -1.2012619 0
-5.2275352 3.2646472 -1.1980032 0
-5.2560687 3.2580221 -1.202032 0
-5.2296472 3.2174234 -1.1935158 0
-5.2739434 3.2203505 -1.2011542 0
-5.2762156 3.1975014 -1.1992233 0
-5.2834787 3.1777318 -1.1984458 0
-5.2850809 3.1546137 -1.1964034 0
-5.316288 3.1491141 -1.2010709 0
-5.3337688 3.135359 -1.2026385 0
-5.3399134 3.1149278 -1.2016623 0
-5.3406177 3.0913863 -1.1994817 0
-5.3857894 3.0934722 -1.2072908 0
-5.3683376 3.0595572 -1.2010725 0
-5.3884048 3.0471051 -1.2032697 0
-5.3846388 3.0211933 -1.2001599 0
-5.3870687 2.9988534 -1.1984538 0
-5.3899713 2.9768414 -1.1968724 0
-5.4051037 2.9615924 -1.1980209 0
-5.4255748 2.9492002 -1.2003598 0
-5.4255986 2.9256897 -1.1981881 0
-5.4365616 2.9081156 -1.1984491 0
-5.4527326 2.8932948 -1.1998687 0
-5.4783163 2.8833723 -1.2033644 0
-5.4779739 2.8597786 -1.2011762 0
-5.4808674 2.8379457 -1.1997175 0
-5.4929848 2.8209054 -1.2002929 0
-5.5189295 2.8108854 -1.203896 0
-5.5181274 2.7872159 -1.2016758 0
-5.5264611 2.768208 -1.2014626 0
-5.5325212 2.7480786 -1.2007703 0
-5.5243258 2.7209542 -1.1970048 0
-5.5514274 2.7112126 -1.2009008 0
-5.5778785 2.7010064 -1.204657 0
-5.5834227 2.6806188 -1.2039065 0
-5.5759549 2.6540661 -1.2003708 0
-5.5701742 2.628444 -1.1972225 0
-5.5861683 2.6131272 -1.1987702 0
-5.613678 2.6030915 -1.2027941 0
-5.6244597 2.5852139 -1.2032402 0
-5.5919237 2.5475843 -1.1944457 0
-5.6356168 2.5447078 -1.2019495 0
-5.6474404 2.5272856 -1.2026572 0
-5.6697035 2.5144663 -1.2055961 0
-5.6755605 2.4943256 -1.2050565 0
-5.6827693 2.4747939 -1.2048186 0
-5.6584411 2.4416623 -1.1979183 0
-5.6857162 2.4308515 -1.2019604 0
-5.6736531 2.4032264 -1.1977001 0
-5.6747532 2.381284 -1.1962402 0
-5.7065811 2.372169 -1.2012662 0
-5.708961 2.3507409 -1.2001013 0
-5.7103262 2.3289421 -1.19874 0
-5.7241173 2.3122129 -1.200001 0
-5.7286649 2.291739 -1.1993368 0
-5.7473431 2.2768872 -1.2016423 0
-5.7373381 2.2506976 -1.1979659 0
-5.7572899 2.23628 -1.2005596 0
-5.7722116 2.2198317 -1.2021123 0
-5.785697 2.2027793 -1.2033759 0
-5.7769575 2.1773033 -1.2000332 0
-5.7806535 2.1565895 -1.1992922 0
-5.7850618 2.1361659 -1.198714 0
-5.8050575 2.1214595 -1.2013767 0
-5.8426352 2.113014 -1.2076806 0
-5.808167 2.0785542 -1.1991087 0
-5.81108 2.0576441 -1.1982791 0
-5.8284383 2.0418248 -1.20044 0
-5.8335657 2.0216875 -1.2000933 0
-5.8471036 2.0044456 -1.201489 0
-5.8238039 1.9746624 -1.1953341 0
-5.8581543 1.9644349 -1.2010258 0
-5.8593307 1.9429995 -1.1999247 0
-5.8628759 1.9223806 -1.199324 0
-5.8794637 1.9060111 -1.2014033 0
-5.8802533 1.8845035 -1.2002668 0
-5.8782673 1.8621571 -1.1985803 0
-5.8966446 1.8462476 -1.2010585 0
-5.8940587 1.8237615 -1.1992795 0
-5.895556 1.8025879 -1.1983477 0
-5.9162068 1.7872338 -1.2013205 0
-5.900599 1.7609515 -1.1969457 0
-5.9176598 1.7444566 -1.1992133 0
-5.909492 1.7205348 -1.1963823 0
-5.9650235 1.7150288 -1.2064538 0
-5.9487004 1.6887628 -1.2020005 0
-5.9608417 1.6706337 -1.2033151 0
-5.9139843 1.636135 -1.1927419 0
-5.9590478 1.6271131 -1.2007234 0
-5.9356112 1.5993484 -1.1949137 0
-5.9560099 1.5834448 -1.1979448 0
-5.9795527 1.5682577 -1.2016158 0
-5.9803247 1.5470487 -1.2007217 0
-5.9677887 1.5224762 -1.1971732 0
-5.9765153 1.5033783 -1.1979059 0
-5.963407 1.4788394 -1.194278 0
-5.9804182 1.4617913 -1.1966965 0
-6.0311918 1.4527897 -1.2058749 0
-5.9970727 1.4233143 -1.1980922 0
-6.0199199 1.407433 -1.2017072 0
-6.023088 1.3868923 -1.2014047 0
-6.0653138 1.3752177 -1.2089008 0
-6.031384 1.3462789 -1.2012317 0
-6.0268617 1.3240715 -1.1994401 0
-6.0254736 1.3026047 -1.198288 0
-6.0173788 1.2797518 -1.1958181 0
-6.0346727 1.2622966 -1.1984071 0
-6.0660734 1.2476512 -1.2038053 0
-6.0660563 1.2264634 -1.2029791 0
-6.0462656 1.2013756 -1.1982489 0
-6.0373363 1.178574 -1.1956893 0
-6.0650029 1.1628789 -1.2003899 0
-6.0573053 1.1403607 -1.1981028 0
-6.0741572 1.1224592 -1.2006849 0
-6.073173 1.1012328 -1.1997538 0
-6.0647845 1.0787216 -1.1973754 0
-6.0630698 1.0574576 -1.1963302 0
-6.1028423 1.0433224 -1.2034808 0
-6.0973301 1.0213513 -1.2017118 0
-6.0809436 0.99765778 -1.1978163 0
-6.1143885 0.98210406 -1.2037487 0
-6.0981226 0.95852923 -1.1999071 0
-6.0968804 0.9373982 -1.1990374 0
-6.0922098 0.91578192 -1.1975083 0
-6.1043634 0.89668995 -1.1992996 0
-6.0700932 0.870875 -1.1919863 0
-6.1225724 0.85746378 -1.2017204 0
-6.1052661 0.83417845 -1.1977679 0
-6.1353683 0.8173461 -1.2031291 0
-6.1062236 0.79263628 -1.1968859 0
-6.1282802 0.77461517 -1.2006935 0
-6.1180367 0.75248879 -1.1981854 0
-6.1267366 0.73271477 -1.1994015 0
-6.1480269 0.71436119 -1.2030938 0
-6.1412716 0.69271576 -1.2013105 0
-6.1216488 0.66972423 -1.1970261 0
-6.1177659 0.64854974 -1.1958349 0
-6.1488156 0.63100111 -1.2014838 0
-6.1484618 0.61014014 -1.2010082 0
-6.154057 0.58986562 -1.2017081 0
-6.1390762 0.56766397 -1.1984044 0
-6.1570697 0.54851413 -1.2015511 0
-6.1647468 0.52837092 -1.2026969 0
-6.1658115 0.50764334 -1.2025658 0
-6.1286793 0.48390418 -1.1950004 0
-6.1394944 0.46405059 -1.196799 0
-6.1556463 0.44451994 -1.1996504 0
-6.1615105 0.42418221 -1.2005093 0
-6.150775 0.40272766 -1.1981478 0
-6.1584487 0.38249791 -1.1993861 0
-6.1479535 0.3611578 -1.1970996 0
-6.1825042 0.34239113 -1.2035967 0
-6.2113709 0.32310414 -1.2089988 0
-6.1698856 0.3002072 -1.2007213 0
-6.1417651 0.27820128 -1.1950605 0
-6.1979432 0.25992581 -1.2058152 0
-6.1705823 0.23805599 -1.2003301 0
-6.1347461 0.21607675 -1.1932114 0
-6.1604471 0.19630387 -1.1980755 0
-6.1813998 0.17622752 -1.2020289 0
-6.1986885 0.15592235 -1.2052822 0
-6.1493955 0.13405325 -1.1956035 0
-6.1815052 0.11401936 -1.2017654 0
-6.1875348 0.09337905 -1.2028701 0
-6.1768751 0.072504498 -1.2007438 0
-6.1867766 0.051875465 -1.202628 0
-6.1677012 0.031035393 -1.198893 0
-6.1710877 0.010361651 -1.1995378 0
-6.1848683 1.6412103e-05 -1.2022148 0
-7.5733232 -0.012716094 -1.1994964 0
-7.5606604 -0.038044658 -1.1975043 0
-7.5856824 -0.063605145 -1.2014945 0
-7.5696063 -0.08885245 -1.1989887 0
-7.5797119 -0.11438905 -1.2006433 0
-7.580802 -0.13982973 -1.2008835 0
-7.5534649 -0.16466115 -1.1966337 0
-7.5566988 -0.19008186 -1.1972404 0
-7.5675068 -0.2157445 -1.1990606 0
-7.577075 -0.241445 -1.2006981 0
-7.5868134 -0.26722115 -1.2023765 0
-7.5903187 -0.29282826 -1.2030809 0
-7.5937705 -0.31846324 -1.2037905 0
-7.5767746 -0.34320235 -1.2012719 0
-7.5615807 -0.36792269 -1.1990517 0
-7.5540509 -0.39294788 -1.1980599 0
-7.5470767 -0.41796207 -1.1971694 0
-7.5616469 -0.44420436 -1.1997101 0
-7.5513835 -0.46901235 -1.1983246 0
-7.578054 -0.49618009 -1.2028141 0
-7.5467467 -0.51954722 -1.1981146 0
-7.5412989 -0.54458255 -1.1975329 0
-7.5521507 -0.57082546 -1.1995533 0
-7.5797935 -0.59848028 -1.2042559 0
-7.5267658 -0.6196934 -1.1961545 0
-7.5285282 -0.64525849 -1.1967715 0
-7.5335937 -0.67114437 -1.1979277 0
-7.5528479 -0.69839168 -1.201355 0
-7.5313492 -0.72187889 -1.1983137 0
-7.5226736 -0.74650949 -1.1973248 0
-7.5488391 -0.7746737 -1.201896 0
-7.5351224 -0.79880488 -1.2001318 0
-7.5115762 -0.82178593 -1.1968137 0
-7.5389795 -0.85037273 -1.2016273 0
-7.5300312 -0.87494117 -1.2006619 0
-7.517437 -0.89903277 -1.1991277 0
-7.5235395 -0.92535877 -1.2005892 0
-7.4851255 -0.94612056 -1.1949587 0
-7.5221305 -0.9764322 -1.2013822 0
-7.5325499 -1.0034769 -1.2035769 0
-7.4982319 -1.024503 -1.1986356 0
-7.4958878 -1.049796 -1.1988168 0
-7.4976764 -1.07569 -1.1996728 0
-7.4748926 -1.0980115 -1.1966096 0
-7.4966507 -1.1268976 -1.2006909 0
-7.4807734 -1.1501725 -1.1987588 0
-7.4770026 -1.1752676 -1.1987792 0
-7.4583321 -1.1979707 -1.1964231 0
-7.4686842 -1.2253346 -1.1987361 0
-7.4693532 -1.2511761 -1.19951 0
-7.453712 -1.2742628 -1.1976775 0
-7.4843554 -1.3053435 -1.2032979 0
-7.4609537 -1.3270533 -1.2002441 0
-7.4378672 -1.3486892 -1.1972507 0
-7.434639 -1.3738662 -1.1974659 0
-7.4663568 -1.4056317 -1.2033268 0
-7.4435492 -1.4271957 -1.2004155 0
-7.4461355 -1.4535917 -1.2016118 0
-7.4078264 -1.4719138 -1.1962194 0
-7.4485283 -1.505978 -1.2036005 0
-7.4316201 -1.5285126 -1.2016897 0
-7.4382625 -1.5558909 -1.2036005 0
-7.3907413 -1.571833 -1.1967571 0
-7.419682 -1.6040087 -1.2023075 0
-7.4037223 -1.6265609 -1.2005982 0
-7.3869863 -1.6488659 -1.1987741 0
-7.4067669 -1.6793717 -1.2028911 0
-7.4065795 -1.7054586 -1.2037826 0
-7.3548331 -1.7195305 -1.1963027 0
-7.3526506 -1.7450403 -1.1968925 0
-7.3701692 -1.7753217 -1.2007065 0
-7.3655586 -1.8003606 -1.200932 0
-7.3568745 -1.8243994 -1.2005067 0
-7.3866792 -1.8581017 -1.20638 0
-7.3420386 -1.8730689 -1.2001084 0
-7.3395085 -1.8986555 -1.2007285 0
-7.3317451 -1.9228972 -1.2005064 0
-7.3201828 -1.9461194 -1.199675 0
-7.3027091 -1.9677125 -1.1978858 0
-7.2938452 -1.9915785 -1.1975204 0
-7.3044701 -2.0208204 -1.2003704 0
-7.2984161 -2.0455132 -1.2004958 0
-7.2897105 -2.069459 -1.2001984 0
-7.2611275 -2.087677 -1.1966381 0
-7.2661905 -2.1155343 -1.1986347 0
-7.2753577 -2.14469 -1.2013264 0
-7.2498879 -2.1636281 -1.1983119 0
-7.276649 -2.1982114 -1.2039466 0
-7.2428222 -2.2145195 -1.1995715 0
-7.2020941 -2.2284987 -1.1940569 0
-7.2465463 -2.2689035 -1.2026812 0
-7.2147183 -2.2855272 -1.1986639 0
-7.1916366 -2.3047755 -1.1961062 0
-7.2234769 -2.3417151 -1.202701 0
-7.1984386 -2.3602986 -1.1998429 0
-7.1760507 -2.3796341 -1.1974344 0
-7.1742635 -2.4057703 -1.1984755 0
-7.1865325 -2.4367194 -1.2018831 0
-7.1591997 -2.4542453 -1.1986814 0
-7.1355076 -2.4728899 -1.1960959 0
-7.1761451 -2.5139546 -1.204314 0
-7.1339378 -2.5260546 -1.1986454 0
-7.1352625 -2.5534785 -1.2002996 0
-7.1041832 -2.5692582 -1.1965139 0
-7.0953565 -2.5929995 -1.1964847 0
-7.1030869 -2.622854 -1.1992645 0
-7.0811377 -2.6417615 -1.1970474 0
-7.0654888 -2.6629436 -1.1959045 0
-7.0794659 -2.6953537 -1.1997932 0
-7.0826674 -2.7237966 -1.2018768 0
-7.063993 -2.7438374 -1.2002622 0
-7.0354638 -2.759939 -1.1969804 0
-7.0685153 -2.8002872 -1.2041941 0
-7.0427551 -2.8174376 -1.2014081 0
-7.0182543 -2.8349695 -1.1988434 0
-7.021203 -2.86358 -1.2009803 0
-7.0107055 -2.8867517 -1.2008336 0
-7.0135655 -2.9154696 -1.202991 0
-6.9728956 -2.9260206 -1.1976911 0
-6.9674096 -2.9512312 -1.1984417 0
-6.959538 -2.9754567 -1.198797 0
-6.9760518 -3.0102217 -1.2033733 0
-6.919621 -3.0134313 -1.1953751 0
-6.9445887 -3.0520451 -1.2014493 0
-6.9385681 -3.0771971 -1.2021859 0
-6.9055486 -3.0903015 -1.1982534 0
-6.9115424 -3.1208398 -1.2011023 0
-6.8992901 -3.143198 -1.2007977 0
-6.8704076 -3.1578987 -1.1976069 0
-6.8805203 -3.1905327 -1.2012275 0
-6.8638158 -3.2107921 -1.200184 0
-6.8507614 -3.2327249 -1.1997898 0
-6.842978 -3.257149 -1.2003325 0
-6.8233032 -3.2758892 -1.1988012 0
-6.7975531 -3.291616 -1.1962093 0
-6.8351536 -3.3381605 -1.204789 0
-6.7955909 -3.3471041 -1.1997869 0
-6.7982321 -3.3767745 -1.2022452 0
-6.7781863 -3.3951979 -1.2007066 0
-6.7574949 -3.4132228 -1.1990618 0
-6.7503181 -3.4380527 -1.199827 0
-6.7290134 -3.4556642 -1.1980928 0
-6.723515 -3.4813776 -1.1991854 0
-6.7311487 -3.5139992 -1.2026416 0
-6.7046456 -3.5288196 -1.2000135 0
-6.6974735 -3.5537715 -1.2008556 0
-6.6648169 -3.5651319 -1.1971368 0
-6.6721001 -3.597851 -1.200605 0
-6.6413937 -3.6100874 -1.1972508 0
-6.6378655 -3.6370535 -1.1988064 0
-6.6371317 -3.6656389 -1.2008868 0
-6.6185417 -3.6843853 -1.1997516 0
-6.6299605 -3.7199137 -1.2040756 0
-6.5866237 -3.7246892 -1.1984664 0
-6.5712619 -3.7451355 -1.1979493 0
-6.5655351 -3.771091 -1.1992035 0
-6.542243 -3.7869401 -1.1972616 0
-6.5448985 -3.8178308 -1.2000834 0
-6.5111036 -3.8274336 -1.196233 0
-6.5189314 -3.8615026 -1.2000431 0
-6.5150628 -3.8887782 -1.2017243 0
-6.514039 -3.9178483 -1.2039517 0
-6.4898539 -3.9329927 -1.2019122 0
-6.4859047 -3.9603925 -1.2036331 0
-6.4657574 -3.9779127 -1.2023625 0
-6.4328814 -3.9874799 -1.1987283 0
-6.4169369 -4.0074406 -1.1982543 0
-6.4122519 -4.0344615 -1.1998986 0
-6.3886561 -4.0495782 -1.1980172 0
-6.401886 -4.0881171 -1.2030617 0
-6.367507 -4.0962825 -1.1991752 0
-6.3746853 -4.1311841 -1.2031289 0
-6.3420029 -4.140264 -1.1995739 0
-6.3305759 -4.1631417 -1.2000458 0
-6.318152 -4.1853833 -1.2003441 0
-6.2917476 -4.1983118 -1.1979952 0
-6.2842793 -4.2238488 -1.199263 0
-6.2840185 -4.2543297 -1.2019286 0
-6.2688098 -4.274755 -1.2017542 0
-6.2459459 -4.2899137 -1.2001216 0
-6.2291198 -4.3091655 -1.199658 0
-6.2082262 -4.3255596 -1.1984205 0
-6.1943097 -4.346786 -1.1985407 0
-6.1694474 -4.3602834 -1.196552 0
-6.1544228 -4.3806796 -1.1964799 0
-6.1670718 -4.4209113 -1.2018139 0
-6.1433802 -4.435185 -1.2000881 0
-6.1348381 -4.4603844 -1.2013342 0
-6.1315374 -4.4894867 -1.2036287 0
-6.1154499 -4.5092812 -1.2034317 0
-6.0770049 -4.5124645 -1.1988368 0
-6.0606942 -4.5319562 -1.1986099 0
-6.041636 -4.5493679 -1.1978507 0
-6.0530705 -4.5898609 -1.2031622 0
-6.0156302 -4.593318 -1.1987746 0
-6.023037 -4.6310239 -1.2033381 0
-6.0236535 -4.6637173 -1.2065785 0
-5.982162 -4.6637564 -1.2013928 0
-5.9651232 -4.682713 -1.2011173 0
-5.9459162 -4.6999416 -1.2004161 0
-5.9409761 -4.7284875 -1.2026128 0
-5.9009333 -4.7290211 -1.1977098 0
-5.8875656 -4.7508135 -1.1982229 0
-5.8936696 -4.7884545 -1.2027259 0
-5.8568006 -4.7911878 -1.1984735 0
-5.8183036 -4.7923474 -1.1938771 0
-5.8317404 -4.8363237 -1.1999547 0
-5.8180556 -4.8579898 -1.2004837 0
-5.8090811 -4.8836451 -1.2020037 0
-5.7787876 -4.8913403 -1.1991222 0
-5.7754879 -4.9218793 -1.2018549 0
-5.7365575 -4.9219999 -1.197181 0
-5.7511573 -4.968101 -1.2036974 0
-5.7256308 -4.97967 -1.2018424 0
-5.7008514 -4.9917893 -1.2001475 0
-5.6742444 -5.002202 -1.1980703 0
-5.6592107 -5.022769 -1.198445 0
-5.6529036 -5.0511551 -1.200689 0
-5.6263118 -5.0614223 -1.1986386 0
-5.6193051 -5.0893102 -1.2007744 0
-5.6172023 -5.1217918 -1.2039878 0
-5.5716634 -5.1145859 -1.1978959 0
-5.5538874 -5.1326866 -1.1977673 0
-5.5472946 -5.1611853 -1.2000706 0
-5.5342135 -5.1837406 -1.200994 0
-5.5202837 -5.2055492 -1.2017518 0
-5.4837565 -5.2059503 -1.197593 0
-5.4680991 -5.2260542 -1.1979935 0
-5.4552536 -5.2488871 -1.1990281 0
-5.43501 -5.264616 -1.1984516 0
-5.4346609 -5.2997112 -1.2022861 0
-5.4033365 -5.304625 -1.1992843 0
-5.4023557 -5.3393502 -1.2030332 0
-5.3766747 -5.3497229 -1.2013018 0
-5.33991 -5.3488908 -1.1970878 0
-5.3190889 -5.363883 -1.1964451 0
-5.3308167 -5.411881 -1.2031578 0
-5.3003273 -5.4171381 -1.2003689 0
-5.2798171 -5.4324932 -1.1998421 0
-5.2657661 -5.4545083 -1.2007984 0
-5.2548366 -5.4798374 -1.202489 0
-5.2234383 -5.4837813 -1.1995046 0
-5.2179885 -5.514967 -1.2024925 0
-5.1874781 -5.5196729 -1.1997194 0
-5.1582179 -5.5255461 -1.1972303 0
-5.1551156 -5.5594745 -1.2008299 0
-5.1416121 -5.5823355 -1.2020373 0
-5.1228909 -5.5995693 -1.2020431 0
-5.0882273 -5.5992608 -1.1983079 0
-5.0602489 -5.6061225 -1.1961386 0
-5.0509453 -5.6336765 -1.1983978 0
-5.0500431 -5.6708093 -1.2026881 0
-5.0303059 -5.6869221 -1.2025217 0
-5.0167813 -5.7100973 -1.2038586 0
-4.9935017 -5.7221794 -1.2028693 0
-4.9656854 -5.7289648 -1.2007891 0
-4.9372044 -5.7348428 -1.1985447 0
-4.917541 -5.7508869 -1.1984453 0
-4.9012461 -5.7708917 -1.1991829 0
-4.8925781 -5.7999864 -1.2018132 0
-4.8511534 -5.7901578 -1.1963997 0
-4.8516402 -5.8303375 -1.201334 0
-4.8169799 -5.8283195 -1.1975836 0
-4.8065605 -5.8555822 -1.1998674 0
-4.7903085 -5.875845 -1.2007216 0
-4.75562 -5.8733954 -1.196956 0
-4.7419767 -5.8968625 -1.1984916 0
-4.7335534 -5.9269705 -1.2013785 0
-4.7181869 -5.9485216 -1.2025335 0
-4.6988935 -5.9651675 -1.2027069 0
-4.6727142 -5.9730239 -1.2011254 0
-4.6423302 -5.975359 -1.1984583 0
-4.6364017 -6.0092063 -1.2021223 0
-4.6095443 -6.0159945 -1.2003819 0
-4.5827475 -6.0227413 -1.1986554 0
-4.5700655 -6.0480471 -1.2006356 0
-4.5514865 -6.0656343 -1.2010907 0
-4.521997 -6.0686116 -1.1986713 0
-4.5204287 -6.1091514 -1.2036783 0
-4.4955325 -6.1183014 -1.2025046 0
-4.4595432 -6.1121635 -1.1983528 0
-4.4492459 -6.1411886 -1.201112 0
-4.4047275 -6.1228442 -1.194629 0
-4.4011474 -6.1613402 -1.1992542 0
-4.3948059 -6.1962814 -1.2031803 0
-4.365396 -6.1987553 -1.2008119 0
-4.3595557 -6.2347627 -1.2049488 0
-4.3175783 -6.2190251 -1.1991029 0
-4.3114424 -6.2548499 -1.2032163 0
-4.2820969 -6.2570691 -1.2008747 0
-4.2514677 -6.2572231 -1.1981617 0
-4.2334404 -6.2758541 -1.1990047 0
-4.2255554 -6.3096943 -1.2027563 0
-4.1926832 -6.3062382 -1.1994112 0
-4.1724749 -6.321713 -1.1996869 0
-4.1558619 -6.3426962 -1.201018 0
-4.1199174 -6.3340631 -1.1967609 0
-4.1079679 -6.3622608 -1.1994795 0
-4.0892954 -6.3801827 -1.2002666 0
-4.0655165 -6.3901415 -1.199569 0
-4.0440392 -6.4036899 -1.1995604 0
-4.0318995 -6.4321342 -1.2023495 0
-3.9904246 -6.4136534 -1.1963873 0
-3.9795082 -6.4441776 -1.1995856 0
-3.9563498 -6.4549875 -1.1991218 0
-3.9324098 -6.4644752 -1.1984284 0
-3.9186506 -6.4907708 -1.2008607 0
-3.885479 -6.4848676 -1.1973516 0
-3.869518 -6.507618 -1.1991501 0
-3.8622136 -6.5451894 -1.2036803 0
-3.8401206 -6.5578856 -1.2036407 0
-3.7854648 -6.5145411 -1.1933489 0
-3.7938397 -6.579638 -1.2029366 0
-3.743495 -6.542923 -1.1939228 0
-3.7438848 -6.5948033 -1.2010922 0
-3.719346 -6.6030459 -1.2003156 0
-3.6870964 -6.597425 -1.1970398 0
-3.6687531 -6.6165986 -1.1982801 0
-3.6495938 -6.634398 -1.1992809 0
-3.6328483 -6.6567101 -1.2011056 0
-3.6133189 -6.6740427 -1.2020403 0
-3.5805953 -6.6668925 -1.1985836 0
-3.5648711 -6.6913395 -1.2008232 0
-3.5417562 -6.7020054 -1.2005994 0
-3.5245216 -6.7238693 -1.2023925 0
-3.4965653 -6.7252765 -1.2005409 0
-3.4723995 -6.7338643 -1.1999888 0
-3.4425576 -6.7313023 -1.1974688 0
-3.4227808 -6.7483492 -1.1984531 0
-3.4015958 -6.7626905 -1.1989678 0
-3.3763545 -6.768949 -1.1980636 0
-3.3558278 -6.7846532 -1.198845 0
-3.3458614 -6.8219652 -1.2034489 0
-3.3217404 -6.8306165 -1.2030036 0
-3.2976668 -6.8393235 -1.2025831 0
-3.2679679 -6.8362226 -1.2001045 0
-3.245028 -6.8471394 -1.2001042 0
-3.2267826 -6.8680482 -1.2018659 0
-3.1960773 -6.8623815 -1.1989924 0
-3.1715367 -6.8697786 -1.1984202 0
-3.1466863 -6.876441 -1.1977352 0
-3.120194 -6.8794136 -1.196424 0
-3.100332 -6.8970022 -1.1976684 0
-3.0850773 -6.9250622 -1.2007381 0
-3.0631108 -6.938242 -1.2012359 0
-3.0313706 -6.9291344 -1.1978927 0
-3.0209463 -6.9688435 -1.2029996 0
-2.9783163 -6.9341202 -1.1952751 0
-2.959475 -6.9544635 -1.1970645 0
-2.9389541 -6.9710188 -1.1982113 0
-2.9150448 -6.9795876 -1.1979976 0
-2.892782 -6.9921131 -1.198476 0
-2.8633461 -6.9871893 -1.1959797 0
-2.8571703 -7.0392919 -1.2032515 0
-2.8356063 -7.0539398 -1.2041235 0
-2.7984529 -7.0295286 -1.198348 0
-2.779386 -7.0503321 -1.200299 0
-2.7640226 -7.0808492 -1.2039101 0
-2.7352455 -7.0770864 -1.2017043 0
-2.7059295 -7.0716538 -1.1992346 0
-2.6822603 -7.0808344 -1.1992596 0
-2.6584718 -7.0897007 -1.1992449 0
-2.6415277 -7.1170063 -1.2023587 0
-2.6128745 -7.1128206 -1.2001649 0
-2.5899961 -7.1242485 -1.2006211 0
-2.5677893 -7.1376009 -1.2014138 0
-2.5425284 -7.1424751 -1.2007926 0
-2.5173068 -7.1473818 -1.2001917 0
-2.489162 -7.1438231 -1.198186 0
-2.4672444 -7.158071 -1.1991816 0
-2.4433517 -7.1666579 -1.1992409 0
-2.4149222 -7.1617985 -1.1970662 0
-2.3865111 -7.1567039 -1.1948705 0
-2.3658767 -7.1748977 -1.196577 0
-2.3474908 -7.200222 -1.199481 0
-2.3234663 -7.2084546 -1.1995479 0
-2.3018329 -7.2242017 -1.2008773 0
-2.275198 -7.224256 -1.1996117 0
-2.2527819 -7.2376857 -1.2005807 0
-2.2256422 -7.2358985 -1.1990397 0
-2.197154 -7.2294512 -1.1967438 0
-2.1731768 -7.2376895 -1.1968946 0
-2.1528544 -7.2582746 -1.1990985 0
-2.1244962 -7.2517624 -1.1968391 0
-2.1060138 -7.2790408 -1.2001691 0
-2.0789902 -7.2769375 -1.1986662 0
-2.0525229 -7.2765737 -1.197466 0
-2.0259917 -7.2757912 -1.1962126 0
-2.0068703 -7.3017693 -1.1993707 0
-1.977984 -7.2922592 -1.1967125 0
-1.9614305 -7.3283935 -1.2015564 0
-1.9291176 -7.3056502 -1.1967603 0
-1.9099209 -7.332458 -1.200096 0
-1.8904811 -7.3588872 -1.2033775 0
-1.859434 -7.3400645 -1.1992732 0
-1.8410481 -7.3712192 -1.2033483 0
-1.8112503 -7.3567448 -1.1999872 0
-1.7869443 -7.3643012 -1.2002356 0
-1.7636789 -7.3762555 -1.2012135 0
-1.7323678 -7.3542366 -1.1966751 0
-1.7087146 -7.3643732 -1.1973855 0
-1.6916524 -7.403492 -1.2028171 0
-1.6614068 -7.3850579 -1.1989104 0
-1.6393554 -7.402864 -1.200902 0
-1.6119758 -7.3966179 -1.1990052 0
-1.585016 -7.3919482 -1.1973801 0
-1.5625184 -7.4081025 -1.1991415 0
-1.5358615 -7.404573 -1.1977298 0
-1.5140597 -7.4245529 -1.2001339 0
-1.492309 -7.4453082 -1.2026733 0
-1.4620916 -7.4236321 -1.1983733 0
-1.4337289 -7.4105864 -1.1954846 0
-1.4149868 -7.4475222 -1.2006711 0
-1.3843664 -7.4219747 -1.1957973 0
-1.3571742 -7.41401 -1.1937742 0
-1.3350984 -7.4340515 -1.1962738 0
-1.3130324 -7.4547606 -1.198891 0
-1.2875841 -7.4565349 -1.1984754 0
-1.2644447 -7.4718499 -1.2002488 0
-1.2372648 -7.4632521 -1.1981946 0
-1.2169086 -7.4961481 -1.2028141 0
-1.1922088 -7.5029569 -1.2032585 0
-1.1619909 -7.4743948 -1.1980464 0
-1.1371465 -7.4797115 -1.1982808 0
-1.1133121 -7.4918942 -1.1996278 0
-1.0902526 -7.5098138 -1.201905 0
-1.062647 -7.4963512 -1.1991735 0
-1.0392563 -7.512516 -1.2011951 0
-1.0130988 -7.5088167 -1.2000538 0
-0.98520869 -7.4915733 -1.1967633 0
-0.95942783 -7.4897022 -1.1959437 0
-0.93853945 -7.5267882 -1.2013564 0
-0.9130336 -7.5277104 -1.2010082 0
-0.88623488 -7.5175428 -1.1989052 0
-0.86200273 -7.5290117 -1.2002666 0
-0.83609521 -7.5259242 -1.1993208 0
-0.80814815 -7.5035291 -1.1953135 0
-0.78582698 -7.5334353 -1.199651 0
-0.76116335 -7.5419626 -1.2005959 0
-0.73318672 -7.5169382 -1.1962142 0
-0.70981616 -7.5388594 -1.1993171 0
-0.6842472 -7.5380173 -1.1988114 0
-0.65974003 -7.5490823 -1.2002127 0
-0.6338315 -7.5441794 -1.1990886 0
-0.60886395 -7.5503578 -1.1997393 0
-0.58441252 -7.5635762 -1.2015216 0
-0.55854195 -7.5586181 -1.2004298 0
-0.53395128 -7.5711551 -1.2021298 0
-0.50968498 -7.5896001 -1.2047803 0
-0.48343942 -7.5787849 -1.2027994 0
-0.45727998 -7.5680089 -1.2008392 0
-0.43109909 -7.5554047 -1.1986032 0
-0.40555438 -7.5528884 -1.1979815 0
-0.38132733 -7.5760331 -1.201443 0
-0.35540766 -7.5662727 -1.1996994 0
-0.33019301 -7.5709901 -1.2002652 0
-0.30468616 -7.5690517 -1.199789 0
-0.27924189 -7.5682702 -1.1995101 0
-0.2539714 -7.5723257 -1.2000111 0
-0.22856794 -7.5726895 -1.1999406 0
-0.20351176 -7.585897 -1.2019185 0
-0.17778076 -7.5739355 -1.1999222 0
-0.15283132 -7.5966344 -1.2034304 0
-0.12690143 -7.5697284 -1.1990938 0
-0.10121425 -7.5472493 -1.1954725 0
-0.076198436 -7.5763068 -1.2000279 0
-0.050662272 -7.5565605 -1.1968668 0
-0.025365369 -7.5683556 -1.1987147 0
1.0024677e-05 -7.5555592 -1.1966813 0
0.025438204 -7.5840826 -1.2012056 0
0.050782546 -7.5715036 -1.1992335 0
0.076400042 -7.5943475 -1.2028855 0
0.10178661 -7.5884271 -1.201995 0
0.12705992 -7.5779824 -1.2004014 0
0.15258841 -7.5835605 -1.2013593 0
0.17804866 -7.5844913 -1.2015945 0
0.2029694 -7.5649314 -1.1985968 0
0.22764045 -7.541297 -1.1949664 0
0.2541925 -7.5783186 -1.2009609 0
0.27898088 -7.5606518 -1.1983027 0
0.30515277 -7.580143 -1.2015474 0
0.33040166 -7.5753126 -1.2009505 0
0.35527578 -7.5630369 -1.1991866 0
0.38104501 -7.570024 -1.2004902 0
0.40615439 -7.5636883 -1.1996946 0
0.43176097 -7.5666518 -1.2003875 0
0.45822084 -7.5832458 -1.203257 0
0.4816018 -7.5496616 -1.1981776 0
0.50794458 -7.5633841 -1.200619 0
0.53129208 -7.5331645 -1.196098 0
0.55825794 -7.554502 -1.1997763 0
0.58295649 -7.5444713 -1.1984869 0
0.60873413 -7.5484977 -1.1994441 0
0.63379687 -7.5435276 -1.1989852 0
0.65842104 -7.5337591 -1.1977768 0
0.68449199 -7.5404921 -1.1992053 0
0.70918298 -7.5319204 -1.1982136 0
0.73586589 -7.5441995 -1.2005527 0
0.76045161 -7.5347104 -1.1994417 0
0.7879113 -7.5532227 -1.2028024 0
0.81341887 -7.5522795 -1.2030797 0
0.83537883 -7.5192947 -1.1982647 0
0.86166197 -7.5258584 -1.1997644 0
0.88712943 -7.5249586 -1.2000884 0
0.91597366 -7.5517826 -1.2048492 0
0.94012815 -7.5393662 -1.2033644 0
0.96089894 -7.5010281 -1.1977527 0
0.98547047 -7.4934101 -1.1970571 0
1.0132464 -7.5097604 -1.200205 0
1.0375761 -7.5002232 -1.1992301 0
1.0636085 -7.5029907 -1.2002361 0
1.0870956 -7.4879274 -1.1984028 0
1.1134202 -7.4924855 -1.1997229 0
1.1382117 -7.4865842 -1.1993823 0
1.1627287 -7.4790101 -1.1987867 0
1.1862655 -7.4654255 -1.19724 0
1.213717 -7.4763632 -1.19964 0
1.2342564 -7.4449835 -1.1952622 0
1.2681253 -7.4934788 -1.2037238 0
1.2926083 -7.4855118 -1.2031335 0
1.3133965 -7.4567122 -1.1992055 0
1.33521 -7.4345598 -1.1963562 0
1.3632812 -7.4472604 -1.1991286 0
1.3888669 -7.4459934 -1.1996678 0
1.415292 -7.4490209 -1.2009133 0
1.4358903 -7.4216518 -1.1972704 0
1.4641731 -7.4340968 -1.2000631 0
1.4947982 -7.4576249 -1.2046635 0
1.5141026 -7.4246631 -1.2001523 0
1.5357112 -7.403749 -1.1975973 0
1.5597299 -7.3947849 -1.1969864 0
1.5928321 -7.4283032 -1.2032697 0
1.6109329 -7.3917384 -1.198215 0
1.6395421 -7.403614 -1.2010243 0
1.6568233 -7.364593 -1.1955887 0
1.6925827 -7.4074726 -1.2034645 0
1.7104863 -7.3719206 -1.1986134 0
1.7336904 -7.3597636 -1.1975752 0
1.7571425 -7.3488326 -1.1967484 0
