# .PCD v0.7 - Point Cloud Data file format
VERSION 0.7
FIELDS x y z intensity ring time
SIZE 4 4 4 4 2 4
TYPE F F F F U F
COUNT 1 1 1 1 1 1
WIDTH 946
HEIGHT 1
VIEWPOINT 0 0 0 1 0 0 0
POINTS 946
DATA ascii
3.5450132 1.0797617 -0.5869422 5 3 -0.020939916
3.7297561 1.1353186 0.47870281 11 11 -0.020937612
3.5970123 1.0942281 -0.4616411 3 4 -0.020935308
3.7232351 1.1319158 0.6163519 12 12 -0.020933004
1.9882127 0.60444456 -0.18180689 100 5 -0.0209307
3.7663298 1.1442971 0.76514411 12 13 -0.020928396
2.0257723 0.61509091 -0.11095224 95 6 -0.020926094
3.6661549 1.112466 0.88450754 1 14 -0.02092379
3.6780162 1.1153624 -0.067087047 6 7 -0.020921485
3.7050223 1.1228479 1.0373468 1 15 -0.020919181
3.6120667 1.0898604 -1.0109472 10 0 -0.020898445
3.687422 1.1118932 0.067226671 9 8 -0.02089614
3.6123078 1.0885577 -0.87101048 10 1 -0.020893836
3.692878 1.1121343 0.20212148 12 9 -0.020891532
3.5585699 1.0716866 -0.72240293 7 2 -0.020889228
3.7126863 1.1173911 0.33921015 12 10 -0.020886924
3.6168604 1.0878643 -0.59820545 8 3 -0.02088462
3.7355967 1.1228665 0.47894657 12 11 -0.020882316
3.5894034 1.078238 -0.4601787 4 4 -0.020880014
3.7195952 1.1166412 0.61510038 12 12 -0.02087771
1.9864936 0.59635538 -0.18145825 95 5 -0.020875406
3.7703001 1.1311458 0.76514411 12 13 -0.020873101
2.0221677 0.60629445 -0.11063822 100 6 -0.020870797
3.7782872 1.1321027 0.91060191 11 14 -0.020868493
3.5937662 1.0761323 -0.065481432 4 7 -0.020866189
3.7607405 1.1254147 1.0518407 7 15 -0.020863885
3.6139982 1.0766929 -1.0104296 12 0 -0.020843148
3.5935359 1.0699158 0.065446526 1 8 -0.020840844
3.6272929 1.0792754 -0.87370992 10 1 -0.02083854
3.6373911 1.0815891 0.19887665 1 9 -0.020836236
3.6413257 1.082759 -0.73843086 11 2 -0.020833932
3.7108338 1.1027246 0.33868721 9 10 -0.02083163
3.6679769 1.0892905 -0.60602719 12 3 -0.020829326
3.7375906 1.1092541 0.47870281 11 11 -0.020827021
3.6730766 1.0894119 -0.47041571 12 4 -0.020824717
3.7253647 1.1042111 0.61541325 11 12 -0.020822413
1.9885633 0.5894171 -0.18145825 95 5 -0.020820109
3.7591667 1.1135163 0.76209116 11 13 -0.020817805
2.0281014 0.60036731 -0.11084756 92 6 -0.020815501
3.7822158 1.1189079 0.91060191 11 14 -0.020813197
3.7048893 1.0953289 -0.067436099 18 7 -0.020810893
3.7813196 1.1172096 1.0564994 12 15 -0.020808589
3.6214406 1.0651621 -1.0114648 13 0 -0.020787852
3.6759086 1.0804856 0.066877626 12 8 -0.02078555
3.6235595 1.0644093 -0.87191027 10 1 -0.020783246
3.6965306 1.0858443 0.20191215 13 9 -0.020780941
3.6431992 1.0694897 -0.73804927 11 2 -0.020778637
3.708925 1.088081 0.33816427 12 10 -0.020776333
3.6565926 1.0720334 -0.60352427 12 3 -0.020774029
3.7147694 1.0883875 0.47529048 11 11 -0.020771725
3.6709545 1.0755501 -0.46968448 9 4 -0.020769421
3.7024648 1.0840807 0.61103308 8 12 -0.020767117
1.9867846 0.58135253 -0.18110962 91 5 -0.020764813
3.7140377 1.086062 0.75216907 4 13 -0.020762509
2.0225167 0.59104282 -0.11042888 92 6 -0.020760205
3.7260489 1.0888683 0.89620501 1 14 -0.020757901
3.7065818 1.0824755 -0.067401193 19 7 -0.020755596
3.7200966 1.0857197 1.0383821 1 15 -0.020753292
3.6119671 1.0493751 -1.0078415 10 0 -0.020732557
3.6871533 1.0705191 0.067017242 12 8 -0.020730253
3.6139681 1.0485868 -0.868761 11 1 -0.020727949
3.6924381 1.0713547 0.20149344 12 9 -0.020725645
3.6467254 1.0574032 -0.73804927 11 2 -0.020723341
3.7182541 1.0774382 0.33868721 13 10 -0.020721037
3.6544352 1.0582541 -0.60258561 13 3 -0.020718733
3.7240787 1.0777191 0.47602168 12 11 -0.020716429
3.7193229 1.0756375 0.61322314 12 12 -0.020711821
1.9887013 0.57476127 -0.18110962 95 5 -0.020709516
3.744025 1.0813673 0.75751179 12 13 -0.020707212
2.0129521 0.58100885 -0.10980085 92 6 -0.020704908
3.7371285 1.0786669 0.89800459 4 14 -0.020702604
3.7043869 1.0685163 -0.067296483 17 7 -0.0207003
3.7496645 1.0808675 1.0456289 1 15 -0.020697996
3.6209979 1.0389889 -1.0093943 11 0 -0.020677261
3.6868384 1.0571846 0.06694743 12 8 -0.020674957
3.6155517 1.0360605 -0.86831105 10 1 -0.020672653
3.6865549 1.0557108 0.20097008 13 9 -0.020670349
3.6275637 1.0388175 -0.73346978 11 2 -0.020668045
3.7141447 1.0629103 0.33798996 13 10 -0.020665741
3.6579242 1.0461305 -0.60258561 15 3 -0.020663437
3.7219062 1.0637262 0.47529048 13 11 -0.020661132
1.975572 0.56424838 -0.25226957 19 4 -0.020658828
3.7192562 1.0615627 0.61259741 12 12 -0.020656524
1.9945272 0.56890935 -0.18145825 98 5 -0.02065422
3.7608061 1.0727142 0.7601831 12 13 -0.020651916
2.0225508 0.57652092 -0.11021954 94 6 -0.020649612
3.7708585 1.0741564 0.90520304 11 14 -0.02064731
3.6927075 1.0511997 -0.067017242 13 7 -0.020645006
3.77757 1.0746448 1.0523583 10 15 -0.020642702
3.6043339 1.0199252 -1.0037004 15 0 -0.020621965
3.6789608 1.0410424 0.066738002 12 8 -0.020619661
3.6210213 1.0239648 -0.868761 12 1 -0.020617357
3.6825299 1.0406623 0.20055141 12 9 -0.020615052
3.6162314 1.0212471 -0.73041683 12 2 -0.020612748
3.7007575 1.0444205 0.33642116 12 10 -0.020610444
3.6617341 1.0327156 -0.60258561 13 3 -0.02060814
3.7294183 1.0518044 0.47577798 12 11 -0.020605836
1.9641547 0.55357975 -0.25056338 76 4 -0.020603532
3.7115304 1.0453612 0.61072022 12 12 -0.020601228
1.9965012 0.56194311 -0.18145825 93 5 -0.020598926
3.7590425 1.0573291 0.75903821 11 13 -0.020596622
2.0246503 0.56910354 -0.11021954 94 6 -0.020594317
3.7560084 1.0550591 0.90070403 13 14 -0.020592013
3.6905789 1.03668 -0.066912524 15 7 -0.020589709
3.7757192 1.0598848 1.0508054 14 15 -0.020587405
3.6022904 1.005778 -1.0021474 16 0 -0.020566668
3.6711955 1.024326 0.066528574 12 8 -0.020564364
3.6191189 1.009115 -0.86741126 13 1 -0.02056206
3.692091 1.0287673 0.20086543 12 9 -0.020559756
3.6235571 1.0096709 -0.73118013 11 2 -0.020557452
3.6947844 1.0288229 0.33554959 13 10 -0.020555148
3.6462855 1.0146326 -0.59945697 13 3 -0.020552846
3.7198603 1.0344063 0.47407177 13 11 -0.020550542
1.9833843 0.55115998 -0.25275704 100 4 -0.020548237
3.71153 1.0306945 0.61009449 12 12 -0.020545933
1.9907715 0.55283862 -0.18076101 93 5 -0.020543629
3.7343345 1.0363252 0.75331396 12 13 -0.020541325
2.0304737 0.56310058 -0.11042888 94 6 -0.020539021
3.7634244 1.0429834 0.90160388 13 14 -0.020536717
3.682791 1.019945 -0.066703096 14 7 -0.020534413
3.7590976 1.0403715 1.0451113 12 15 -0.020532109
3.6057796 0.99319649 -1.0021474 16 0 -0.020511372
3.6728203 1.0109749 0.066493668 12 8 -0.020509068
3.6019511 0.99078947 -0.86246234 12 1 -0.020506766
3.6879563 1.0137547 0.20044672 12 9 -0.020504462
3.6138082 0.99337268 -0.72850877 13 2 -0.020502158
3.6983531 1.0159202 0.33554959 13 10 -0.020499853
3.6345661 0.99771428 -0.59695399 12 3 -0.020497549
3.7043047 1.0161629 0.47163439 13 11 -0.020495245
1.9757237 0.54160976 -0.25153834 94 4 -0.020492941
3.7170107 1.0182536 0.61040735 12 12 -0.020490637
1.9926894 0.54588568 -0.18076101 95 5 -0.020488333
3.7379293 1.0232826 0.75331396 12 13 -0.020486029
2.0247207 0.55390185 -0.11001018 94 6 -0.020483725
3.7632828 1.0288116 0.90070403 13 14 -0.020481421
2.1122608 0.57705665 -0.038220771 5 7 -0.020479117
3.7589788 1.0262269 1.0440761 14 15 -0.020476812
3.5961745 0.97705913 -0.99852395 14 0 -0.020456078
3.6763272 0.99814725 0.066493668 12 8 -0.020453773
3.599745 0.9766801 -0.86111259 13 1 -0.020451469
3.6835873 0.99942815 0.20002805 12 9 -0.020449165
3.6286225 0.98383534 -0.73079848 12 2 -0.020446861
3.7018769 1.0030034 0.33554959 13 10 -0.020444557
3.6418397 0.98605442 -0.59757972 12 3 -0.020442253
3.7039967 1.0021901 0.47114691 13 11 -0.020439949
1.9736767 0.53401756 -0.25105089 100 4 -0.020437645
3.716553 1.0048914 0.60978162 12 12 -0.020435341
1.9984294 0.53996634 -0.18110962 89 5 -0.020433037
3.733897 1.0081824 0.75178748 12 13 -0.020430733
2.0304987 0.54787093 -0.11021954 94 6 -0.020428428
3.7403328 1.0092198 0.89440536 13 14 -0.020426124
2.0755479 0.55963755 -0.037522674 34 7 -0.02042382
3.7735534 1.0167705 1.0471818 12 15 -0.020421516
3.5993946 0.96512908 -0.99852395 14 0 -0.020400781
3.6757543 0.98491454 0.066423863 12 8 -0.020398477
3.606729 0.96574652 -0.86201245 12 1 -0.020396173
3.6675885 0.98204237 0.19898133 13 9 -0.020393869
3.5996239 0.96317083 -0.72431099 11 2 -0.020391565
3.6974838 0.98866236 0.33485237 13 10 -0.020389261
3.648906 0.97499275 -0.59820545 12 3 -0.020386957
3.7034638 0.98887831 0.47065943 12 11 -0.020384653
1.9639291 0.52439743 -0.24958843 95 4 -0.020382348
3.7026877 0.98797685 0.60696578 12 12 -0.020380044
2.0040593 0.53436238 -0.18145825 93 5 -0.02037774
3.7372196 0.99579555 0.75178748 13 13 -0.020375436
2.0284445 0.54010618 -0.11001018 92 6 -0.020373132
3.7417765 0.99630851 0.89395547 13 14 -0.020370828
2.0619326 0.54863757 -0.037243433 79 7 -0.020368524
3.7638352 1.0007772 1.0435584 14 15 -0.020366222
3.5633562 0.94281 -0.98765355 61 0 -0.020345485
3.6712668 0.97067589 0.066284239 12 8 -0.020343181
3.5759981 0.94482112 -0.8539142 54 1 -0.020340877
3.6632698 0.96719366 0.19856264 13 9 -0.020338573
3.6084931 0.95273125 -0.72545588 42 2 -0.020336268
3.6737714 0.96928054 0.332412 13 10 -0.020333964
3.6425686 0.96037 -0.59664112 12 3 -0.02033166
3.6952057 0.97355622 0.46919701 13 11 -0.020329356
1.969587 0.51854908 -0.25007591 95 4 -0.020327052
3.68892 0.97052515 0.60415 12 12 -0.020324748
1.9942594 0.52467358 -0.1804124 91 5 -0.020322444
3.7329061 0.98139912 0.75026101 12 13 -0.020320142
2.0340879 0.53439206 -0.11021954 89 6 -0.020317838
3.7471154 0.98373854 0.89440536 15 14 -0.020315534
2.0638351 0.54143721 -0.037243433 94 7 -0.020313229
3.759831 0.9856723 1.0414879 14 15 -0.020310925
3.5815802 0.93426573 -0.99179465 11 0 -0.020290188
3.6552823 0.95281166 0.065935194 12 8 -0.020287884
3.5924752 0.93577039 -0.85706353 10 1 -0.02028558
3.6743555 0.95641208 0.19898133 12 9 -0.020283276
3.615597 0.94111758 -0.72621906 53 2 -0.020280972
3.667491 0.95394373 0.33154044 13 10 -0.020278668
3.6172214 0.94019431 -0.59194809 12 3 -0.020276364
3.6985817 0.96065056 0.46919701 13 11 -0.020274062
1.9752278 0.51266861 -0.25056338 94 4 -0.020271758
3.6903732 0.95714551 0.60383707 13 12 -0.020269454
1.9960787 0.5177086 -0.1804124 89 5 -0.020267149
3.7249064 0.9654066 0.7479713 12 13 -0.020264845
2.0398076 0.52829045 -0.11042888 92 6 -0.020262541
3.7373207 0.96723396 0.89125609 13 14 -0.020260237
2.0695844 0.53523052 -0.037313245 99 7 -0.020257933
3.7482858 0.96867591 1.0373468 14 15 -0.020255629
3.558625 0.91502523 -0.98454767 63 0 -0.020234892
3.6566494 0.93954802 0.065900289 52 8 -0.020232588
3.5825074 0.91983128 -0.8539142 46 1 -0.020230284
3.6755722 0.94372624 0.19887665 46 9 -0.02022798
3.5941377 0.92215067 -0.72125804 21 2 -0.020225678
3.6746585 0.94212461 0.33188906 28 10 -0.020223374
3.6204813 0.9275611 -0.59194809 3 3 -0.020221069
3.6961424 0.9462598 0.46846578 20 11 -0.020218765
1.982775 0.50724608 -0.25129461 97 4 -0.020216461
3.7088373 0.94881833 0.60634005 20 12 -0.020214157
1.9940131 0.50975037 -0.18006375 93 5 -0.020211853
3.7149379 0.94899952 0.74529999 17 13 -0.020209549
2.0261576 0.51721442 -0.10959151 94 6 -0.020207245
3.7482278 0.95610809 0.89305568 13 14 -0.020204941
2.0674727 0.52737653 -0.037243433 99 7 -0.020202637
3.7589648 0.95815015 1.0394174 14 15 -0.020200333
3.5730336 0.90544415 -0.98765355 115 0 -0.020179598
3.6558678 0.92643517 0.065830477 8 8 -0.020177294
3.5836482 0.90747023 -0.85346431 86 1 -0.020174989
3.6556089 0.92501181 0.1976206 10 9 -0.020172685
3.5897214 0.90767318 -0.71973157 68 2 -0.020170381
3.6798568 0.92977905 0.33206338 31 10 -0.020168077
1.9726448 0.49842259 -0.32225505 10 3 -0.020165773
3.6742392 0.92767936 0.46529719 42 11 -0.020163469
1.9748223 0.4982405 -0.25007591 100 4 -0.020161165
3.677649 0.92717302 0.60070843 68 12 -0.020158861
2.0035083 0.50473416 -0.18076101 91 5 -0.020156557
3.7066422 0.93379647 0.74301028 74 13 -0.020154253
2.023988 0.50951785 -0.10938216 94 6 -0.020151949
2.0693009 0.52015692 -0.037243433 96 7 -0.02014734
3.7304344 0.93702137 1.0306175 66 15 -0.020145036
3.5835133 0.89546281 -0.98972404 121 0 -0.020124301
3.6513188 0.91173124 0.06569086 86 8 -0.020121997
3.5773404 0.89259559 -0.85121477 100 1 -0.020119693
3.6588161 0.91224474 0.1976206 88 9 -0.020117389
3.5984271 0.89718807 -0.7208764 93 2 -0.020115085
3.6790528 0.91661024 0.33171475 45 10 -0.020112781
1.9667046 0.48962617 -0.32100356 88 3 -0.020110477
3.675529 0.91436809 0.46505347 45 11 -0.020108173
1.9688435 0.48942894 -0.24910097 100 4 -0.020105869
3.6904478 0.9167136 0.60227275 66 12 -0.020103564
2.0090382 0.49904853 -0.18110962 98 5 -0.02010126
3.7003524 0.91848642 0.74110222 42 13 -0.020098956
2.0296314 0.50341076 -0.10959151 92 6 -0.020096652
2.0672219 0.51196855 -0.037173625 100 7 -0.020092044
3.7468102 0.92724174 1.034241 17 15 -0.02008974
3.5509758 0.87417698 -0.97988898 107 0 -0.020069005
3.6467121 0.89706856 0.065551244 100 8 -0.020066701
3.5766499 0.87917161 -0.85031497 96 1 -0.020064397
3.6561587 0.89803904 0.19730657 100 9 -0.020062093
3.5881903 0.88134438 -0.71820509 92 2 -0.020059789
3.6628807 0.89901233 0.32997164 90 10 -0.020057485
1.9645649 0.48181659 -0.32037783 100 3 -0.02005518
3.6844823 0.90295082 0.46578467 85 11 -0.020052876
1.9782524 0.48444152 -0.25007591 93 4 -0.020050572
3.6840317 0.90147734 0.60070843 100 12 -0.020048268
1.9952855 0.48824355 -0.17971513 95 5 -0.020045964
3.7111642 0.90743017 0.74262863 96 13 -0.02004366
2.0391366 0.49821955 -0.11001018 97 6 -0.020041358
3.7029731 0.90405774 0.88000852 76 14 -0.020039054
2.0612257 0.50285423 -0.037034009 100 7 -0.02003675
3.7143631 0.90546483 1.0244058 74 15 -0.020034445
3.5464962 0.85995454 -0.97781837 110 0 -0.020013709
3.6323302 0.88009459 0.065237097 79 8 -0.020011405
3.5759087 0.86576509 -0.84941518 96 1 -0.0200091
3.6534472 0.88386303 0.19699256 87 9 -0.020006796
3.5912447 0.86881465 -0.71820509 100 2 -0.020004492
3.6582501 0.88434732 0.32927439 96 10 -0.020002188
1.9335922 0.46707144 -0.31505907 96 3 -0.019999884
3.6741037 0.88682443 0.46407849 100 11 -0.01999758
1.9799315 0.47753266 -0.25007591 100 4 -0.019995276
3.6717925 0.8849104 0.59820545 100 12 -0.019992974
1.9969777 0.48127615 -0.17971513 91 5 -0.01999067
3.6914046 0.8889553 0.73804927 90 13 -0.019988365
2.0408635 0.49109808 -0.11001018 100 6 -0.019986061
3.7080011 0.89158279 0.88045847 93 14 -0.019983757
2.0629685 0.49565655 -0.037034009 99 7 -0.019981453
3.7193797 0.89294374 1.0249234 84 15 -0.019979149
3.5569925 0.84936357 -0.97988898 101 0 -0.019958412
3.6275997 0.86555445 0.065097481 79 8 -0.019956108
3.5713265 0.8514688 -0.84761554 96 1 -0.019953804
3.6526248 0.87017804 0.19678321 87 9 -0.0199515
3.5808873 0.85308778 -0.71553379 91 2 -0.019949198
3.6613145 0.87157303 0.32927439 100 10 -0.019946892
1.9275237 0.45849007 -0.31380758 96 3 -0.01994459
3.661727 0.87032086 0.46212861 100 11 -0.019942285
1.9815862 0.4706189 -0.25007591 98 4 -0.019939981
3.6767817 0.87254322 0.59851831 100 12 -0.019937677
2.0025229 0.47522208 -0.18006375 95 5 -0.019935373
3.6868441 0.87425154 0.73652273 89 13 -0.019933069
2.0309048 0.48120871 -0.10938216 97 6 -0.019930765
3.7054017 0.87728614 0.87910873 96 14 -0.019928461
2.0763619 0.49121407 -0.037243433 100 7 -0.019926157
3.7111936 0.87728947 1.0218177 95 15 -0.019923853
3.5768609 0.84092206 -0.98454767 53 0 -0.019589901
3.6267052 0.85197258 0.065027662 79 8 -0.019587597
3.5609968 0.83588082 -0.84446627 59 1 -0.019585293
3.6418793 0.85486656 0.19605052 84 9 -0.019582989
3.5914886 0.84237695 -0.71706021 80 2 -0.019580685
3.658515 0.85742426 0.32875144 99 10 -0.019578381
1.9329592 0.45265925 -0.31443331 93 3 -0.019576076
3.6512122 0.85436845 0.4604224 94 11 -0.019573772
1.9792702 0.46314096 -0.24958843 93 4 -0.019571468
3.6758077 0.85944706 0.59789258 100 12 -0.019569164
2.00805 0.46913511 -0.1804124 91 5 -0.01956686
3.6879613 0.86093122 0.73614115 85 13 -0.019564558
2.028682 0.47320962 -0.10917282 97 6 -0.019562254
3.6893127 0.86056775 0.87460971 94 14 -0.01955995
2.0857694 0.486141 -0.037383057 99 7 -0.019557646
3.7216079 0.86673135 1.0238881 97 15 -0.019555341
3.5928042 0.83210623 -0.9881711 49 0 -0.019534605
3.6314592 0.84039116 0.065062575 35 8 -0.019532301
3.599823 0.83240992 -0.85301441 55 1 -0.019529996
3.6271808 0.838736 0.19510846 87 9 -0.019527692
3.5942624 0.8304615 -0.71706021 56 2 -0.019525388
3.6574557 0.84439009 0.32840282 99 10 -0.019523084
1.9382992 0.44713625 -0.31505907 96 3 -0.01952078
3.6598287 0.84359246 0.46115363 100 11 -0.019518478
1.9769266 0.45568264 -0.24910097 100 4 -0.019516174
3.6593878 0.84281832 0.59476393 100 12 -0.01951387
2.0173607 0.46426225 -0.18110962 100 5 -0.019511566
3.6850562 0.84737581 0.73499632 90 13 -0.019509261
2.0341332 0.46737361 -0.10938216 94 6 -0.019506957
3.6845491 0.84658223 0.87281007 91 14 -0.019504653
2.075676 0.47653732 -0.037173625 100 7 -0.019502349
3.7169302 0.85265654 1.0218177 95 15 -0.019500045
3.7047851 0.84510761 -1.0181942 47 0 -0.019479308
2.0978684 0.47816476 0.03755758 33 8 -0.019477004
3.6785672 0.8377763 -0.87101048 45 1 -0.0194747
3.6515086 0.83094358 0.19625986 58 9 -0.019472398
3.64294 0.82899368 -0.72621906 56 2 -0.019470094
3.6485789 0.82960713 0.32735696 66 10 -0.01946779
1.943624 0.44158089 -0.3156848 99 3 -0.019465486
3.6529267 0.82925493 0.45993495 70 11 -0.019463181
1.9823768 0.44965774 -0.24958843 95 4 -0.019460877
3.6411159 0.82523739 0.59132236 66 12 -0.019458573
1.9995372 0.4528164 -0.17936651 95 5 -0.019456269
3.6974194 0.83731985 0.73690438 66 13 -0.019453965
2.0434637 0.46238911 -0.10980085 94 6 -0.019451661
3.6874816 0.83371633 0.87281007 84 14 -0.019449357
2.0734255 0.46840811 -0.037103817 100 7 -0.019447053
3.7048085 0.8362729 1.0176765 86 15 -0.019444749
3.7530978 0.84166962 -1.0306175 22 0 -0.019424014
2.085866 0.46777627 0.037313245 94 8 -0.01942171
3.7670407 0.84410411 -0.89125609 15 1 -0.019419406
3.6855712 0.82517326 0.1979346 48 9 -0.019417102
3.7551599 0.84006733 -0.7479713 13 2 -0.019414797
3.6749282 0.82144344 0.3294487 54 10 -0.019412493
1.9375178 0.43273133 -0.31443331 93 3 -0.019410189
3.6964841 0.82558441 0.46505347 63 11 -0.019407885
1.9878091 0.44360036 -0.25007591 93 4 -0.019405581
3.678679 0.82025981 0.59695399 56 12 -0.019403277
2.0049951 0.44669995 -0.17971513 93 5 -0.019400973
3.7157943 0.82717621 0.73995733 53 13 -0.019398669
2.0412457 0.45402855 -0.10959151 100 6 -0.019396365
3.7114384 0.82484508 0.87775904 52 14 -0.019394061
2.0672398 0.45943174 -0.036964197 99 7 -0.019391757
3.7114766 0.82417572 1.0187118 55 15 -0.019389452
3.9390032 0.86892974 -1.0808283 22 0 -0.019368717
2.0856142 0.45969713 0.037278343 90 8 -0.019366413
3.924263 0.86424178 -0.92769814 17 1 -0.019364109
3.8153591 0.83955973 0.20473827 42 9 -0.019361805
3.761447 0.82700831 0.3369441 46 10 -0.019357197
1.9312991 0.42427054 -0.31318185 96 3 -0.019354893
3.7731643 0.82820392 0.47431552 52 11 -0.019352589
1.989422 0.4363102 -0.25007591 91 4 -0.019350285
3.7723508 0.82664531 0.61165881 48 12 -0.019347981
2.0104346 0.44055191 -0.18006375 91 5 -0.019345677
3.7761941 0.82679683 0.75140589 49 13 -0.019343372
2.0350139 0.44519264 -0.10917282 94 6 -0.019341068
3.765697 0.82312125 0.88990635 55 14 -0.019338764
2.0767243 0.45355904 -0.037103817 96 7 -0.01933646
3.7578838 0.82003725 1.0306175 48 15 -0.019334156
3.9967628 0.86705309 -1.0958399 24 0 -0.019313421
2.0950232 0.45410907 0.037417959 80 8 -0.019311117
4.0034394 0.86703646 -0.94569421 22 1 -0.019308813
3.8534038 0.83384073 0.20662238 15 9 -0.019306509
1.9341941 0.41854161 -0.38467094 6 2 -0.019304205
3.8480484 0.83197892 0.34443948 13 10 -0.019301901
1.9404917 0.41919437 -0.31443331 93 3 -0.019299597
3.8536487 0.8317799 0.48406506 15 11 -0.019297292
1.9792898 0.42685369 -0.24861349 94 4 -0.019294988
3.8582494 0.83136362 0.62511224 16 12 -0.019292684
2.0158558 0.43437034 -0.1804124 95 5 -0.01929038
3.8999717 0.83964157 0.77544779 19 13 -0.019288076
2.0365551 0.43808779 -0.10917282 100 6 -0.019285774
3.879051 0.83372086 0.91600066 48 14 -0.01928347
2.0861156 0.44798601 -0.037243433 96 7 -0.019281166
3.9477201 0.84704036 1.0818636 47 15 -0.019278862
4.0375519 0.86115485 -1.1061926 24 0 -0.019258125
2.100507 0.44762626 0.037487768 80 8 -0.019255821
4.042655 0.86077017 -0.95424235 21 1 -0.019253517
4.0534477 0.8630681 0.21719423 15 9 -0.019251212
1.9126002 0.40688476 -0.38009155 53 2 -0.019248908
4.0555587 0.86203593 0.36274219 29 10 -0.019246604
1.9496721 0.4140611 -0.3156848 93 3 -0.0192443
4.0215864 0.85334784 0.50478286 18 11 -0.019241996
1.9806945 0.42028722 -0.24861349 100 4 -0.019239694
4.0291057 0.85420853 0.65233177 15 12 -0.01923739
2.025156 0.42898396 -0.18110962 89 5 -0.019235086
4.0430903 0.85569888 0.80330586 16 13 -0.019232782
2.04198 0.43180209 -0.10938216 100 6 -0.019230478
3.8798878 0.82045048 0.91555077 40 14 -0.019228173
2.0719376 0.43775821 -0.036964197 100 7 -0.019225869
3.9920914 0.84272176 1.0932516 43 15 -0.019223565
4.061183 0.85212559 -1.1118866 25 0 -0.019202828
2.0961087 0.43942684 0.037383057 76 8 -0.019200524
4.0817275 0.85494912 -0.96279049 17 1 -0.01919822
4.0953846 0.8578096 0.21928766 15 9 -0.019195916
1.9177819 0.40134475 -0.38085476 79 2 -0.019193612
4.0934997 0.85592139 0.36587983 43 10 -0.01919131
1.9510345 0.40759292 -0.3156848 96 3 -0.019189006
4.133214 0.86272174 0.5184322 21 11 -0.019186702
1.9859636 0.41452828 -0.24910097 95 4 -0.019184398
4.1112013 0.85737634 0.66515946 16 12 -0.019182093
2.0109634 0.41901404 -0.17971513 91 5 -0.019179789
4.159306 0.86589569 0.82582134 31 13 -0.019177485
2.0394902 0.42421424 -0.10917282 100 6 -0.019175181
3.8711398 0.80519766 0.91285133 35 14 -0.019172877
2.0772936 0.43170023 -0.037034009 99 7 -0.019170573
4.0156713 0.83379996 1.0989457 40 15 -0.019168269
4.0942583 0.84489948 -1.1201688 25 0 -0.019147532
2.0975542 0.43247393 0.037383057 76 8 -0.01914523
4.1093526 0.84652102 -0.96863925 10 1 -0.019142926
4.1335669 0.85075516 0.22117178 16 9 -0.019140622
1.9191715 0.39464751 -0.38085476 100 2 -0.019138318
4.092412 0.8415404 0.36553118 19 10 -0.019136013
1.9407655 0.39873594 -0.31380758 96 3 -0.019133709
4.1613317 0.85419875 0.52160084 19 11 -0.019131405
1.9971216 0.40958703 -0.25031966 97 4 -0.019129101
4.1528716 0.85095376 0.67141682 15 12 -0.019126797
2.0085101 0.41119218 -0.17936651 98 5 -0.019124493
4.1815381 0.85530484 0.82963753 24 13 -0.019122189
2.0526989 0.41949329 -0.10980085 100 6 -0.019119885
3.8815632 0.79324335 0.91465092 43 14 -0.019117581
2.078788 0.42444593 -0.037034009 99 7 -0.019115277
4.0412717 0.82441014 1.1051573 43 15 -0.019112973
4.1314092 0.83679146 -1.1294864 21 0 -0.019092238
2.0912852 0.42319703 0.037243433 76 8 -0.019089933
2.2768297 0.46032947 -0.53628331 1 1 -0.019087629
4.1797266 0.84429997 0.22347455 15 9 -0.019085325
1.9302273 0.3895531 -0.38276285 100 2 -0.019083021
4.1540589 0.83836067 0.37076053 21 10 -0.019080717
1.9383414 0.39083767 -0.31318185 93 3 -0.019078413
4.1838942 0.84286213 0.5240382 16 11 -0.019076109
1.9888791 0.40030646 -0.24910097 93 4 -0.019073805
4.1850123 0.84156543 0.67610979 15 12 -0.019071501
2.0139103 0.40461317 -0.17971513 95 5 -0.019069197
4.2019682 0.84345132 0.83307213 12 13 -0.019066893
2.0424736 0.40960914 -0.10917282 94 6 -0.019064588
3.918838 0.78590584 0.92274922 48 14 -0.019062284
2.0842509 0.41761008 -0.037103817 100 7 -0.01905998
4.0840454 0.8175568 1.1160278 45 15 -0.019057676
4.1780281 0.83030516 -1.1413921 5 0 -0.019036941
2.0928221 0.4155297 0.037243433 76 8 -0.019034637
2.3052626 0.45729044 -0.54258198 41 1 -0.019032333
4.208117 0.8347559 0.22483528 13 9 -0.019030029
1.9277236 0.38205007 -0.38199964 100 2 -0.019027725
4.1903291 0.82970941 0.3737238 19 10 -0.019025421
1.9436364 0.38449779 -0.31380758 99 3 -0.019023117
4.216167 0.83329409 0.52769434 16 11 -0.019020813
1.984422 0.39220628 -0.24836974 97 4 -0.019018508
4.2324967 0.83575624 0.6833058 15 12 -0.019016204
2.0192201 0.39835158 -0.18006375 98 5 -0.0190139
4.2106657 0.82991642 0.83421695 10 13 -0.019011596
2.0399714 0.40170571 -0.10896347 100 6 -0.019009292
3.9406776 0.77598768 0.92724824 53 14 -0.01900699
2.0896201 0.41110361 -0.037173625 100 7 -0.019004686
4.1285777 0.81149173 1.1274159 47 15 -0.019002382
2.3055797 0.45024791 -0.62944794 9 0 -0.018981645
2.1000767 0.40973556 0.037348151 80 8 -0.018979341
2.2972026 0.44777966 -0.54033244 51 1 -0.018977037
4.2579107 0.82996857 0.22734742 1 9 -0.018974733
1.925126 0.3749043 -0.3812364 100 2 -0.018972429
4.2399955 0.82494038 0.37790731 14 10 -0.018970124
1.9487789 0.37880456 -0.31443331 96 3 -0.01896782
4.2637267 0.82801306 0.53330034 16 11 -0.018965516
1.9876605 0.38600242 -0.24861349 100 4 -0.018963212
4.2585158 0.82622993 0.68706024 15 12 -0.018960908
2.024442 0.39241216 -0.1804124 98 5 -0.018958606
4.223032 0.81781602 0.83612514 7 13 -0.018956302
2.0491359 0.39645669 -0.10938216 97 6 -0.018953998
3.9776676 0.76957941 0.93534642 52 14 -0.018951694
2.0791917 0.40189528 -0.036964197 100 7 -0.018949389
4.1691823 0.80512106 1.1377686 43 15 -0.018947085
2.2823954 0.43786857 -0.62271863 43 0 -0.018926349
2.1073158 0.40389889 0.037452865 76 8 -0.018924044
2.2814491 0.43686029 -0.53628331 71 1 -0.01892174
2.377563 0.45483559 0.12686236 16 9 -0.018919436
1.9205736 0.367412 -0.38009155 100 2 -0.018917132
4.2798891 0.81798255 0.38121921 15 10 -0.018914828
1.9616665 0.3745625 -0.31631052 99 3 -0.018912526
4.3054476 0.82130975 0.53817511 16 11 -0.018910222
1.9889959 0.37906131 -0.24861349 100 4 -0.018907918
4.2924228 0.81727034 0.69206619 15 12 -0.018905614
2.0139887 0.38346016 -0.17936651 100 5 -0.018903309
4.2411494 0.80674314 0.83917803 6 13 -0.018901005
2.0582879 0.39115024 -0.10980085 100 6 -0.018898701
4.0167065 0.76259536 0.94389462 48 14 -0.018896397
2.0805817 0.39463553 -0.036964197 100 7 -0.018894093
4.200438 0.795959 1.1455331 42 15 -0.018891789
2.2630265 0.42596734 -0.6170246 52 0 -0.018871052
2.1008518 0.3950617 0.037313245 76 8 -0.018868748
2.2733839 0.42709532 -0.53403378 67 1 -0.018866446
2.2279868 0.4181641 0.11880264 83 9 -0.018864142
1.9218445 0.3607052 -0.38009155 100 2 -0.018861838
4.3101349 0.80817753 0.3836596 15 10 -0.018859534
1.9435457 0.36407602 -0.31318185 99 3 -0.01885723
4.3492637 0.81394309 0.5432936 18 11 -0.018854925
1.9942094 0.37284616 -0.24910097 93 4 -0.018852621
4.3437939 0.81135029 0.69988787 15 12 -0.018850317
2.0113978 0.37569651 -0.1790179 98 5 -0.018848013
4.2130609 0.78617054 0.83307213 12 13 -0.018845709
2.0557139 0.38323149 -0.10959151 100 6 -0.018843405
4.0499964 0.75427943 0.95109308 47 14 -0.018841101
2.0858791 0.38810164 -0.037034009 100 7 -0.018838797
4.2278819 0.78588235 1.1522624 36 15 -0.018836493
2.2531013 0.41596144 -0.61391884 55 0 -0.018815758
2.0923853 0.3859129 0.037138719 80 8 -0.018813454
2.2537794 0.41527322 -0.52908486 71 1 -0.01881115
2.1547911 0.39664412 0.11482509 80 9 -0.018808845
1.9269536 0.35470483 -0.38085476 100 2 -0.018806541
4.3599582 0.80177677 0.38784304 15 10 -0.018804237
1.9409194 0.35657519 -0.31255612 96 3 -0.018801933
4.3794127 0.80377203 0.5467059 16 11 -0.018799629
2.0072138 0.36803123 -0.25056338 100 4 -0.018797325
4.3854609 0.80329984 0.70614529 13 12 -0.018795021
2.0205362 0.37010849 -0.17971513 95 5 -0.018792717
4.2679219 0.78099996 0.8433758 13 13 -0.018790413
2.0491803 0.37461713 -0.10917282 100 6 -0.018788109
4.0890284 0.74678874 0.95964122 45 14 -0.018785805
2.0911553 0.38153544 -0.037103817 100 7 -0.0187835
4.26861 0.77804869 1.1626152 40 15 -0.018781196
2.2545395 0.40809351 -0.61391884 68 0 -0.018760461
2.0996232 0.37967372 0.037243433 76 8 -0.018758157
2.0787871 0.37553233 -0.48769391 33 1 -0.018755853
2.1443694 0.38699228 0.11419707 87 9 -0.018753549
1.9320439 0.34867412 -0.38161799 100 2 -0.018751245
4.4097891 0.79503572 0.39202651 15 10 -0.018748941
1.9499282 0.35119987 -0.31380758 93 3 -0.018746637
4.4134512 0.79410547 0.55060571 15 11 -0.018744333
1.9928561 0.3582125 -0.24861349 93 4 -0.018742029
4.4193463 0.7935738 0.71115112 15 12 -0.018739725
2.0218155 0.36305365 -0.17971513 98 5 -0.01873742
4.2938108 0.77025813 0.84795523 13 13 -0.018735116
2.0426116 0.36605206 -0.10875413 100 6 -0.018732812
4.2546611 0.7617023 0.9978829 40 14 -0.018730508
2.0924745 0.37423408 -0.037103817 99 7 -0.018728204
4.3188434 0.77163708 1.1755562 43 15 -0.018725902
2.2483416 0.39887077 -0.61184824 62 0 -0.018705165
2.1009355 0.3723428 0.037243433 76 8 -0.018702861
1.8977898 0.33599824 -0.44495317 85 1 -0.018700557
2.1358738 0.37776488 0.11367371 74 9 -0.018698253
1.9177835 0.33919197 -0.37856507 100 2 -0.018695949
4.4478536 0.78587872 0.39516413 16 10 -0.018693645
1.9589237 0.34576413 -0.31505907 90 3 -0.01869134
4.4670248 0.78765607 0.55694294 16 11 -0.018689036
1.9823643 0.34918815 -0.24715105 89 4 -0.018686732
4.453217 0.78362101 0.71615702 13 12 -0.018684428
2.0270576 0.35633031 -0.18006375 95 5 -0.018682124
4.3138762 0.75832319 0.85138983 9 13 -0.018679822
2.0517457 0.360302 -0.10917282 100 6 -0.018677518
4.3302317 0.75964242 1.0149791 40 14 -0.018675214
2.089829 0.36623681 -0.037034009 99 7 -0.01867291
4.3633752 0.76388472 1.1869442 40 15 -0.018670605
2.2364647 0.38831463 -0.60822481 66 0 -0.018649869
2.114044 0.36705884 0.037452865 76 8 -0.018647565
1.9123918 0.33170244 -0.4481025 100 1 -0.01864526
2.1450508 0.37167233 0.11409239 77 9 -0.018642956
1.9209481 0.33249593 -0.37894669 100 2 -0.018640652
4.4605203 0.77126735 0.39603567 15 10 -0.018638348
1.9640708 0.33925492 -0.3156848 93 3 -0.018636044
4.5088692 0.7788192 0.56181771 18 11 -0.018633742
1.9992207 0.34496608 -0.24910097 94 4 -0.018631438
4.4968057 0.77511686 0.72272736 15 12 -0.018629134
2.0204349 0.34790137 -0.17936651 95 5 -0.01862683
4.3475838 0.74783295 0.85749573 12 13 -0.018624526
2.0609262 0.35413197 -0.10959151 97 6 -0.018622221
4.3790827 0.75167966 1.0257769 39 14 -0.018619917
2.0871522 0.35826448 -0.036964197 99 7 -0.018617613
4.3945751 0.75354731 1.1947087 40 15 -0.018615309
2.2378068 0.38050497 -0.60822481 66 0 -0.018594572
2.1015749 0.35696447 0.037208531 80 8 -0.018592268
1.9039881 0.32306141 -0.44585299 100 1 -0.018589964
2.1423969 0.36351368 0.11388306 74 9 -0.01858766
1.9279042 0.32677227 -0.38009155 100 2 -0.018585358
2.4692886 0.41809273 0.21910954 1 10 -0.018583054
1.9535567 0.33041981 -0.31380758 93 3 -0.01858075
4.5762863 0.77319813 0.56986111 30 11 -0.018578446
1.9984553 0.33765411 -0.24885722 97 4 -0.018576141
4.5462317 0.76730633 0.73023617 15 12 -0.018573837
2.021637 0.34084609 -0.17936651 95 5 -0.018571533
4.3850155 0.73852032 0.8643648 21 13 -0.018569229
2.0660887 0.347599 -0.10980085 94 6 -0.018566925
4.4257512 0.74458885 1.0361246 35 14 -0.018564621
2.0903623 0.35130766 -0.036999103 100 7 -0.018562317
4.4314733 0.74395889 1.2040263 36 15 -0.018560013
2.235245 0.37244853 -0.60718954 71 0 -0.018539278
2.1047194 0.35032216 0.037243433 76 8 -0.018536974
1.9031267 0.31642559 -0.4454031 100 1 -0.01853467
2.1514714 0.35771692 0.11430173 72 9 -0.018532366
1.9289771 0.32037771 -0.38009155 100 2 -0.018530061
2.4686959 0.40957639 0.21893522 12 10 -0.018527757
1.9585394 0.32458517 -0.31443331 90 3 -0.018525453
4.6414952 0.76839435 0.57766074 17 11 -0.018523149
2.0113146 0.33297086 -0.25031966 97 4 -0.018520845
4.5896783 0.75899535 0.73680639 13 12 -0.018518541
2.0266876 0.3347891 -0.17971513 93 5 -0.018516237
4.4106855 0.72781157 0.86894423 40 13 -0.018513933
2.0514646 0.33814746 -0.10896347 92 6 -0.018511629
4.4762654 0.73783278 1.0473721 39 14 -0.018509325
2.0875695 0.34372348 -0.036929294 100 7 -0.018507021
4.4682274 0.73490381 1.2133437 38 15 -0.018504716
2.2421873 0.36596814 -0.60874242 75 0 -0.018483981
2.1098168 0.34398368 0.037313245 74 8 -0.018481677
1.9022421 0.3098 -0.44495317 100 1 -0.018479373
2.1408789 0.34828204 0.11367371 75 9 -0.018477069
1.9339042 0.31461102 -0.38085476 100 2 -0.018474765
2.4661074 0.40074781 0.21858659 39 10 -0.018472461
1.9518056 0.31682301 -0.31318185 96 3 -0.018470157
4.6518555 0.7542724 0.57863569 39 11 -0.018467853
1.9987478 0.32372683 -0.24861349 93 4 -0.018465549
4.6488504 0.75211763 0.74587959 15 12 -0.018463245
2.0317204 0.32870334 -0.18006375 95 5 -0.018460941
4.446022 0.71850455 0.87543172 33 13 -0.018458636
2.0486314 0.33070558 -0.10875413 100 6 -0.018456332
4.5057483 0.72654516 1.0536706 42 14 -0.018454028
2.0927055 0.33706987 -0.036999103 93 7 -0.018451724
4.5203562 0.72728187 1.2268023 38 15 -0.01844942
2.2434511 0.35813862 -0.60874242 75 0 -0.018428685
2.1110048 0.3366164 0.037313245 76 8 -0.018426381
1.9052364 0.30346501 -0.4454031 100 1 -0.018424077
2.1381369 0.34017864 0.11346437 78 9 -0.018421773
1.9272351 0.30662408 -0.37932828 100 2 -0.018419469
2.4694593 0.39244911 0.21876092 50 10 -0.018417165
1.9646053 0.31186661 -0.31505907 90 3 -0.018414861
4.6721053 0.74082643 0.58082932 22 11 -0.018412556
1.9979049 0.31643683 -0.24836974 97 4 -0.018410252
4.692421 0.74236882 0.75244987 16 12 -0.018407948
2.0367913 0.32223246 -0.1804124 95 5 -0.018405644
4.4640164 0.70543528 0.87848467 30 13 -0.01840334
2.053719 0.32417473 -0.10896347 97 6 -0.018401038
4.5390563 0.71566981 1.0608691 42 14 -0.018398734
2.0899184 0.32914212 -0.036929294 100 7 -0.01839643
4.5763021 0.71990305 1.2412962 40 15 -0.018394126
2.2389619 0.34941116 -0.60718954 83 0 -0.018373389
2.1161187 0.32986304 0.037383057 76 8 -0.018371085
1.9082097 0.29711193 -0.44585299 100 1 -0.018368781
2.1432583 0.33332634 0.11367371 74 9 -0.018366477
1.9224741 0.2989893 -0.37818345 100 2 -0.018364172
2.4491575 0.38046297 0.21684349 46 10 -0.018361868
1.969586 0.30561221 -0.3156848 93 3 -0.018359564
4.7354751 0.73393697 0.58838522 19 11 -0.01835726
2.0009592 0.30976504 -0.24861349 94 4 -0.018354956
4.7379313 0.73262435 0.75933295 19 12 -0.018352654
2.0260897 0.3132934 -0.17936651 100 5 -0.01835035
4.4645119 0.68954778 0.87810302 27 13 -0.018348046
2.0627337 0.31822246 -0.10938216 97 6 -0.018345742
4.5877514 0.70694286 1.0716668 42 14 -0.018343437
2.0871015 0.32123598 -0.036859483 100 7 -0.018341133
4.6074281 0.7083286 1.2490608 36 15 -0.018338829
2.2344382 0.34072039 -0.6056366 75 0 -0.018318092
2.1093495 0.32126945 0.037243433 74 8 -0.018315788
1.9150149 0.29132795 -0.44720268 100 1 -0.018313484
2.1483579 0.32644346 0.11388306 78 9 -0.01831118
1.9293288 0.29316196 -0.37932828 100 2 -0.018308878
2.442591 0.37071612 0.21614623 49 10 -0.018306572
1.9511102 0.29577398 -0.31255612 99 3 -0.01830427
4.7949271 0.72602206 0.59545368 60 11 -0.018301966
2.0020282 0.30277896 -0.24861349 94 4 -0.018299662
4.7892904 0.72345632 0.76715469 60 12 -0.018297357
2.0192909 0.30502823 -0.17866927 98 5 -0.018295053
4.4377718 0.66956693 0.87237877 28 13 -0.018292749
2.0677817 0.31161594 -0.10959151 100 6 -0.018290445
4.6441479 0.6990447 1.084264 35 14 -0.018288141
2.092165 0.31454372 -0.036929294 100 7 -0.018285837
4.6366186 0.6962586 1.2563076 33 15 -0.018283533
2.2394354 0.33348715 -0.60667187 62 0 -0.018260479
2.1025465 0.31272814 0.037103817 85 8 -0.018258175
1.9102374 0.28378287 -0.44585299 100 1 -0.018255871
2.1573868 0.32011431 0.11430173 78 9 -0.018253567
1.9342247 0.28700137 -0.38009155 100 2 -0.018251263
2.3551815 0.34904313 0.20830221 59 10 -0.018248959
1.9521308 0.28896195 -0.31255612 96 3 -0.018246654
4.7935052 0.70869827 0.59496623 29 11 -0.01824435
2.0070007 0.29636815 -0.24910097 94 4 -0.018242046
4.8054662 0.70875275 0.76934481 34 12 -0.018239742
2.0282795 0.29878703 -0.17936651 100 5 -0.018237438
4.4828129 0.6603657 0.88077438 31 13 -0.018235136
2.0570009 0.3026512 -0.10896347 100 6 -0.018232832
4.6870484 0.68878031 1.0937121 36 14 -0.018230528
2.1011643 0.3083998 -0.037068911 100 7 -0.018228224
4.6982756 0.68875486 1.2723545 35 15 -0.018225919
2.1871121 0.31750634 -0.59217799 29 0 -0.018205183
2.111541 0.30653557 0.037243433 76 8 -0.018202879
1.9015734 0.27571541 -0.44360349 100 1 -0.018200574
2.1466312 0.31086466 0.11367371 75 9 -0.01819827
1.9372065 0.28019163 -0.38047317 100 2 -0.018195966
2.206579 0.31875968 0.19505455 73 10 -0.018193662
1.9649073 0.28349802 -0.31443331 90 3 -0.018191358
4.7939839 0.691679 0.59472245 42 11 -0.018189056
1.9962339 0.28766224 -0.24763852 94 4 -0.018186752
4.8157315 0.69310087 0.77059627 52 12 -0.018184448
2.0332544 0.29227158 -0.17971513 100 5 -0.018182144
4.5357294 0.65118593 0.89069647 31 13 -0.018179839
2.0541422 0.29454336 -0.10875413 94 6 -0.018177535
4.7281227 0.67712086 1.1027101 38 14 -0.018175231
2.1101463 0.30219692 -0.037208531 100 7 -0.018172927
4.752285 0.67973715 1.2863307 36 15 -0.018170623
1.8974663 0.26869792 -0.51349699 93 0 -0.018149886
2.1185901 0.2996349 0.037348151 80 8 -0.018147582
1.9102895 0.26983371 -0.4454031 100 1 -0.018145278
2.1438012 0.30243626 0.11346437 77 9 -0.018142976
1.9323407 0.27260453 -0.37932828 100 2 -0.018140672
2.1978137 0.30966592 0.19418299 94 10 -0.018138368
1.9678413 0.27691224 -0.31474617 96 3 -0.018136064
4.7984533 0.67437863 0.59496623 43 11 -0.018133759
2.0031722 0.28117192 -0.24836974 100 4 -0.018131455
4.8065023 0.67379904 0.76871902 45 12 -0.018129151
2.0382085 0.28572607 -0.18006375 100 5 -0.018126847
4.5865827 0.64215344 0.9002369 33 13 -0.018124543
2.0630701 0.28847805 -0.10917282 100 6 -0.018122239
4.7767773 0.66708213 1.1135077 38 14 -0.018119935
2.0914342 0.29169896 -0.036859483 100 7 -0.018117631
4.8025789 0.66897649 1.2992717 35 15 -0.018115327
1.877342 0.25916725 -0.50780302 100 0 -0.018094592
2.1216044 0.29251039 0.037383057 76 8 -0.018092288
1.9189419 0.26422757 -0.44720268 100 1 -0.018089984
2.1488008 0.29549578 0.11367371 74 9 -0.01808768
1.9293907 0.26532322 -0.37856507 100 2 -0.018085375
2.1909857 0.30090731 0.19348574 90 10 -0.018083071
1.9687958 0.27004194 -0.31474617 96 3 -0.018080767
4.8086448 0.65870339 0.59594113 37 11 -0.018078463
2.0061085 0.2744464 -0.24861349 98 4 -0.018076159
4.7970819 0.65541142 0.76684189 37 12 -0.018073855
2.0273492 0.27699086 -0.1790179 98 5 -0.018071551
4.6354814 0.63251054 0.90939575 34 13 -0.018069247
2.0601065 0.2807349 -0.10896347 94 6 -0.018066943
4.8350749 0.65802372 1.126555 36 14 -0.018064639
2.0924397 0.28439713 -0.036859483 100 7 -0.018062335
4.8469992 0.65792584 1.3106596 37 15 -0.01806003
1.8705767 0.251582 -0.50573242 100 0 -0.018039295
2.1146848 0.28403744 0.037243433 76 8 -0.018036991
1.9198524 0.25752804 -0.44720268 100 1 -0.018034687
2.1577375 0.28905344 0.11409239 75 9 -0.018032383
1.9380885 0.25962895 -0.38009155 100 2 -0.018030079
2.1801741 0.29167175 0.19243988 90 10 -0.018027775
1.9618945 0.26212192 -0.31349471 96 3 -0.018025471
4.8207531 0.64322549 0.5971598 39 11 -0.018023167
2.0109897 0.26796597 -0.24910097 95 4 -0.018020863
4.8267536 0.64231384 0.771222 37 12 -0.018018559
2.0322535 0.27043945 -0.17936651 95 5 -0.018016255
4.6785302 0.6217559 0.91740966 31 13 -0.01801395
2.0689936 0.27459264 -0.10938216 100 6 -0.018011646
4.8837061 0.64729059 1.1373526 35 14 -0.018009342
2.0973847 0.27761567 -0.036929294 100 7 -0.018007038
4.8837399 0.64555818 1.3199772 37 15 -0.018004734
1.8791054 0.2460555 -0.50780302 100 0 -0.017983999
2.1116977 0.27613595 0.037173625 76 8 -0.017981695
1.9072133 0.24905802 -0.44405338 100 1 -0.017979391
2.1626942 0.28203571 0.11430173 75 9 -0.017977087
1.9428766 0.25336939 -0.38085476 100 2 -0.017974783
2.1890819 0.2850894 0.19313712 94 10 -0.017972479
1.9627976 0.25527152 -0.31349471 96 3 -0.017970175
4.8643093 0.63176179 0.60227835 13 11 -0.01796787
2.0158501 0.26145574 -0.24958843 100 4 -0.017965566
4.854434 0.62875867 0.7752893 12 12 -0.017963262
2.0331852 0.26334333 -0.17936651 98 5 -0.017960958
4.8870578 0.63211465 0.95786124 30 13 -0.017958654
2.0580544 0.26583412 -0.10875413 94 6 -0.017956352
4.9419847 0.6374678 1.1503997 38 14 -0.017954048
2.1102409 0.27182502 -0.037138719 100 7 -0.017951744
4.9472771 0.63639504 1.3365415 37 15 -0.01794944
1.8837856 0.23998247 -0.50883824 100 0 -0.017928703
2.1146326 0.26901489 0.037208531 80 8 -0.017926399
1.9042047 0.24190833 -0.44315359 100 1 -0.017924095
2.1556923 0.27385706 0.11388306 74 9 -0.01792179
1.9437491 0.24658729 -0.38085476 100 2 -0.017919486
2.1940167 0.27794656 0.19348574 90 10 -0.017917182
1.959757 0.24792308 -0.31286895 93 3 -0.017914878
4.9393539 0.62398726 0.61129665 16 11 -0.017912574
2.0088725 0.25342318 -0.24861349 93 4 -0.017910272
4.9642839 0.62625408 0.79249716 16 12 -0.017907968
2.045953 0.25773823 -0.1804124 100 5 -0.017905664
4.978838 0.6263271 0.97541571 30 13 -0.01790336
2.0629334 0.25914586 -0.10896347 97 6 -0.017901056
4.9886527 0.62579066 1.1607474 36 14 -0.017898751
2.1111305 0.26482618 -0.037138719 99 7 -0.017896447
5.0049496 0.6269502 1.3515531 35 15 -0.017894143
1.8922808 0.23435463 -0.51090884 100 0 -0.017873406
2.1214664 0.26273876 0.037313245 76 8 -0.017871102
1.9088645 0.23607115 -0.44405338 100 1 -0.017868798
2.1487067 0.26535091 0.11346437 75 9 -0.017866494
1.9368039 0.23883919 -0.37932828 100 2 -0.01786419
2.1989284 0.27077484 0.19383438 94 10 -0.017861888
1.9684107 0.24238902 -0.31412044 90 3 -0.017859584
5.0142951 0.61656678 0.62031502 17 11 -0.01785728
2.0097017 0.24676053 -0.24861349 100 4 -0.017854976
5.0115352 0.61445421 0.79969311 15 12 -0.017852671
2.0428848 0.2501111 -0.18006375 95 5 -0.017850367
5.0549383 0.61887789 0.9899171 31 13 -0.017848063
2.0677464 0.25278869 -0.10917282 97 6 -0.017845759
5.0371251 0.61491501 1.171545 35 14 -0.017843455
2.100132 0.25600395 -0.036929294 99 7 -0.017841151
5.0588861 0.61577702 1.3655293 37 15 -0.017838847
1.8815397 0.22669131 -0.50780302 100 0 -0.01781811
2.1263416 0.25581005 0.037383057 74 8 -0.017815808
1.9174162 0.23033574 -0.44585299 100 1 -0.017813504
2.1535857 0.25832406 0.11367371 74 9 -0.0178112
1.9414841 0.23288234 -0.38009155 100 2 -0.017808896
2.1919014 0.26253307 0.19313712 94 10 -0.017806591
1.9731677 0.23598514 -0.31474617 93 3 -0.017804287
5.0617518 0.60447246 0.62592101 16 11 -0.017801983
2.0066085 0.23927417 -0.248126 98 4 -0.017799679
5.0783801 0.60466284 0.81001776 27 12 -0.017797375
2.0318325 0.24192232 -0.1790179 100 5 -0.017795071
5.0999579 0.60632682 0.99831271 30 13 -0.017792767
2.072583 0.24604067 -0.10938216 100 6 -0.017790463
5.0914907 0.60352051 1.1836925 29 14 -0.017788159
2.0970411 0.24820092 -0.036859483 96 7 -0.017785855
5.1032109 0.60310358 1.3769174 37 15 -0.017783551
1.8708066 0.21877709 -0.50469714 100 0 -0.017762816
2.1192768 0.24745789 0.037243433 76 8 -0.017760511
1.9182086 0.2236408 -0.44585299 100 1 -0.017758207
2.1624095 0.25173032 0.11409239 77 9 -0.017755903
1.9422851 0.2261052 -0.38009155 100 2 -0.017753599
2.182909 0.25372952 0.19226557 98 10 -0.017751295
1.9661306 0.22818463 -0.31349471 93 3 -0.017748991
5.1269317 0.59411561 0.63372064 17 11 -0.017746687
2.0153193 0.23318046 -0.24910097 100 4 -0.017744383
5.1354046 0.59327853 0.8187781 59 12 -0.017742079
2.0287063 0.23437059 -0.17866927 95 5 -0.017739775
5.1566515 0.5948236 1.008998 46 13 -0.017737471
2.0734291 0.23880395 -0.10938216 100 6 -0.017735166
5.1613264 0.59353501 1.199439 42 14 -0.017732862
2.0978949 0.2408798 -0.036859483 99 7 -0.017730558
5.1647835 0.59210604 1.3929642 41 15 -0.017728254
1.8869153 0.21398641 -0.50883824 100 0 -0.017707519
2.1161535 0.23960921 0.037173625 76 8 -0.017705215
1.9112319 0.21606839 -0.44405338 100 1 -0.017702911
2.1712139 0.24507608 0.11451109 77 9 -0.017700607
1.9411117 0.21910325 -0.37970993 100 2 -0.017698303
2.1917007 0.2470001 0.1929628 86 10 -0.017695999
1.9669151 0.22132057 -0.31349471 93 3 -0.017693695
5.1704006 0.58086836 0.63883913 19 11 -0.017691391
2.0200665 0.22658628 -0.24958843 95 4 -0.017689086
5.1747432 0.57952726 0.82472259 61 12 -0.017686782
2.0374317 0.22817504 -0.17936651 93 5 -0.017684478
5.1996698 0.58139998 1.017012 93 13 -0.017682174
2.0663102 0.23067795 -0.10896347 97 6 -0.01767987
5.2272792 0.58263981 1.2142857 100 14 -0.017677568
2.1126349 0.23510396 -0.037103817 100 7 -0.017675264
5.2436204 0.58260578 1.4136697 100 15 -0.01767296
1.8914915 0.20782094 -0.50987357 100 0 -0.017652223
2.1209526 0.23265754 0.037243433 74 8 -0.017649919
1.9081002 0.20897081 -0.44315359 100 1 -0.017647615
2.1561728 0.23575938 0.11367371 72 9 -0.017645311
1.9477193 0.21296676 -0.38085476 100 2 -0.017643007
2.1984916 0.23999831 0.19348574 94 10 -0.017640702
1.9676758 0.21445289 -0.31349471 93 3 -0.017638398
2.2516994 0.24501148 0.27810585 5 11 -0.017636094
2.0168982 0.21910521 -0.24910097 95 4 -0.01763379
5.1708431 0.56082016 0.82378399 38 12 -0.017631486
2.0421772 0.2214908 -0.17971513 100 5 -0.017629184
5.2114263 0.56430149 1.0189201 99 13 -0.01762688
2.0710745 0.22389355 -0.10917282 97 6 -0.017624576
5.2215314 0.56355184 1.2124861 100 14 -0.017622272
2.117419 0.22815594 -0.037173625 100 7 -0.017619967
5.2590675 0.56574613 1.4172932 100 15 -0.017617663
1.8960474 0.20162518 -0.51090884 100 0 -0.017596927
2.1257288 0.22567426 0.037313245 76 8 -0.017594622
1.9146317 0.20292559 -0.44450328 100 1 -0.017592318
2.1530101 0.22781061 0.11346437 75 9 -0.017590014
1.9406415 0.20533982 -0.37932828 100 2 -0.01758771
2.2032788 0.23274072 0.19383438 94 10 -0.017585406
1.9723413 0.20799786 -0.31412044 99 3 -0.017583104
2.2327993 0.23507106 0.27566847 33 11 -0.0175808
2.0215991 0.21247901 -0.24958843 93 4 -0.017578496
2.0469012 0.2147772 -0.18006375 98 5 -0.017573887
5.2172694 0.54651695 1.0196834 100 13 -0.017571583
2.0758162 0.21707869 -0.10938216 100 6 -0.017569279
5.2292814 0.54593009 1.213836 100 14 -0.017566975
2.1022911 0.21910553 -0.036894388 100 7 -0.017564671
5.2552457 0.54678643 1.4157403 100 15 -0.017562367
1.8852094 0.19381957 -0.50780302 100 0 -0.01754163
2.1344607 0.21906984 0.037452865 76 8 -0.017539326
1.9211441 0.19683734 -0.44585299 100 1 -0.017537024
2.1577661 0.22069968 0.11367371 74 9 -0.01753472
1.9296283 0.19736537 -0.3770386 100 2 -0.017532416
2.2001133 0.22464411 0.19348574 94 10 -0.017530112
1.980916 0.20191254 -0.3153719 99 3 -0.017527808
2.2434809 0.22827987 0.27688718 70 11 -0.017525503
2.0183785 0.20502023 -0.24910097 100 4 -0.017523199
2.5489929 0.25846761 0.40579104 41 12 -0.017520895
2.0357451 0.20642434 -0.1790179 100 5 -0.017518591
5.2191453 0.52830064 1.0196834 94 13 -0.017516287
2.0765612 0.20983183 -0.10938216 100 6 -0.017513983
5.2272773 0.52728057 1.212936 100 14 -0.017511679
2.1030433 0.21176526 -0.036894388 100 7 -0.017509375
5.2359786 0.52631468 1.4100462 100 15 -0.017507071
1.8858744 0.18723817 -0.50780302 100 0 -0.017486336
2.1192927 0.2100395 0.037173625 76 8 -0.017484032
1.9276372 0.19070514 -0.44720268 100 1 -0.017481728
2.1704488 0.21434447 0.11430173 74 9 -0.017479423
1.9459354 0.19217248 -0.38009155 100 2 -0.017477119
2.1989017 0.21676686 0.19331144 98 10 -0.017474815
1.9737452 0.19422325 -0.31412044 99 3 -0.017472511
2.2482152 0.22083585 0.27737463 82 11 -0.017470207
2.0151308 0.19758555 -0.24861349 98 4 -0.017467903
2.5479133 0.24937649 0.40547815 51 12 -0.017465599
2.0364532 0.19931744 -0.1790179 100 5 -0.017463295
5.2170496 0.50969845 1.0189201 40 13 -0.017460991
2.0812566 0.20296918 -0.10959151 97 6 -0.017458687
5.2426629 0.51035345 1.2160853 67 14 -0.017456383
2.1117311 0.20519704 -0.037034009 100 7 -0.017454078
5.2416291 0.50840604 1.4110814 65 15 -0.017451774
1.9038241 0.18231098 -0.51246172 99 0 -0.017431039
2.1220038 0.20283124 0.037208531 80 8 -0.017428735
1.9205315 0.18323533 -0.4454031 100 1 -0.017426431
2.1751604 0.20714504 0.11451109 78 9 -0.017424127
1.9505031 0.18575044 -0.38085476 100 2 -0.017421823
2.2016282 0.20927788 0.19348574 94 10 -0.017419519
1.9704781 0.18695965 -0.31349471 93 3 -0.017417215
2.2410674 0.21223755 0.2763997 86 11 -0.017414911
2.0197608 0.19092333 -0.24910097 100 4 -0.017412607
2.5173023 0.23751275 0.40047228 13 12 -0.017410303
2.0450706 0.1929567 -0.17971513 100 5 -0.017407998
2.0700216 0.19458093 -0.10896347 97 6 -0.01740339
5.290978 0.49642012 1.2268831 13 14 -0.017401086
2.1124346 0.19782391 -0.037034009 100 7 -0.017398782
5.2972293 0.49513897 1.4255754 13 15 -0.01739648
2.1564515 0.19891022 -0.58027232 75 0 -0.017375743
2.1246901 0.19560558 0.037243433 76 8 -0.017373439
1.9114567 0.17563823 -0.44315359 100 1 -0.017371135
2.1639366 0.19845809 0.11388306 78 9 -0.017368831
1.9589598 0.17965934 -0.38238126 100 2 -0.017366527
2.2023451 0.20159197 0.19348574 90 10 -0.017364223
1.9711188 0.18007973 -0.31349471 99 3 -0.017361918
2.2378407 0.20405449 0.27591223 82 11 -0.017359614
2.0204148 0.18387231 -0.24910097 100 4 -0.01735731
2.4886069 0.22604325 0.39577925 10 12 -0.017355006
2.0477164 0.18599661 -0.17988946 100 5 -0.017352702
2.0746665 0.18771441 -0.10917282 100 6 -0.017348096
6.0049677 0.54226887 1.3919971 1 14 -0.017345792
2.1170952 0.19080836 -0.037103817 100 7 -0.017343488
