# .PCD v0.7 - Point Cloud Data file format
VERSION 0.7
FIELDS x y z intensity ring time
SIZE 4 4 4 4 2 4
TYPE F F F F U F
COUNT 1 1 1 1 1 1
WIDTH 887
HEIGHT 1
VIEWPOINT 0 0 0 1 0 0 0
POINTS 887
DATA ascii
-0.71154648 -0.44324329 -0.16295089 100 2 -0.026590347
-0.7069627 -0.44021687 0.0728622 100 10 -0.026588041
-0.6993252 -0.4352918 -0.13046636 100 3 -0.026585739
-0.71961755 -0.44792268 0.10407643 100 11 -0.026583435
-0.72643775 -0.45199177 -0.10505138 100 4 -0.026581131
-0.70283198 -0.43713403 0.1310921 100 12 -0.026578827
-0.71573001 -0.44498312 -0.073733754 100 5 -0.026576523
-0.70700783 -0.43938908 0.16180603 99 13 -0.026574219
-0.7091524 -0.44055033 -0.043752864 100 6 -0.026571915
-3.2199528 -1.9995689 0.8750596 1 14 -0.02656961
-0.73557633 -0.45678791 -0.015113784 75 7 -0.026567306
-3.1661322 -1.965381 0.99852395 82 15 -0.026565002
-0.72758293 -0.45059332 -0.22931369 100 0 -0.026546717
-0.71070939 -0.43997198 0.014590211 52 8 -0.026544413
-0.70427406 -0.43581811 -0.19120839 31 1 -0.026542109
-0.71509254 -0.4423402 0.04406688 35 9 -0.026539804
-0.72295326 -0.44720268 -0.1652406 100 2 -0.0265375
-0.71342617 -0.44113708 0.073385134 100 10 -0.026535196
-0.70405 -0.43516961 -0.1310921 100 3 -0.026532892
-0.72785407 -0.44970748 0.10505138 100 11 -0.026530588
-0.71779889 -0.44332156 -0.10358895 100 4 -0.026528284
-0.7110011 -0.43895176 0.13234358 100 12 -0.02652598
-0.71203858 -0.43959227 -0.073210821 100 5 -0.026523676
-0.72007972 -0.44438332 0.16447736 100 13 -0.026521374
-0.71393263 -0.44041753 -0.043962207 100 6 -0.026519069
-3.2129488 -1.9812602 0.87146038 1 14 -0.026516765
-0.74389601 -0.45854348 -0.015253403 73 7 -0.026514461
-3.1693428 -1.9528439 0.99748862 79 15 -0.026512157
-0.73079729 -0.44906226 -0.22983132 100 0 -0.02649142
-0.72246444 -0.4437682 0.014799641 49 8 -0.026489116
-0.71077317 -0.43641612 -0.19255811 100 1 -0.026486812
-0.71493 -0.43879658 0.043962207 36 9 -0.026484508
-0.71781695 -0.44056848 -0.16371413 100 2 -0.026482204
-0.72005641 -0.44176975 0.073908068 100 10 -0.0264799
-0.71903598 -0.44097129 -0.13359505 93 3 -0.026477596
-0.70911074 -0.43471402 0.10212652 100 11 -0.026475294
-0.71934205 -0.44081327 -0.10358895 100 4 -0.026472989
-0.70410663 -0.43130821 0.13077922 100 12 -0.026470685
-0.72885936 -0.4464708 -0.074779622 100 5 -0.026468381
-0.72832388 -0.4459677 0.16600384 100 13 -0.026466077
-0.71887261 -0.44000804 -0.044171553 100 6 -0.026463773
-3.1633275 -1.9354539 0.85616374 1 14 -0.026461469
-0.74549222 -0.45594379 -0.015253403 73 7 -0.026459165
-3.1662509 -1.9357231 0.99438286 81 15 -0.026456861
-0.72576243 -0.44248614 -0.22776078 100 0 -0.026436124
-0.71888644 -0.43812159 0.014694927 48 8 -0.02643382
-0.72061336 -0.43900165 -0.19480762 100 1 -0.026431516
-0.7180869 -0.43746248 0.04406688 35 9 -0.026429214
-0.72102731 -0.43908107 -0.16409574 100 2 -0.026426909
-0.71989208 -0.43821776 0.073733754 100 10 -0.026424605
-0.72394598 -0.44051233 -0.13422079 96 3 -0.026422301
-0.73945594 -0.44977289 0.10627007 100 11 -0.026419997
-0.72766101 -0.44242498 -0.10456391 100 4 -0.026417693
-0.70384514 -0.42794466 0.13046636 100 12 -0.026415389
-0.71338743 -0.43357596 -0.073036514 100 5 -0.026413085
-0.73323184 -0.44546133 0.16676706 100 13 -0.026410781
-0.7238183 -0.43956962 -0.044380896 100 6 -0.026408477
-3.1867225 -1.9345123 0.86066276 1 14 -0.026406173
-0.74870944 -0.45450696 -0.015288308 78 7 -0.026403869
-3.1577885 -1.9161928 0.98972404 86 15 -0.026401564
-0.72730273 -0.43994984 -0.22776078 100 0 -0.02638083
-0.72204638 -0.43677026 0.014729831 47 8 -0.026378525
-0.73373836 -0.44366795 -0.19795693 100 1 -0.026376221
-0.73499298 -0.44425163 0.045008924 100 9 -0.026373917
-0.72759664 -0.4396075 -0.1652406 100 2 -0.026371613
-0.71800643 -0.43364215 0.073385134 100 10 -0.026369309
-0.72202098 -0.43606675 -0.13359505 99 3 -0.026367005
-0.7290473 -0.44013694 0.10456391 100 11 -0.026364701
-0.73762214 -0.44513777 -0.1057826 100 4 -0.026362397
-0.71210051 -0.42956656 0.13171785 100 12 -0.026360093
-0.72513384 -0.43725598 -0.074082382 100 5 -0.026357789
-0.73134255 -0.44099984 0.16600384 100 13 -0.026355485
-0.73553526 -0.44335324 -0.045008924 100 6 -0.02635318
-3.17309 -1.9118655 0.85526395 1 14 -0.026350876
-0.75200444 -0.45292222 -0.015323212 72 7 -0.026348572
-3.1479073 -1.8951948 0.98454767 86 15 -0.026346268
-0.73538274 -0.44151318 -0.22983132 100 0 -0.026325533
-0.72013736 -0.43218911 0.014660021 47 8 -0.026323229
-0.72358477 -0.43408656 -0.19480762 100 1 -0.026320925
-0.73825222 -0.44271031 0.045113601 100 9 -0.026318621
-0.73578531 -0.44123095 -0.16676706 96 2 -0.026316317
-0.72456717 -0.43433183 0.073908068 100 10 -0.026314013
-0.71676081 -0.42948237 -0.13234358 96 3 -0.026311709
-0.72717339 -0.43554914 0.10407643 100 11 -0.026309405
-0.7374683 -0.4415406 -0.10553886 100 4 -0.0263071
-0.72715563 -0.43519372 0.13422079 100 12 -0.026304796
-0.73349476 -0.43881381 -0.074779622 100 5 -0.026302492
-0.72950786 -0.43642861 0.1652406 100 13 -0.026300188
-0.72679359 -0.43463257 -0.044380896 100 6 -0.026297884
-1.1223611 -0.67092144 0.30188429 1 14 -0.02629558
-0.75186425 -0.44926897 -0.015288308 78 7 -0.026293276
-3.1511865 -1.8822136 0.9835124 89 15 -0.026290972
-0.74695528 -0.444745 -0.23293714 100 0 -0.026270237
-0.73195064 -0.43581107 0.014869451 49 8 -0.026267933
-0.72509563 -0.43155813 -0.19480762 100 1 -0.026265629
-0.73292726 -0.43604586 0.044694912 40 9 -0.026263325
-0.73739755 -0.43853122 -0.16676706 96 2 -0.02626102
-0.74499309 -0.44287229 0.075825498 100 10 -0.026258716
-0.73191565 -0.43492535 -0.13484652 96 3 -0.026256412
-0.72186309 -0.42895186 0.10310147 100 11 -0.026254108
-0.73729837 -0.43794984 -0.10529512 100 4 -0.026251804
-0.7337659 -0.4356783 0.13515939 100 12 -0.0262495
-0.73844874 -0.43828449 -0.07512825 100 5 -0.026247196
-0.74123329 -0.43976226 0.1675303 100 13 -0.026244892
-0.72494596 -0.42992821 -0.044171553 100 6 -0.02624259
-1.1248126 -0.66680324 0.30188429 1 14 -0.026240285
-0.76202863 -0.45174029 -0.015462833 74 7 -0.026237981
-3.1577375 -1.8712025 0.9835124 84 15 -0.026235677
-0.75515658 -0.44606504 -0.2350077 100 0 -0.02621494
-0.73354316 -0.4331252 0.014869451 49 8 -0.026212636
-0.73506373 -0.43385008 -0.19705713 100 1 -0.026210332
-0.73968101 -0.43640143 0.045008924 100 9 -0.026208028
-0.735542 -0.43395945 -0.16600384 100 2 -0.026205724
-0.74481827 -0.43925694 0.075651184 100 10 -0.02620342
-0.73683274 -0.43437415 -0.13547227 99 3 -0.026201116
-0.73540205 -0.43335804 0.10480764 100 11 -0.026198812
-0.74060905 -0.43625206 -0.10553886 100 4 -0.02619651
-0.73365563 -0.43198377 0.13484652 100 12 -0.026194206
-0.75199223 -0.44278055 -0.076348431 100 5 -0.026191901
-0.74783969 -0.44015968 0.16867517 97 13 -0.026189597
-0.74021369 -0.43549731 -0.045008924 100 6 -0.026187293
-1.1271334 -0.66287285 0.30188429 1 14 -0.026184989
-0.75333595 -0.44286376 -0.015253403 73 7 -0.026182685
-3.1512499 -1.8517861 0.97937131 86 15 -0.026180381
-0.74337494 -0.43561259 -0.2308666 100 0 -0.026159644
-0.74885428 -0.43864766 0.015148689 49 8 -0.02615734
-0.73825526 -0.43226638 -0.19750702 100 1 -0.026155036
-0.74637109 -0.43684325 0.045322943 100 9 -0.026152732
-0.73705238 -0.43138909 -0.16600384 100 2 -0.026150428
-0.73602891 -0.43061763 0.074605316 100 10 -0.026148126
-0.75198579 -0.4397774 -0.13797522 100 3 -0.026145821
-0.74719286 -0.43679917 0.10627007 100 11 -0.026143517
-0.74898303 -0.43767026 -0.10651381 100 4 -0.026141213
-0.73004186 -0.42643136 0.13390793 100 12 -0.026138909
-0.73977005 -0.43211374 -0.074953936 99 5 -0.026136605
-0.75106698 -0.43853647 0.16905677 97 13 -0.026134301
-0.74862915 -0.43693787 -0.045427613 100 6 -0.026131997
-1.1294402 -0.65893465 0.30188429 1 14 -0.026129693
-0.75314987 -0.43922403 -0.015218498 79 7 -0.026127389
-3.1343296 -1.827154 0.9721244 89 15 -0.026125085
-0.75324196 -0.43786934 -0.23345479 100 0 -0.026104348
-0.73827791 -0.42899841 0.014904355 48 8 -0.026102046
-0.7498703 -0.43555942 -0.20020644 100 1 -0.026099741
-0.75299668 -0.4373754 0.045636959 100 9 -0.026097437
-0.73855376 -0.4288137 -0.16600384 100 2 -0.026095133
-0.74097383 -0.43004617 0.074953936 100 10 -0.026092829
-0.75522506 -0.43814108 -0.13828808 85 3 -0.026090525
-0.76073366 -0.44115922 0.10797625 100 11 -0.026088221
-0.75222355 -0.43604892 -0.10675755 100 4 -0.026085917
-0.73828793 -0.42797074 0.13515939 100 12 -0.026083613
-0.74299788 -0.43052754 -0.07512825 100 5 -0.026081309
-0.74240005 -0.43000805 0.16676706 100 13 -0.026079005
-0.7518782 -0.43532294 -0.045532286 100 6 -0.026076701
-1.1317337 -0.65498781 0.30188429 1 14 -0.026074396
-0.76498669 -0.442734 -0.015427927 74 7 -0.026072092
-3.1269937 -1.8090109 0.96798331 82 15 -0.026069788
-0.75476575 -0.43523753 -0.23345479 100 0 -0.026049053
-0.74142885 -0.42754677 0.014939261 49 8 -0.026046749
-0.74118048 -0.42723119 -0.19750702 100 1 -0.026044445
-0.75798005 -0.43673834 0.045846302 100 9 -0.026042141
-0.74855226 -0.43113241 -0.16791193 100 2 -0.026039837
-0.74592388 -0.42944524 0.075302556 100 10 -0.026037533
-0.73955452 -0.42577824 -0.13515939 100 3 -0.026035229
-0.75358987 -0.4336834 0.10675755 100 11 -0.026032925
-0.77087235 -0.44345048 -0.10919494 100 4 -0.026030621
-0.74662715 -0.42932978 0.13641086 100 12 -0.026028316
-0.75140566 -0.43190289 -0.075825498 100 5 -0.026026012
-0.75743884 -0.43537068 0.16982001 100 13 -0.026023708
-0.74812233 -0.42984217 -0.04521827 100 6 -0.026021404
-1.1338992 -0.65123147 0.30188429 1 14 -0.0260191
-0.77173012 -0.44304785 -0.015532642 73 7 -0.026016796
-3.1366401 -1.8000083 0.96901858 84 15 -0.026014492
-0.76291174 -0.43657014 -0.23552534 100 0 -0.025993757
-0.74985987 -0.42892757 0.015078879 49 8 -0.025991453
-0.73928386 -0.42270678 -0.19660722 100 1 -0.025989149
-0.75776577 -0.43309891 0.045741629 100 9 -0.025986845
-0.76190931 -0.43546712 -0.17058325 96 2 -0.025984541
-0.75772363 -0.43289939 0.076348431 100 10 -0.025982236
-0.75990522 -0.43396989 -0.13860095 89 3 -0.025979932
-0.73958325 -0.42219317 0.10456391 100 11 -0.025977628
-0.75172591 -0.42895091 -0.10627007 100 4 -0.025975324
-0.75326896 -0.42965692 0.13734947 100 12 -0.02597302
-0.75802571 -0.43237016 -0.076348431 100 5 -0.025970716
-0.75895387 -0.43272424 0.16982001 100 13 -0.025968412
-0.74614775 -0.42525017 -0.045008924 100 6 -0.025966108
-1.1361657 -0.64726913 0.30188429 1 14 -0.025963806
-0.78543574 -0.44727835 -0.015776975 84 7 -0.025961502
-3.1361883 -1.7852255 0.96694797 82 15 -0.025959197
-0.76779121 -0.4358117 -0.23656061 100 0 -0.025938461
-0.74613482 -0.423347 0.014974165 48 8 -0.025936157
-0.75431561 -0.42781466 -0.20020644 100 1 -0.025933852
-0.76274794 -0.43242118 0.045950972 100 9 -0.025931548
-0.75146955 -0.42602715 -0.16791193 100 2 -0.025929244
-0.76269698 -0.43221641 0.076697052 100 10 -0.02592694
-0.75969672 -0.43034106 -0.13828808 94 3 -0.025924636
-0.75659907 -0.42841193 0.10675755 100 11 -0.025922332
-0.7618565 -0.43121326 -0.10748877 100 4 -0.025920028
-0.74788702 -0.42313421 0.136098 100 12 -0.025917724
-0.76299852 -0.4316839 -0.076697052 100 5 -0.025915422
-0.76900417 -0.43490461 0.1717281 84 13 -0.025913117
-0.75632095 -0.4275575 -0.045532286 100 6 -0.025910813
-1.1384181 -0.64329952 0.30188429 1 14 -0.025908509
-0.78002769 -0.44059998 -0.015637357 82 7 -0.025906205
-3.1356726 -1.7704673 0.96487743 82 15 -0.025903901
-0.77604133 -0.43691999 -0.23863117 100 0 -0.025883164
-0.76503474 -0.43054754 0.015323212 50 8 -0.02588086
-0.76259822 -0.42900082 -0.20200606 100 1 -0.025878556
-0.76425272 -0.42975605 0.045950972 100 9 -0.025876252
-0.75466335 -0.4243637 -0.16829354 100 2 -0.025873948
-0.75725377 -0.42564645 0.075999804 100 10 -0.025871644
-0.76980507 -0.43252465 -0.13985243 93 3 -0.025869342
-0.75982064 -0.42674035 0.10700129 100 11 -0.025867037
-0.77547389 -0.4353537 -0.10919494 100 4 -0.025864733
-0.7459141 -0.41858754 0.13547227 100 12 -0.025862429
-0.7645756 -0.42888445 -0.076697052 100 5 -0.025860125
-0.77222997 -0.4331781 0.17210972 84 13 -0.025857821
-0.75780886 -0.42491484 -0.045532286 100 6 -0.025855517
-1.1406567 -0.63932174 0.30188429 1 14 -0.025853213
-0.78505003 -0.43982926 -0.015707165 69 7 -0.025850909
-3.1216073 -1.7481836 0.95866579 85 15 -0.025848605
-0.77089012 -0.43030635 -0.23656061 100 0 -0.025827868
-0.76478696 -0.42689958 0.015288308 49 8 -0.025825564
-0.77600336 -0.43298292 -0.20515537 100 1 -0.025823262
-0.77621394 -0.43292302 0.046579007 100 9 -0.025820957
-0.76478744 -0.42637485 -0.17020163 93 2 -0.025818653
-0.75880873 -0.4228681 0.075999804 100 10 -0.025816349
-0.76793367 -0.42777783 -0.13922669 96 3 -0.025814045
-0.7803815 -0.4347119 0.10968242 100 11 -0.025811741
-0.77872324 -0.43360984 -0.10943868 100 4 -0.025809437
-0.75945294 -0.42270613 0.13766235 100 12 -0.025807133
-0.76606804 -0.42621294 -0.076697052 100 5 -0.025804829
-0.77038085 -0.4284364 0.17134649 84 13 -0.025802525
-0.78030902 -0.43377954 -0.04678835 100 6 -0.025800221
-1.1872813 -0.65974677 0.31358176 1 14 -0.025797917
-0.78308475 -0.43514344 -0.015637357 77 7 -0.025795612
-3.117557 -1.7316488 0.95555997 84 15 -0.025793308
-0.76900721 -0.42574137 -0.23552534 100 0 -0.025772573
-0.76284707 -0.42215732 0.015218498 49 8 -0.025770269
-0.76223803 -0.42164627 -0.20110625 100 1 -0.025767965
-0.7847113 -0.43407777 0.046997696 100 9 -0.025765661
-0.7765798 -0.42940268 -0.17249134 97 2 -0.025763357
-0.7637676 -0.42214453 0.076348431 100 10 -0.025761053
-0.76596421 -0.42318392 -0.13860095 89 3 -0.025758749
-0.77328116 -0.42705026 0.10846373 100 11 -0.025756445
-0.78378284 -0.43267164 -0.10992616 100 4 -0.025754141
-0.76784122 -0.42387137 0.13891383 100 12 -0.025751837
-0.77452886 -0.42738655 -0.077394299 97 5 -0.025749533
-0.76843357 -0.42384824 0.17058325 87 13 -0.025747228
-0.76782608 -0.42333865 -0.045950972 100 6 -0.025744924
-1.1452024 -0.63114297 0.30188429 1 14 -0.02574262
-0.80036086 -0.44109425 -0.015951499 80 7 -0.025740316
-3.1168146 -1.7170272 0.95348942 84 15 -0.025738012
-0.78234226 -0.42956313 -0.2391488 100 0 -0.025717277
-0.7712543 -0.42347506 0.015358118 49 8 -0.025714973
-0.76192361 -0.4181788 -0.20065634 100 1 -0.025712669
-0.77746648 -0.42653266 0.046474334 100 9 -0.025710365
-0.78151667 -0.42857748 -0.17325458 91 2 -0.025708061
-0.77921349 -0.42713755 0.077742919 98 10 -0.025705757
-0.77429211 -0.42443985 -0.13985243 100 3 -0.025703453
-0.77121133 -0.42257577 0.10797625 100 11 -0.025701148
-0.7747671 -0.42434856 -0.10846373 100 4 -0.025698844
-0.76758355 -0.42023969 0.13860095 100 12 -0.02569654
-0.78300714 -0.42850628 -0.078091539 99 5 -0.025694236
-0.78016818 -0.42695263 0.17287296 81 13 -0.025691932
-0.77623463 -0.42462417 -0.046369661 100 6 -0.025689628
-1.147289 -0.62734187 0.30188429 1 14 -0.025687324
-0.79838634 -0.43637958 -0.015881689 87 7 -0.02568502
-3.1160073 -1.7024326 0.95141882 82 15 -0.025682718
-0.78036958 -0.42511809 -0.23811352 100 0 -0.025661981
-0.78326494 -0.42651814 0.015567547 100 8 -0.025659677
-0.7736485 -0.42110634 -0.20335576 100 1 -0.025657373
-0.77193296 -0.41999817 0.046055648 42 9 -0.025655068
-0.77948457 -0.42410693 -0.17249134 97 2 -0.025652764
-0.78587651 -0.42740694 0.078265861 91 10 -0.02565046
-0.78618199 -0.42739511 -0.14172964 93 3 -0.025648156
-0.78140259 -0.42462042 0.10919494 100 11 -0.025645852
-0.77973235 -0.42353654 -0.1089512 100 4 -0.025643548
-0.77425379 -0.42038545 0.13953955 100 12 -0.025641244
-0.78274697 -0.42482024 -0.077917233 99 5 -0.02563894
-0.7902813 -0.42890936 0.17478105 72 13 -0.025636638
-0.78473431 -0.42572159 -0.04678835 100 6 -0.025634333
-0.79638863 -0.43168414 -0.015811879 84 7 -0.025629725
-3.1151373 -1.6878635 0.94934833 82 15 -0.025627421
-0.78872174 -0.42592677 -0.24018408 99 0 -0.025606684
-0.78122997 -0.42188108 0.015497738 100 8 -0.02560438
-0.78025818 -0.4211804 -0.20470546 100 1 -0.025602076
-0.78569829 -0.42393991 0.04678835 100 9 -0.025599772
-0.78621763 -0.42404276 -0.1736362 98 2 -0.025597468
-0.778669 -0.41979626 0.077394299 100 10 -0.025595164
-0.79122102 -0.42638513 -0.14235538 87 3 -0.02559286
-0.78812253 -0.42471537 0.10992616 96 11 -0.025590558
-0.79169208 -0.42646042 -0.11041363 100 4 -0.025588254
-0.7739771 -0.41674387 0.13922669 100 12 -0.025585949
-0.78247064 -0.42114106 -0.077742919 97 5 -0.025583645
-0.79011917 -0.42507955 0.17439944 56 13 -0.025581341
-0.79156667 -0.42568019 -0.047102366 100 6 -0.025579037
-1.1517487 -0.61911625 0.30188429 1 14 -0.025576733
-0.80141324 -0.43079534 -0.015881689 92 7 -0.025574429
-3.1039925 -1.6678354 0.94417191 78 15 -0.025572125
-0.77657956 -0.41587502 -0.23604298 100 0 -0.025551388
-0.789823 -0.42278978 0.015637357 52 8 -0.025549084
-0.78523314 -0.42015654 -0.20560527 100 1 -0.02554678
-0.79421747 -0.4249638 0.047207039 100 9 -0.025544476
-0.78596187 -0.42037004 -0.17325458 98 2 -0.025542174
-0.7766155 -0.4151969 0.077045679 100 10 -0.025539869
-0.78922021 -0.42175856 -0.14172964 93 3 -0.025537565
-0.79492676 -0.42462981 0.11065737 100 11 -0.025535261
-0.80025417 -0.42729607 -0.11138859 100 4 -0.025532957
-0.78065473 -0.41683093 0.1401653 100 12 -0.025530653
-0.78920925 -0.42122138 -0.078265861 100 5 -0.025528349
-0.7881338 -0.42047071 0.1736362 59 13 -0.025526045
-0.80185926 -0.42761374 -0.047625724 100 6 -0.025523741
-0.81350011 -0.43363896 -0.016091119 85 7 -0.025519133
-3.099566 -1.6515396 0.94106609 82 15 -0.025516829
-0.78826368 -0.418598 -0.2391488 100 0 -0.025496094
-0.78768843 -0.41829252 0.015567547 52 8 -0.025493789
-0.79006463 -0.41937762 -0.20650508 100 1 -0.025491485
-0.79922456 -0.42406106 0.047416382 100 9 -0.025489181
-0.79609644 -0.4222233 -0.17516267 94 2 -0.025486877
-0.79214263 -0.41994917 0.078440167 94 10 -0.025484573
-0.79410505 -0.42098954 -0.14235538 86 3 -0.025482269
-0.79106855 -0.41920269 0.10992616 100 11 -0.025479965
-0.80517519 -0.42649835 -0.11187606 100 4 -0.025477661
-0.79083377 -0.41872504 0.14172964 99 12 -0.025475357
-0.80124056 -0.42405587 -0.079311721 100 5 -0.025473053
-0.79299426 -0.41969153 0.17439944 56 13 -0.025470749
-0.79974198 -0.42308438 -0.047416382 100 6 -0.025468444
-0.82208055 -0.43453461 -0.016230738 87 7 -0.025463836
-3.1018956 -1.6389056 0.94003081 79 15 -0.025461532
-0.80332106 -0.42318484 -0.24328992 94 0 -0.025440797
-0.79091316 -0.41647214 0.015602452 100 8 -0.025438493
-0.78635031 -0.41389441 -0.20515537 100 1 -0.025436189
-0.79362983 -0.41754887 0.046997696 100 9 -0.025433885
-0.80096716 -0.42140925 -0.17592591 97 2 -0.025431581
-0.79529434 -0.41824743 0.078614481 87 10 -0.025429277
-0.80256367 -0.42189187 -0.14360686 82 3 -0.025426973
-0.79428416 -0.4173623 0.11016989 100 11 -0.025424669
-0.79611439 -0.41814673 -0.11041363 100 4 -0.025422364
-0.79928666 -0.41963473 0.14298111 98 12 -0.02542006
-0.8061704 -0.42324877 -0.079660349 92 5 -0.025417756
-0.80662322 -0.42330718 0.17707075 41 13 -0.025415452
-0.79590797 -0.41750678 -0.047102366 100 6 -0.025413148
-0.82713455 -0.43351912 -0.016300548 85 7 -0.02540854
-3.1007524 -1.6244818 0.93796021 82 15 -0.025406236
-0.8047933 -0.42037812 -0.24328992 94 0 -0.025385501
-0.80122513 -0.41833657 0.015776975 100 8 -0.025383197
-0.79642844 -0.41565502 -0.20740487 100 1 -0.025380893
-0.79685318 -0.41569978 0.047102366 100 9 -0.025378589
-0.80069262 -0.4177027 -0.17554428 91 2 -0.025376284
-0.8055824 -0.42007503 0.079486035 100 10 -0.02537398
-0.80578327 -0.42000061 -0.14391972 86 3 -0.025371676
-0.80101764 -0.41733888 0.11090111 100 11 -0.025369372
-0.80461168 -0.41903311 -0.11138859 100 4 -0.025367068
-0.79724216 -0.41501805 0.14235538 98 12 -0.025364764
-0.8058756 -0.41951233 -0.079486035 88 5 -0.02536246
-0.8220287 -0.42773879 0.1801237 35 13 -0.025360156
-0.80090427 -0.4165692 -0.047311708 100 6 -0.025357854
-0.82509398 -0.428785 -0.016230738 83 7 -0.025353245
-3.1064045 -1.6136473 0.93796021 82 15 -0.025350941
-0.8062557 -0.41756648 -0.24328992 99 0 -0.025330205
-0.80268055 -0.41553718 0.015776975 100 8 -0.0253279
-0.80306673 -0.41555917 -0.20875457 100 1 -0.025325596
-0.80716932 -0.4175038 0.047625724 100 9 -0.025323292
-0.80214572 -0.41490537 -0.17554428 91 2 -0.025320988
-0.80173445 -0.41451508 0.078963101 100 10 -0.025318684
-0.81601888 -0.42171997 -0.14548407 87 3 -0.02531638
-0.80952412 -0.41818476 0.11187606 94 11 -0.025314076
-0.81136101 -0.41895401 -0.1121198 100 4 -0.025311772
-0.79517525 -0.4104206 0.14172964 100 12 -0.02530947
-0.80910552 -0.41761053 -0.079660349 100 5 -0.025307165
-0.82002729 -0.42306644 0.17936046 35 13 -0.025304861
-0.81477934 -0.42017892 -0.048044413 100 6 -0.025302557
-0.82658577 -0.42590225 -0.016230738 83 7 -0.025297949
-3.0879738 -1.5904114 0.93071336 85 15 -0.025295645
-0.8008343 -0.41121978 -0.24121936 100 0 -0.025274908
-0.80234724 -0.41181946 0.015742071 100 8 -0.025272604
-0.80971384 -0.41542226 -0.21010427 100 1 -0.0252703
-0.81217617 -0.41650647 0.047835067 100 9 -0.025267996
-0.80882996 -0.41479045 -0.17668915 90 2 -0.025265694
-0.79431146 -0.40716967 0.078091539 100 10 -0.025263388
-0.81045383 -0.41526577 -0.1442326 87 3 -0.025261085
-0.81274575 -0.41626129 0.1121198 91 11 -0.025258781
-0.81811953 -0.41883308 -0.11285102 100 4 -0.025256477
-0.80363715 -0.41124192 0.14298111 98 12 -0.025254173
-0.80346376 -0.41115317 -0.078963101 94 5 -0.025251869
-0.81975114 -0.41930732 0.17897885 30 13 -0.025249565
-0.8233543 -0.4209691 -0.048463102 100 6 -0.025247261
-3.1841984 -1.6273335 0.82557034 1 14 -0.025244957
-0.83875209 -0.42847255 -0.016440166 76 7 -0.025242653
-3.0866244 -1.5761082 0.92864275 88 15 -0.025240349
-0.80915129 -0.41192758 -0.24328992 99 0 -0.025216818
-0.80556196 -0.40992329 0.015776975 100 8 -0.025214514
-0.8076852 -0.4108263 -0.20920448 100 1 -0.02521221
-0.82074666 -0.41728947 0.048253756 100 9 -0.025209906
-0.82252342 -0.41819277 -0.17936046 88 2 -0.025207601
-0.80993736 -0.41161585 0.079486035 96 10 -0.025205297
-0.80837607 -0.4106451 -0.14360686 87 3 -0.025202993
-0.81065404 -0.4116241 0.11163233 100 11 -0.025200689
-0.83373767 -0.42316222 -0.11480093 97 4 -0.025198385
-0.80859095 -0.41022182 0.14360686 98 12 -0.025196081
-0.81910843 -0.41555765 -0.080357596 90 5 -0.025193777
-0.82821375 -0.41999504 0.18050532 23 13 -0.025191475
-0.82481879 -0.41809249 -0.048463102 100 6 -0.025189171
-3.2524395 -1.647917 0.84176683 1 14 -0.025186867
-0.84737849 -0.42915609 -0.016579786 72 7 -0.025184562
-3.0886602 -1.5635792 0.92760748 88 15 -0.025182258
-0.82093209 -0.41432312 -0.24639574 83 0 -0.025161522
-0.80698794 -0.40710884 0.015776975 100 8 -0.025159217
-0.80041414 -0.40361723 -0.20695497 100 1 -0.025156913
-0.81506419 -0.41082609 0.047835067 100 9 -0.025154609
-0.82748443 -0.41708639 -0.1801237 84 2 -0.025152305
-0.82026571 -0.4132686 0.080357596 100 10 -0.025150001
-0.82039028 -0.41315183 -0.14548407 86 3 -0.025147697
-0.8156321 -0.41057691 0.1121198 100 11 -0.025145395
-0.82457006 -0.41489607 -0.1133385 100 4 -0.025143091
-0.81354749 -0.4091717 0.1442326 95 12 -0.025140787
-0.82767391 -0.41627654 -0.081054844 87 5 -0.025138482
-0.82967478 -0.41710147 0.18050532 21 13 -0.025136178
-0.81735009 -0.41072705 -0.04793974 100 6 -0.025133874
-0.8524456 -0.42799005 -0.016649596 69 7 -0.025129266
-3.0837393 -1.5475899 0.92450172 90 15 -0.025126962
-0.82237339 -0.41145498 -0.24639574 78 0 -0.025106225
-0.82271212 -0.41144499 0.016056214 100 8 -0.025103921
-0.81750602 -0.40866277 -0.21100408 100 1 -0.025101617
-0.81642216 -0.40812096 0.047835067 100 9 -0.025099315
-0.82015407 -0.40980786 -0.17821561 83 2 -0.025097011
-0.82705063 -0.41307351 0.08088053 100 10 -0.025094707
-0.82889694 -0.41381469 -0.14673555 77 3 -0.025092402
-0.82238895 -0.41038662 0.11285102 100 11 -0.025090098
-0.83127004 -0.41481844 -0.11406972 100 4 -0.025087794
-0.8166675 -0.40735352 0.14454547 90 12 -0.02508549
-0.83268809 -0.41516286 -0.081403457 84 5 -0.025083186
-0.84869689 -0.42295992 0.18432149 14 13 -0.025080882
-0.82414198 -0.41054305 -0.048253756 100 6 -0.025078578
-3.0891514 -1.5388485 0.79677659 1 14 -0.025076274
-0.84849 -0.42248687 -0.016544882 78 7 -0.02507397
-3.0923133 -1.5390767 0.92553693 90 15 -0.025071666
-0.82892489 -0.41130161 -0.24794866 80 0 -0.025050931
-0.82586348 -0.409603 0.016091119 100 8 -0.025048627
-0.82060248 -0.40681553 -0.21145399 100 1 -0.025046322
-0.82134968 -0.40718594 0.048044413 100 9 -0.025044018
-0.82678592 -0.40970099 -0.17936046 88 2 -0.025041714
-0.819489 -0.40590695 0.080008969 100 10 -0.02503941
-0.83734584 -0.41456953 -0.14798702 77 3 -0.025037106
-0.82552445 -0.40853766 0.11309476 84 11 -0.025034802
-0.83975768 -0.41558141 -0.11504468 99 4 -0.025032498
-0.81447262 -0.40289137 0.14391972 90 12 -0.025030194
-0.82691622 -0.40886691 -0.080706216 90 5 -0.02502789
-0.84305477 -0.41666377 0.18279503 14 13 -0.025025586
-0.83624291 -0.41311553 -0.048881788 100 6 -0.025023282
-3.1221924 -1.5424061 0.80397505 1 14 -0.025020977
-0.84450728 -0.41701466 -0.016440166 76 7 -0.025018673
-3.0783443 -1.5194081 0.9198429 49 15 -0.025016369
-0.82508415 -0.40599173 -0.24639574 83 0 -0.024995634
-0.82362854 -0.40509692 0.016021309 100 8 -0.02499333
-0.83418882 -0.41011041 -0.2146033 100 1 -0.024991026
-0.83531386 -0.41048226 0.048777115 100 9 -0.024988722
-0.84054607 -0.41287136 -0.1820318 80 2 -0.024986418
-0.82798374 -0.40670079 0.080706216 96 10 -0.024984114
-0.83516949 -0.41004953 -0.14736128 81 3 -0.02498181
-0.83578497 -0.41017064 0.11431345 89 11 -0.024979506
-0.84298539 -0.4135218 -0.11528841 91 4 -0.024977202
-0.82828957 -0.40613353 0.1461098 85 12 -0.024974898
-0.83191651 -0.40773183 -0.081054844 94 5 -0.024972593
-0.86037165 -0.4214918 0.1862296 10 13 -0.024970289
-0.84126747 -0.4119505 -0.04909113 100 6 -0.024967985
-0.86571467 -0.42373472 -0.016824121 72 7 -0.024963377
-0.83177608 -0.40550479 -0.24794866 80 0 -0.024940338
-0.8215124 -0.40032366 0.015951499 100 8 -0.024938034
-0.83218253 -0.40534329 -0.2137035 100 1 -0.02493573
-0.83681273 -0.40741792 0.048777115 100 9 -0.024933426
-0.8402884 -0.40892869 -0.18165016 80 2 -0.024931122
-0.84021783 -0.40889436 0.081752084 100 10 -0.024928818
-0.83666682 -0.4069857 -0.14736128 81 3 -0.024926513
-0.83371222 -0.40536851 0.11382597 93 11 -0.024924209
-0.85342234 -0.41476789 -0.1165071 87 4 -0.024921905
-0.82977253 -0.40309495 0.1461098 85 12 -0.024919601
-0.84057438 -0.40816104 -0.081752084 87 5 -0.024917297
-0.85837823 -0.41662106 0.18546635 10 13 -0.024914993
-0.84456861 -0.40973631 -0.049195804 100 6 -0.024912691
-0.86366332 -0.41881382 -0.016754311 75 7 -0.024908083
-1.4046279 -0.68083942 0.4182516 1 15 -0.024905778
-0.84543389 -0.40833464 -0.25157213 65 0 -0.024885042
-0.83017749 -0.40078732 0.016091119 100 8 -0.024882738
-0.83892769 -0.40483141 -0.2150532 100 1 -0.024880433
-0.8346321 -0.40275854 0.048567772 100 9 -0.024878129
-0.85939372 -0.41452232 -0.18546635 70 2 -0.024875825
-0.83991623 -0.40494683 0.08157777 90 10 -0.024873521
-0.84527087 -0.4073469 -0.14861277 77 3 -0.024871217
-0.8387692 -0.40403304 0.11431345 94 11 -0.024868913
-0.845994 -0.40733132 -0.11528841 97 4 -0.024866611
-0.84541315 -0.40705165 0.14861277 82 12 -0.024864307
-0.84917521 -0.40868047 -0.082449332 84 5 -0.024862003
-0.85805809 -0.41277111 0.18508473 5 13 -0.024859698
-0.84419364 -0.40592015 -0.04909113 100 6 -0.024857394
-0.87773639 -0.42186016 -0.016998643 64 7 -0.024852786
-1.3791347 -0.66254735 0.40996939 19 15 -0.024850482
-0.85382396 -0.40871745 -0.25364268 65 0 -0.024829745
-0.8387168 -0.40148577 0.016230738 100 8 -0.024827441
-0.84378129 -0.40372938 -0.21595301 95 1 -0.024825137
-0.84143841 -0.40242764 0.048881788 100 9 -0.024822833
-0.85375041 -0.40813291 -0.18393987 78 2 -0.024820529
-0.84851539 -0.40544868 0.082275018 85 10 -0.024818227
-0.85374647 -0.40794829 -0.14986424 78 3 -0.024815923
-0.83831316 -0.40039378 0.11406972 87 11 -0.024813619
-0.85092294 -0.40623409 -0.11577588 91 4 -0.024811314
-0.83969754 -0.40069532 0.14736128 89 12 -0.02480901
-0.85778981 -0.40914479 -0.08314658 80 5 -0.024806706
-0.90017825 -0.42936304 0.19386195 1 13 -0.024804402
-0.84733796 -0.40397799 -0.049195804 100 6 -0.024802098
-0.87017691 -0.41449398 -0.016824121 72 7 -0.02479749
-1.3692293 -0.65191597 0.4063459 41 15 -0.024795186
-0.84644842 -0.40174213 -0.25105447 68 0 -0.024774449
-0.84553313 -0.40112719 0.016335452 100 8 -0.024772147
-0.8522287 -0.40412143 -0.21775262 94 1 -0.024769843
-0.84464282 -0.40034345 0.048986461 100 9 -0.024767539
-0.84800285 -0.40193602 -0.1824134 76 2 -0.024765234
-0.84625417 -0.40092656 0.081926398 95 10 -0.02476293
-0.86587727 -0.41003808 -0.15174145 73 3 -0.024760626
-0.85405964 -0.40425935 0.11601962 87 11 -0.024758322
-0.85771883 -0.40580842 -0.1165071 87 4 -0.024756018
-0.84109122 -0.39776158 0.14736128 89 12 -0.024753714
-0.85193729 -0.40289083 -0.082449332 87 5 -0.02475141
-0.96911937 -0.45810062 0.20836343 1 13 -0.024749106
-0.86318958 -0.40784377 -0.050033178 98 6 -0.024746802
-0.87885183 -0.41486853 -0.016963739 70 7 -0.024742194
-1.3627607 -0.64301085 0.40375772 52 15 -0.024739889
-0.84434927 -0.39714071 -0.25001919 85 0 -0.024719154
-0.85416692 -0.40157643 0.016475072 100 8 -0.02471685
-0.86598021 -0.40694556 -0.22090194 71 1 -0.024714546
-0.85688168 -0.40248764 0.049614493 100 9 -0.024712242
-0.86006254 -0.40398172 -0.18470311 78 2 -0.024709938
-0.85125554 -0.3996636 0.082275018 85 10 -0.024707634
-0.86015034 -0.40365627 -0.15048997 77 3 -0.02470533
-0.86265427 -0.40464789 0.11699458 76 11 -0.024703026
-0.8663196 -0.40618277 -0.11748206 84 4 -0.024700722
-0.84426326 -0.39566147 0.14767416 81 12 -0.024698418
-0.8587507 -0.40245098 -0.082972266 83 5 -0.024696114
-0.86641681 -0.4056749 -0.050137851 76 6 -0.024691505
-0.88029456 -0.41179842 -0.016963739 70 7 -0.024686897
-1.3562472 -0.63415837 0.40116954 68 15 -0.024684593
-0.85448539 -0.39827162 -0.25260741 81 0 -0.024663858
-0.85012549 -0.39605889 0.016370358 100 8 -0.024661554
-0.85679579 -0.39898452 -0.21820252 92 1 -0.02465925
-0.86371356 -0.40202251 0.049928509 100 9 -0.024656946
-0.87214679 -0.40594783 -0.18699282 64 2 -0.024654642
-0.86167783 -0.40089172 0.08314658 87 10 -0.024652338
-0.86513633 -0.4023174 -0.1511157 78 3 -0.024650034
-0.86046124 -0.3999607 0.1165071 97 11 -0.024647729
-0.88213438 -0.40984741 -0.11943197 67 4 -0.024645425
-0.85638875 -0.39770427 0.14955136 78 12 -0.024643121
-0.86918551 -0.40364704 -0.083843827 73 5 -0.024640817
-0.86239237 -0.40012625 -0.049823835 100 6 -0.024636209
-0.8926121 -0.41376904 -0.017173167 62 7 -0.024631603
-1.3602053 -0.63023239 0.40168718 80 15 -0.024629299
-0.86288577 -0.39852649 -0.25467795 60 0 -0.024608562
-0.85876518 -0.39644158 0.016509976 100 8 -0.024606258
-0.85995281 -0.39680779 -0.21865243 93 1 -0.024603954
-0.8596707 -0.39649564 0.049614493 100 9 -0.024601649
-0.87712407 -0.40454546 -0.18775606 66 2 -0.024599345
-0.86849999 -0.40038404 0.083669513 80 10 -0.024597041
-0.87012357 -0.40094844 -0.15174145 72 3 -0.024594737
-0.86906427 -0.40027648 0.11748206 87 11 -0.024592433
-0.87634695 -0.40344536 -0.11845701 72 4 -0.024590129
-0.87033337 -0.40049282 0.15174145 72 12 -0.024587825
-0.87420911 -0.40227628 -0.084192447 67 5 -0.024585523
-2.2973192 -1.0566484 0.49152401 6 13 -0.024583219
-0.87104243 -0.40045074 -0.050242521 91 6 -0.024580915
-1.4537697 -0.66804492 0.36936963 1 14 -0.02457861
-0.90313697 -0.41482374 -0.017347692 63 7 -0.024576306
-1.362397 -0.62548053 0.40168718 87 15 -0.024574002
-0.87129819 -0.39872754 -0.2567485 57 0 -0.024553265
-0.86378074 -0.39510509 0.016579786 100 8 -0.024550961
-0.87019414 -0.39785501 -0.22090194 68 1 -0.024548657
-0.8592329 -0.39266223 0.04950982 100 9 -0.024546353
-0.87495959 -0.39984918 -0.18699282 66 2 -0.024544049
-0.88076597 -0.40231684 0.084715381 66 10 -0.024541745
-0.87870556 -0.40119037 -0.15299292 69 3 -0.024539443
-0.88309771 -0.40300947 0.11918823 76 11 -0.024537139
-0.88136202 -0.40203151 -0.1189445 78 4 -0.024534835
-0.86992872 -0.39663282 0.15142858 75 12 -0.02453253
-0.88648516 -0.40418154 -0.085238315 57 5 -0.024530226
-0.87607014 -0.39906365 -0.050451867 87 6 -0.024525618
-1.3674148 -0.62259066 0.34687454 1 14 -0.024523314
-0.88819879 -0.40421391 -0.017033549 67 7 -0.02452101
-1.3645719 -0.62072134 0.40168718 92 15 -0.024518706
-0.87092537 -0.39488599 -0.25623086 68 0 -0.024497969
-0.87244022 -0.39538929 0.016719406 100 8 -0.024495665
-0.88045305 -0.39883575 -0.22315145 63 1 -0.024493363
-0.87151504 -0.3946034 0.050137851 100 9 -0.024491059
-0.87635005 -0.39679256 -0.18699282 64 2 -0.024488755
-0.87853462 -0.39759696 0.084366761 78 10 -0.02448645
-0.88729995 -0.40137729 -0.15424441 72 3 -0.024484146
-0.87002879 -0.39338169 0.11723832 83 11 -0.024481842
-0.88999569 -0.4022226 -0.11991944 67 4 -0.024479538
-0.87310815 -0.39440697 0.15174145 70 12 -0.024477234
-0.87336481 -0.39452291 -0.083843827 73 5 -0.02447493
-0.88656008 -0.40011105 -0.050975226 76 6 -0.024470322
-1.3340526 -0.60178709 0.3378765 1 14 -0.024468018
-0.90601087 -0.40850875 -0.017347692 63 7 -0.024465714
-1.3544017 -0.61039805 0.39806372 99 15 -0.02446341
-0.868774 -0.39026025 -0.25519559 63 0 -0.024442675
-0.86651796 -0.38906536 0.016579786 100 8 -0.024440371
-0.89428526 -0.40134504 -0.22630076 50 1 -0.024438066
-0.88382101 -0.39646348 0.050765883 90 9 -0.024435762
-0.88310361 -0.39614168 -0.18813768 65 2 -0.024433458
-0.87628096 -0.39289775 0.084018134 80 10 -0.024431154
-0.88509035 -0.39666182 -0.15361866 73 3 -0.02442885
-0.88951302 -0.3984575 0.1196757 66 11 -0.024426546
-0.89682961 -0.40154731 -0.12065066 58 4 -0.024424242
-0.87447953 -0.39135686 0.15174145 72 12 -0.024421938
-0.87837374 -0.39309961 -0.084192447 67 5 -0.024419634
-2.2670391 -1.0140957 0.48274681 17 13 -0.02441733
-0.89342135 -0.39945936 -0.051289242 68 6 -0.024415025
-1.3806237 -0.61700469 0.34912404 7 14 -0.024412721
-0.90925711 -0.40615928 -0.017382598 57 7 -0.024410417
-1.3459401 -0.60094059 0.39495787 100 15 -0.024408113
-0.88601559 -0.39429447 -0.25985435 46 0 -0.024387378
-0.87883335 -0.3909145 0.016789215 99 8 -0.024385074
-0.88677746 -0.39426249 -0.22405125 60 1 -0.02438277
-0.89250004 -0.39662048 0.051184569 82 9 -0.024380466
-0.89345133 -0.39704326 -0.19004577 50 2 -0.024378162
-0.88310975 -0.3922627 0.084541067 76 10 -0.024375858
-0.89008039 -0.39517298 -0.15424441 72 3 -0.024373554
-0.88908386 -0.39454508 0.11943197 78 11 -0.02437125
-0.90911347 -0.40324339 -0.1221131 51 4 -0.024368946
-0.88667548 -0.39310566 0.15361866 66 12 -0.024366641
-0.88702619 -0.39326116 -0.084889688 60 5 -0.024364337
-2.2687697 -1.0053811 0.48236516 12 13 -0.024362033
-0.88567948 -0.39229423 -0.050765883 82 6 -0.024359729
-1.3720776 -0.60744828 0.34642464 28 14 -0.024357425
-0.91798389 -0.4062199 -0.017522216 55 7 -0.024355121
-1.3568631 -0.60014617 0.39754605 100 15 -0.024352819
-0.90506357 -0.39899209 -0.26503071 62 0 -0.024332082
-0.8801927 -0.38784418 0.016789215 99 8 -0.024329778
-0.88814819 -0.39116481 -0.22405125 57 1 -0.024327474
-0.88291126 -0.38867438 0.050556537 95 9 -0.02432517
-0.90201932 -0.39708611 -0.19157225 47 2 -0.024322866
-0.8954156 -0.39399225 0.085586935 71 10 -0.024320561
-0.90230364 -0.39683536 -0.15612161 70 3 -0.024318257
-0.87591773 -0.38504833 0.11748206 90 11 -0.024315953
-0.90324587 -0.3968733 -0.12113813 52 4 -0.024313649
-0.89708531 -0.39397994 0.155183 61 12 -0.024311345
-0.89933878 -0.39496961 -0.085935563 52 5 -0.024309041
-2.2668729 -0.99508756 0.4812203 12 13 -0.024306739
-0.8961882 -0.39321259 -0.051289242 68 6 -0.024304435
-1.3581277 -0.59561104 0.34237552 47 14 -0.024302131
-0.9193964 -0.40301281 -0.017522216 55 7 -0.024299826
-1.3660277 -0.59850723 0.3996166 100 15 -0.024297522
-0.89582849 -0.39119154 -0.26192489 50 0 -0.024276786
-0.89253736 -0.38956916 0.016998643 87 8 -0.024274481
-0.90379751 -0.39429614 -0.22765048 52 1 -0.024272177
-0.88975501 -0.38798481 0.050870556 92 9 -0.024269873
-0.89980072 -0.39236531 -0.190809 52 2 -0.024267569
-0.90591758 -0.39484474 0.086458497 57 10 -0.024265265
-0.91092736 -0.39683908 -0.15737309 69 3 -0.024262961
-0.88999677 -0.38753578 0.11918823 78 11 -0.024260659
-0.90826601 -0.39530256 -0.12162561 52 4 -0.024258355
-0.90026653 -0.39163408 0.15549587 64 12 -0.024256051
-0.89705801 -0.39023831 -0.085586935 57 5 -0.024253746
-2.2757337 -0.98951715 0.48236516 11 13 -0.024251442
-0.90671408 -0.39406231 -0.051812604 58 6 -0.024249138
-1.367348 -0.59397274 0.34417513 56 14 -0.024246834
-0.92813468 -0.40298671 -0.017661836 55 7 -0.02424453
-1.3681086 -0.59373522 0.3996166 100 15 -0.024242226
-0.8989616 -0.38882923 -0.26244253 46 0 -0.024221489
-0.9049049 -0.39121246 0.017208073 67 8 -0.024219185
-0.90159059 -0.38959286 -0.22675066 49 1 -0.024216881
-0.89653695 -0.38740906 0.051184569 78 9 -0.024214577
-0.90657187 -0.3915576 -0.19195385 48 2 -0.024212275
-0.90180272 -0.38931105 0.085935563 61 10 -0.024209971
-0.92318952 -0.39835238 -0.1592503 68 3 -0.024207667
-0.89681244 -0.38678515 0.11991944 75 11 -0.024205362
-0.9132176 -0.39386052 -0.1221131 51 4 -0.024203058
-0.89249033 -0.3847366 0.15393153 68 12 -0.024200754
-0.9020744 -0.3886812 -0.085935563 54 5 -0.02419845
-2.2629457 -0.97457826 0.47893062 7 13 -0.024196146
-0.90991849 -0.39168477 -0.051917274 55 6 -0.024193842
-1.3639402 -0.58712357 0.34282541 63 14 -0.024191538
-0.92762899 -0.39911631 -0.01762693 57 7 -0.024189234
-1.3611965 -0.58537906 0.39702842 100 15 -0.02418693
-0.91089982 -0.39041221 -0.26554835 58 0 -0.024166195
-0.90068281 -0.38584715 0.017103357 82 8 -0.024163891
-0.90646052 -0.38813505 -0.22765048 49 1 -0.024161587
-0.91250485 -0.39072317 0.052021943 64 9 -0.024159282
-0.9150849 -0.39163896 -0.19348033 50 2 -0.024156978
-0.91041607 -0.38945282 0.086632803 60 10 -0.024154674
-0.91360742 -0.39062938 -0.15737309 72 3 -0.02415237
-0.90539175 -0.38692945 0.12089439 67 11 -0.024150066
-0.92182016 -0.39395034 -0.12308804 51 4 -0.024147762
-0.90829396 -0.38798258 0.15643448 67 12 -0.024145458
-0.90335822 -0.38568786 -0.085935563 54 5 -0.024143154
-2.2589421 -0.96398634 0.47740412 5 13 -0.02414085
-0.91856086 -0.39179957 -0.052335959 48 6 -0.024138546
-1.3730497 -0.58565557 0.34462503 80 14 -0.024136242
-0.93446594 -0.39839065 -0.017731644 55 7 -0.024133937
-1.3666847 -0.5823766 0.39806372 54 15 -0.024131633
-0.91218936 -0.38738957 -0.26554835 46 0 -0.024110898
-0.89827597 -0.38129556 0.017033549 84 8 -0.024108594
-0.91133046 -0.38664916 -0.22855027 51 1 -0.02410629
-0.91386306 -0.38753575 0.052021943 64 9 -0.024103986
-0.92367679 -0.39150697 -0.1950068 48 2 -0.024101682
-0.91904026 -0.38954172 0.087330058 49 10 -0.024099378
-0.91853547 -0.3891387 -0.15799882 70 3 -0.024097074
-0.90118605 -0.38160279 0.12016319 66 11 -0.02409477
-0.93050206 -0.39382529 -0.124063 50 4 -0.024092466
-0.89872706 -0.38019195 0.15455727 65 12 -0.024090162
-0.90469921 -0.38253197 -0.085935563 54 5 -0.024087857
-0.91440338 -0.38625923 -0.052021943 58 6 -0.024083249
-1.3732905 -0.58010083 0.34417513 82 14 -0.024080945
-0.94321978 -0.39823756 -0.017871264 52 7 -0.024078641
-1.3669291 -0.57685149 0.39754605 19 15 -0.024076337
-0.92250764 -0.38778651 -0.26813653 50 0 -0.024055602
-0.91625953 -0.38497216 0.017347692 67 8 -0.024053298
-0.9091481 -0.38179731 -0.22765048 49 1 -0.024050994
-0.91896063 -0.38572946 0.052231289 61 9 -0.02404869
-0.92510545 -0.38811907 -0.1950068 52 2 -0.024046386
-0.91494995 -0.38385841 0.086807117 52 10 -0.024044082
-0.92724246 -0.38882509 -0.1592503 69 3 -0.024041777
-0.90257853 -0.37829745 0.12016319 68 11 -0.024039473
-0.92461544 -0.3873443 -0.12308804 51 4 -0.024037169
-0.929268 -0.38910252 0.15956318 60 12 -0.024034865
-0.90977085 -0.38075206 -0.086284183 52 5 -0.024032561
-1.5757241 -0.65913945 0.33200768 1 13 -0.024030257
-0.91765565 -0.38367563 -0.052126616 50 6 -0.024027955
-1.3736095 -0.57431185 0.34372523 83 14 -0.024025651
-0.95574337 -0.39940435 -0.018080693 52 7 -0.024023347
-1.3850777 -0.57853848 0.40220481 21 15 -0.024021043
-0.93462467 -0.38885531 -0.27124238 50 0 -0.024000306
-0.91766447 -0.38161108 0.017347692 67 8 -0.023998002
-0.92133814 -0.38295043 -0.23034988 49 1 -0.023995697
-0.91667944 -0.38082618 0.052021943 64 9 -0.023993393
-0.93014807 -0.3862313 -0.19577004 50 2 -0.023991089
-0.9329114 -0.38737869 0.088375926 51 10 -0.023988785
-0.93960822 -0.38996723 -0.16112752 68 3 -0.023986481
-0.90762615 -0.376508 0.12065066 68 11 -0.023984177
-0.93153018 -0.38623351 -0.12381926 53 4 -0.023981873
-0.90696442 -0.37586248 0.15549587 63 12 -0.023979571
-0.92588603 -0.38351461 -0.087678678 39 5 -0.023977267
-1.5781293 -0.65336001 0.33200768 1 13 -0.023974963
-0.92828321 -0.38412803 -0.052649979 52 6 -0.023972658
-1.3757054 -0.56927341 0.34372523 90 14 -0.023970354
-0.94426566 -0.39054865 -0.01783636 60 7 -0.02396805
-1.3979007 -0.57788658 0.40531066 21 15 -0.023965746
-0.92532539 -0.38101399 -0.26813653 50 0 -0.023945009
-0.93754911 -0.38585588 0.01769674 60 8 -0.023942705
-0.93715346 -0.38550156 -0.23394911 51 1 -0.023940401
-0.93654138 -0.3850587 0.053068664 60 9 -0.023938097
-0.93155742 -0.3828195 -0.19577004 48 2 -0.023935795
-0.92879635 -0.38168484 0.087852985 50 10 -0.023933489
-0.95199472 -0.39102393 -0.16300473 68 3 -0.023931187
-0.92369097 -0.37921003 0.12260057 52 11 -0.023928883
-0.94028562 -0.385831 -0.12479421 56 4 -0.023926578
-0.91381884 -0.37478447 0.15643448 65 12 -0.023924274
-0.92359859 -0.37860712 -0.087330058 42 5 -0.02392197
-1.5805134 -0.64757144 0.33200768 1 13 -0.023919666
-0.93707806 -0.38375074 -0.053068664 51 6 -0.023917362
-1.3777826 -0.56422734 0.34372523 90 14 -0.023915058
-0.95124274 -0.38935763 -0.017941073 55 7 -0.023912754
-1.3910694 -0.56910169 0.40272245 20 15 -0.02391045
-0.92824042 -0.37899706 -0.2686542 46 0 -0.023892641
-0.92943251 -0.37929431 0.017522216 58 8 -0.023890337
-0.94190186 -0.38419145 -0.2348489 49 1 -0.023888033
-0.94137853 -0.38378638 0.053278007 55 9 -0.023885729
-0.9435308 -0.38466382 -0.19805975 48 2 -0.023883425
-0.93915009 -0.3826865 0.088724539 51 10 -0.023881121
-0.94583285 -0.38521713 -0.16175325 66 3 -0.023878817
-0.93584347 -0.3809585 0.124063 60 11 -0.023876512
-0.95245862 -0.38752809 -0.12625664 54 4 -0.023874208
-0.92041647 -0.37430385 0.15737309 53 12 -0.023871904
-0.930255 -0.37811595 -0.087852985 43 5 -0.0238696
-1.5532153 -0.63132745 0.32590178 1 13 -0.023867298
-0.94369727 -0.38338763 -0.053382684 49 6 -0.023864994
-1.3938951 -0.56600213 0.34732443 86 14 -0.02386269
-0.95609975 -0.3880375 -0.018010885 55 7 -0.023860386
-1.3909616 -0.56424552 0.40220481 10 15 -0.023858082
-0.93141466 -0.3763158 -0.26917183 50 0 -0.023837345
-0.92704272 -0.37454945 0.017452406 58 8 -0.023835041
-0.94143027 -0.38017154 -0.23439901 52 1 -0.023832737
-0.9519729 -0.38423568 0.053801365 54 9 -0.023830432
-0.94675505 -0.38193727 -0.19844137 47 2 -0.023828128
-0.95163345 -0.38371244 0.089770414 51 10 -0.023825824
-0.95090282 -0.38322467 -0.162379 65 3 -0.02382352
-0.93532646 -0.37694722 0.12381926 58 11 -0.023821218
-0.96117073 -0.38716778 -0.1272316 57 4 -0.023818914
-0.94370663 -0.37994197 0.16112752 57 12 -0.02381661
-0.93156928 -0.37486622 -0.087852985 43 5 -0.023814306
-1.5628048 -0.6285603 0.32742825 1 13 -0.023812002
-0.9358303 -0.3762016 -0.052859318 52 6 -0.023809697
-1.3905356 -0.5587098 0.34597474 75 14 -0.023807393
-0.97785914 -0.39289862 -0.018394835 60 7 -0.023805089
-1.403679 -0.56370628 0.40531066 10 15 -0.023802785
-0.94707191 -0.37880182 -0.2733129 54 0 -0.023782048
-0.94140702 -0.37634546 0.01769674 63 8 -0.023779744
-0.93919814 -0.37527207 -0.23349921 52 1 -0.02377744
-0.94774443 -0.3786869 0.053487353 55 9 -0.023775138
-0.96084499 -0.38372725 -0.20111269 48 2 -0.023772834
-0.95851827 -0.38260412 0.090293348 54 10 -0.02377053
-0.94489568 -0.37697506 -0.16112752 64 3 -0.023768226
-0.93301392 -0.37204623 0.12333179 53 11 -0.023765922
-0.95520723 -0.38070276 -0.12625664 53 4 -0.023763618
-0.94135708 -0.37518272 0.16050178 57 12 -0.023761313
-0.95323247 -0.37972268 -0.089770414 52 5 -0.023759009
-1.5649893 -0.62310159 0.32742825 1 13 -0.023756705
-0.94456071 -0.37588632 -0.053278007 51 6 -0.023754401
-1.3291006 -0.52864462 0.33022815 35 14 -0.023752097
-0.98294085 -0.39096093 -0.018464647 57 7 -0.023749793
-3.0069523 -1.1953968 0.86704385 38 15 -0.023747489
-0.96096188 -0.38047177 -0.27693638 60 0 -0.023726754
-0.95380539 -0.37763831 0.017906168 63 8 -0.02372445
-0.94406152 -0.37358963 -0.23439901 50 1 -0.023722146
-0.95834672 -0.37904951 0.054010712 58 9 -0.023719842
-0.95487553 -0.37748384 -0.19958621 48 2 -0.023717538
-0.96170115 -0.37998787 0.090467662 51 10 -0.023715233
-0.95348936 -0.3767432 -0.162379 62 3 -0.023712929
-0.94532055 -0.37332508 0.12479421 58 11 -0.023710625
-0.96015728 -0.37899071 -0.12674414 57 4 -0.023708321
-0.92979831 -0.36681968 0.15831171 54 12 -0.023706017
-0.96567297 -0.38077831 -0.090816282 46 5 -0.023703713
-1.5889637 -0.62655056 0.33200768 1 13 -0.023701409
-0.94951832 -0.37421682 -0.053487353 51 6 -0.023699105
-3.0152555 -1.1877404 0.74818724 43 14 -0.023696801
-0.97313541 -0.38313225 -0.018255217 60 7 -0.023694497
-3.0057137 -1.182771 0.86549091 67 15 -0.023692193
-0.94962835 -0.37234655 -0.2733129 52 0 -0.023671458
-0.97001237 -0.380144 0.018185407 67 8 -0.023669153
-0.96713388 -0.37882099 -0.23979783 50 1 -0.023666849
-0.9671033 -0.37861434 0.054429401 56 9 -0.023664545
-0.95977837 -0.37574667 -0.20034947 48 2 -0.023662241
-0.95924503 -0.37534481 0.090119034 51 10 -0.023659937
-0.96583664 -0.37772971 -0.16425622 62 3 -0.023657633
-0.9577111 -0.37435919 0.12625664 58 11 -0.023655329
-0.96887046 -0.37852609 -0.12771909 57 4 -0.023653025
-0.93475312 -0.36500907 0.15893744 54 12 -0.023650721
-0.9595722 -0.37450761 -0.090119034 51 5 -0.023648417
-1.572852 -0.61386216 0.32819149 1 13 -0.023646113
-0.96756524 -0.37743238 -0.054429401 50 6 -0.023643808
-1.1619995 -0.45304486 0.28793734 23 14 -0.023641504
-0.98564619 -0.38408941 -0.018464647 63 7 -0.0236392
-3.0098243 -1.172271 0.86549091 81 15 -0.023636896
-0.95639008 -0.37095925 -0.27486584 56 0 -0.023616161
-0.96201175 -0.37313977 0.018010885 65 8 -0.023613857
-0.97571814 -0.37826025 -0.24159741 52 1 -0.023611553
-0.97773075 -0.3788442 0.054952759 60 9 -0.023609249
-0.97030294 -0.3757714 -0.20225754 46 2 -0.023606945
-0.96433043 -0.37326488 0.090467662 55 10 -0.023604641
-0.96352994 -0.37276167 -0.16363046 66 3 -0.023602337
-0.97752571 -0.37817624 0.12869403 61 11 -0.023600033
-0.98129475 -0.37943754 -0.12918152 54 4 -0.023597728
-0.96550256 -0.37313747 0.16394335 62 12 -0.023595424
-0.9608736 -0.37115577 -0.090119034 51 5 -0.02359312
-1.5567764 -0.60102242 0.3243753 1 13 -0.023590816
-0.96894199 -0.37388372 -0.054429401 50 6 -0.023588514
-1.1800162 -0.45509359 0.29198647 30 14 -0.02358621
-0.98884684 -0.38136584 -0.018499551 63 7 -0.023583906
-3.0012798 -1.1568946 0.86186743 88 15 -0.023581602
-0.96850038 -0.37177241 -0.27797166 56 0 -0.023560865
-0.95777184 -0.36746234 0.017906168 63 8 -0.023558561
-0.96072203 -0.36840215 -0.23754831 48 1 -0.023556257
-0.97165281 -0.372399 0.054534074 59 9 -0.023553953
-0.97344196 -0.37308469 -0.20263916 48 2 -0.023551648
-0.97306967 -0.37274724 0.091164902 55 10 -0.023549344
-0.96851492 -0.37080869 -0.16425622 64 3 -0.02354704
-0.96778136 -0.37033418 0.1272316 58 11 -0.023544736
-0.99009538 -0.37867486 -0.13015647 57 4 -0.023542434
-0.95948303 -0.36677483 0.16269186 54 12 -0.02354013
-0.97891283 -0.3742021 -0.091687836 52 5 -0.023537826
-1.558865 -0.59558451 0.3243753 1 13 -0.023535522
-0.96464366 -0.36836168 -0.054115385 52 6 -0.023533218
-1.2161896 -0.4641746 0.30053461 48 14 -0.023530914
-1.0014482 -0.3820155 -0.01870898 60 7 -0.023528609
-3.00911 -1.1472628 0.8629027 94 15 -0.023526305
-0.98062795 -0.37250555 -0.2810775 56 0 -0.023505569
-0.97587401 -0.37050509 0.018220313 65 8 -0.023503264
-0.976578 -0.37057716 -0.24114752 51 1 -0.02350096
-0.969212 -0.36758846 0.054324731 59 9 -0.023498656
-0.98208106 -0.37246925 -0.20416564 50 2 -0.023496352
-0.98740602 -0.37429205 0.092385083 54 10 -0.02349405
-0.97349781 -0.36882535 -0.16488194 66 3 -0.023491746
-0.96535528 -0.36554775 0.12674414 61 11 -0.023489442
-0.98398477 -0.37240604 -0.12918152 54 4 -0.023487138
-0.99031931 -0.37460563 0.16769776 60 12 -0.023484834
-0.98394001 -0.37219256 -0.092036456 54 5 -0.023482529
-1.5829712 -0.59847081 0.32895473 1 13 -0.023480225
-0.96779186 -0.36569813 -0.054220054 50 6 -0.023477921
-1.2724942 -0.48058179 0.31403166 93 14 -0.023475617
-1.0102588 -0.38134217 -0.0188486 62 7 -0.023473313
