# .PCD v0.7 - Point Cloud Data file format
VERSION 0.7
FIELDS x y z intensity ring time
SIZE 4 4 4 4 2 4
TYPE F F F F U F
COUNT 1 1 1 1 1 1
WIDTH 947
HEIGHT 1
VIEWPOINT 0 0 0 1 0 0 0
POINTS 947
DATA ascii
7.8104062 -2.6893384 0.72269541 100 10 -0.024478242
5.2611513 -1.8125868 -0.88135189 37 3 -0.024475938
7.8259058 -2.6977315 1.0163903 100 11 -0.024473634
5.3373804 -1.8398918 -0.6931929 75 4 -0.02447133
7.5929227 -2.6189005 1.2721251 47 12 -0.024469025
2.8439159 -0.98146015 -0.26321036 1 5 -0.024466721
6.5284762 -2.2543089 1.3425322 29 13 -0.024464417
5.6481886 -1.9514457 -0.31317839 12 6 -0.024462115
5.7080626 -1.9721321 1.3942467 35 14 -0.024459811
2.8103592 -0.97152644 -0.05190346 12 7 -0.024457507
5.1174979 -1.7700922 1.4509397 35 15 -0.024455203
3.5695999 -1.2395744 -1.0125002 58 0 -0.024434466
7.7785883 -2.7027037 0.14373802 100 8 -0.024432162
5.2348924 -1.8199097 -1.2795216 73 1 -0.024429858
7.7893915 -2.7079809 0.43219036 100 9 -0.024427554
5.3106475 -1.8472849 -1.0929539 85 2 -0.02442525
7.8089714 -2.7178433 0.72339261 100 10 -0.024422945
7.8262897 -2.7269342 1.0176091 100 11 -0.024418337
7.5786018 -2.6421146 1.2711866 45 12 -0.024413731
2.8368831 -0.98957306 -0.2628617 6 5 -0.024411427
6.5246716 -2.2772398 1.3432955 28 13 -0.024409123
5.6473432 -1.9721404 -0.31349242 27 6 -0.024406819
5.7198892 -1.9974747 1.3987457 18 14 -0.024404515
2.7901323 -0.97490412 -0.051589314 24 7 -0.02440221
5.1152472 -1.7883278 1.4519749 35 15 -0.024399906
3.5563555 -1.248206 -1.009912 56 0 -0.02437917
7.7733564 -2.7298086 0.14380784 100 8 -0.024376865
5.3575268 -1.8824798 -1.3110147 48 1 -0.024374561
7.7897902 -2.7371066 0.43271375 100 9 -0.024372257
5.3693166 -1.8876753 -1.1063106 87 2 -0.024369955
7.7999163 -2.7437239 0.72339261 100 10 -0.024367649
5.4129872 -1.9051516 -0.90888435 19 3 -0.024365347
7.8265657 -2.7561688 1.0188278 100 11 -0.024363043
2.8179381 -0.99235266 -0.36682677 24 4 -0.024360739
7.5604825 -2.6639493 1.2696222 43 12 -0.024358435
2.8223119 -0.99500042 -0.26181585 9 5 -0.024356131
6.5244899 -2.3014762 1.3448219 29 13 -0.024353826
5.6501894 -1.9941804 -0.31401578 13 6 -0.024351522
5.7113962 -2.0157828 1.3982958 16 14 -0.024349218
2.7906549 -0.98548281 -0.051659122 25 7 -0.024346914
5.0965385 -1.8007756 1.4483514 37 15 -0.02434461
3.5369737 -1.2566779 -1.0057708 45 0 -0.02432704
7.7590489 -2.7582963 0.14373802 100 8 -0.024324736
7.7811046 -2.7676666 0.43281841 100 9 -0.024320127
5.3546309 -1.9056454 -1.1047841 36 2 -0.024317823
7.7855697 -2.7723167 0.72304404 100 10 -0.024315519
3.6825287 -1.3120136 -0.61916769 3 3 -0.024313215
7.8252749 -2.7895331 1.0200466 100 11 -0.024310911
2.8270197 -1.0083246 -0.36853293 30 4 -0.024308607
7.5595007 -2.6962781 1.2711866 45 12 -0.024306303
2.7696822 -0.98841876 -0.25728375 10 5 -0.024303999
6.5100579 -2.3245308 1.343677 32 13 -0.024301697
3.7127588 -1.3264366 -0.20662238 53 6 -0.024299392
5.6995888 -2.0373819 1.397396 41 14 -0.024297088
2.7887335 -0.99686414 -0.051694028 26 7 -0.024294784
5.0968623 -1.8229339 1.4504219 35 15 -0.02429248
3.4089348 -1.2246044 -0.97057146 40 0 -0.024271743
7.7498598 -2.7840109 0.14373802 100 8 -0.024269439
2.6059401 -0.9366551 -0.6393109 27 1 -0.024267135
3.6687467 -1.3201066 -0.75789338 25 2 -0.024262527
7.7870927 -2.8035257 0.72408992 100 10 -0.024260223
3.6484201 -1.313512 -0.61416179 10 3 -0.024257919
7.806643 -2.8121035 1.0188278 100 11 -0.024255617
2.8311305 -1.0203862 -0.36950788 23 4 -0.024253312
7.5593348 -2.7259998 1.272751 47 12 -0.024251008
2.72311 -0.98252803 -0.25327459 27 5 -0.024248704
6.5041599 -2.3467724 1.3440586 28 13 -0.0242464
3.6857967 -1.330603 -0.20536631 88 6 -0.024244096
5.7019649 -2.0595813 1.3996454 43 14 -0.024241792
2.7701917 -1.001155 -0.051414788 27 7 -0.024239488
5.0832009 -1.8380865 1.4483514 35 15 -0.024237184
3.4302781 -1.2451301 -0.97781837 22 0 -0.024216447
7.7457333 -2.8130939 0.14384274 100 8 -0.024214143
2.5971601 -0.94374919 -0.63796121 34 1 -0.024211839
2.815572 -1.0236715 0.15700789 6 9 -0.024209537
3.5923901 -1.3061031 -0.74301028 5 2 -0.024207233
7.7889872 -2.83342 0.7251358 100 10 -0.024204928
2.6692832 -0.97153962 -0.44990557 1 3 -0.024202624
7.791183 -2.8372989 1.0180966 100 11 -0.02420032
2.8014398 -1.0207483 -0.36609554 27 4 -0.024198016
7.5571961 -2.7550764 1.2740024 47 12 -0.024195712
2.7383814 -0.99885482 -0.2550177 29 5 -0.024193408
6.5033069 -2.372153 1.3455851 28 13 -0.024191104
3.6867583 -1.3455149 -0.20568034 16 6 -0.0241888
5.6910801 -2.0781355 1.3987457 41 14 -0.024186496
2.7610452 -1.0087601 -0.051310074 32 7 -0.024184192
5.0876408 -1.8597986 1.4514573 33 15 -0.024181888
2.6404481 -0.96940339 -0.75368112 10 0 -0.024161153
7.7433753 -2.8428714 0.14398235 100 8 -0.024158848
2.5920205 -0.95213729 -0.63751125 9 1 -0.024156544
2.8119814 -1.0334935 0.15700789 21 9 -0.02415424
2.5704534 -0.94523329 -0.53235716 4 2 -0.024151936
7.7785497 -2.8619492 0.7251358 100 10 -0.024149632
2.6267755 -0.9669857 -0.44333532 14 3 -0.024147328
7.7924089 -2.8685923 1.019559 100 11 -0.024145024
2.6693294 -0.98317993 -0.34927759 14 4 -0.02414272
7.5382667 -2.778024 1.2724382 45 12 -0.024140416
2.7423556 -1.0111647 -0.25571495 19 5 -0.024138112
6.4982524 -2.3973317 1.3463483 29 13 -0.024135808
20.018509 -7.3891883 -1.1183149 7 6 -0.024133503
5.6761131 -2.0962799 1.3969461 41 14 -0.024131199
2.7368729 -1.0107712 -0.050926123 44 7 -0.024128895
5.088366 -1.8802248 1.4535278 1 15 -0.024126591
2.5646017 -0.95172924 -0.73297554 26 0 -0.024105856
7.7441516 -2.8754094 0.14419177 100 8 -0.024103552
2.7255204 -1.012529 -0.67125398 14 1 -0.024101248
2.8139737 -1.0453894 0.1573219 31 9 -0.024098944
2.5689783 -0.95488417 -0.53273875 28 2 -0.02409664
7.7703795 -2.8897784 0.72531009 100 10 -0.024094336
2.6011677 -0.96788239 -0.43958092 28 3 -0.024092032
7.7967253 -2.9026744 1.0215088 100 11 -0.024089728
2.6472776 -0.98556566 -0.3468402 25 4 -0.024087423
7.5248199 -2.8029413 1.2718123 41 12 -0.024085119
2.781749 -1.0367343 -0.25972411 17 5 -0.024082815
6.5045609 -2.425488 1.3494014 30 13 -0.024080511
18.755688 -6.9975433 -1.0491267 4 6 -0.024078207
5.6800847 -2.1191778 1.3996454 41 14 -0.024075903
2.7483156 -1.0259132 -0.051205363 33 7 -0.024073599
5.0727234 -1.8945955 1.4509397 28 15 -0.024071295
2.5433424 -0.95344728 -0.72779918 26 0 -0.02405056
7.7289572 -2.8989675 0.14408708 100 8 -0.024048256
3.2567248 -1.2221766 -0.80307525 3 1 -0.024045952
2.8123615 -1.0554168 0.15742657 28 9 -0.024043648
2.5786636 -0.96822876 -0.53541011 27 2 -0.024041343
7.762619 -2.9162304 0.72548437 100 10 -0.024039039
2.5923965 -0.97441787 -0.43864229 33 3 -0.024036735
7.7870569 -2.9285133 1.0215088 100 11 -0.024034431
2.651427 -0.99713397 -0.34781513 34 4 -0.024032127
7.5284262 -2.8327489 1.2740024 47 12 -0.024029823
2.8062651 -1.0564829 -0.26233879 9 5 -0.024027519
6.4817839 -2.4415081 1.3463483 28 13 -0.024025215
18.734249 -7.0604057 -1.0492313 8 6 -0.024022913
5.6821442 -2.1414385 1.4018949 39 14 -0.024020609
2.7654803 -1.0427822 -0.051589314 32 7 -0.024018304
5.0573754 -1.9079973 1.4483514 37 15 -0.024016
2.5383604 -0.96119201 -0.72728157 34 0 -0.023995264
7.7155609 -2.9231646 0.14401726 100 8 -0.023992959
2.5911899 -0.9822312 -0.63976079 22 1 -0.023990655
2.819865 -1.0694771 0.15805461 18 9 -0.023988351
2.5754387 -0.97677463 -0.53541011 22 2 -0.023986047
7.7603574 -2.9447837 0.72618169 100 10 -0.023983743
2.5909979 -0.98371029 -0.43895519 32 3 -0.023981439
7.7754464 -2.953615 1.0212651 100 11 -0.023979135
2.6627748 -1.0120251 -0.34976503 40 4 -0.023976833
7.520339 -2.8597131 1.2743154 41 12 -0.023974529
6.4736519 -2.4629891 1.3463483 30 13 -0.02396992
5.6746345 -2.1612601 1.4018949 39 14 -0.023965312
2.7861154 -1.0616858 -0.052043077 19 7 -0.023963008
5.0633197 -1.9304564 1.4519749 35 15 -0.023960704
2.5257995 -0.96703541 -0.72469336 30 0 -0.023939967
7.7146478 -2.9536541 0.14419177 100 8 -0.023937663
2.5313318 -0.96966016 -0.62581384 43 1 -0.023935359
7.7303276 -2.9627516 0.4338651 100 9 -0.023933055
2.5828397 -0.99042505 -0.53769976 8 2 -0.023930751
7.753232 -2.9746344 0.72653025 100 10 -0.023928449
2.5873749 -0.99320024 -0.43895519 31 3 -0.023926144
7.7613835 -2.979316 1.0207777 100 11 -0.02392384
2.7926507 -1.0725574 -0.36731425 21 4 -0.023921536
2.7579079 -1.0603188 -0.25850391 2 5 -0.023916928
6.464581 -2.4866996 1.3463483 29 13 -0.023914624
3.0792897 -1.1851127 -0.17291802 11 6 -0.02391232
5.6557636 -2.1778421 1.3991956 39 14 -0.023910016
3.0940356 -1.1914079 -0.05787218 53 7 -0.023907712
5.0547476 -1.9474248 1.4514573 35 15 -0.023905408
2.5224085 -0.97584623 -0.72469336 23 0 -0.023884671
7.7149596 -2.9862409 0.14440121 100 8 -0.023882369
2.5241263 -0.97752404 -0.62491405 38 1 -0.023880064
7.7273879 -2.9926028 0.43428379 100 9 -0.02387776
2.6928666 -1.0434128 -0.56136012 8 2 -0.023875456
7.7539477 -3.0060012 0.72757614 100 10 -0.023873152
2.5949423 -1.0065117 -0.44083238 31 3 -0.023870848
7.7578144 -3.0106156 1.0217527 100 11 -0.023868544
2.8627207 -1.1115259 -0.37706378 40 4 -0.02386624
7.5977874 -2.9500389 1.2908974 23 12 -0.023863936
2.7300467 -1.0605602 -0.25623786 22 5 -0.023861632
6.4668407 -2.5135176 1.3486381 30 13 -0.023859328
3.0583808 -1.1893392 -0.17197597 72 6 -0.023857024
5.6517591 -2.1989846 1.4000953 39 14 -0.023854719
3.056313 -1.1891493 -0.057243895 108 7 -0.023852415
5.0533204 -1.9671597 1.4530102 35 15 -0.023850111
2.3732455 -0.92767638 -0.68276465 9 0 -0.023829376
7.7087398 -3.0132644 0.14447103 100 8 -0.023827072
2.2068965 -0.86309642 -0.54708099 11 1 -0.023824768
7.7187548 -3.0202854 0.43438846 60 9 -0.023822464
2.6471603 -1.036345 -0.55258286 20 2 -0.02382016
7.7434072 -3.0330491 0.72757614 100 10 -0.023817856
2.5842333 -1.0122296 -0.43958092 24 3 -0.023815552
7.764421 -3.0428433 1.0239463 100 11 -0.023813248
2.6834488 -1.0521724 -0.3539086 27 4 -0.023810944
7.4844627 -2.9361432 1.2733767 8 12 -0.023808639
2.7040722 -1.061348 -0.25414613 23 5 -0.023806335
6.4548149 -2.533514 1.3478748 29 13 -0.023804031
3.0581381 -1.2009346 -0.17218532 61 6 -0.023801727
5.651691 -2.2205648 1.4018949 35 14 -0.023799423
3.0018947 -1.1800574 -0.056301463 78 7 -0.023797119
5.0392313 -1.9819586 1.4509397 35 15 -0.023794815
2.1760871 -0.85893887 -0.62685978 43 0 -0.02377408
7.6981745 -3.0401545 0.14447103 100 8 -0.023771776
2.1821218 -0.86220127 -0.54168218 41 1 -0.023769472
2.5998907 -1.0277952 -0.54342401 22 2 -0.023764864
7.7240429 -3.0550463 0.72670454 100 10 -0.02376256
7.7629814 -3.0735817 1.0251651 100 11 -0.023757951
2.6520765 -1.0505667 -0.35025251 37 4 -0.023755647
7.4857044 -2.9653111 1.2752539 40 12 -0.023753343
2.8709421 -1.1378458 -0.27018279 43 5 -0.023751039
6.4422822 -2.5545826 1.3471116 28 13 -0.023748735
2.5860915 -1.025995 -0.14580798 17 6 -0.023746431
5.6475277 -2.2417171 1.4027947 35 14 -0.023744129
2.7990918 -1.1110653 -0.052566648 39 7 -0.023741825
5.0326314 -1.9986585 1.4509397 35 15 -0.02373952
2.1766644 -0.86796075 -0.62789506 50 0 -0.023718784
7.6861916 -3.0649247 0.14443611 100 8 -0.02371648
2.1792505 -0.86943275 -0.54168218 50 1 -0.023714175
7.7147136 -3.0794196 0.43533054 18 9 -0.023711871
2.5689385 -1.0259422 -0.53769976 27 2 -0.023709567
7.7318344 -3.0893826 0.72844774 100 10 -0.023707263
7.7472162 -3.0970972 1.0244337 100 11 -0.023702655
2.63199 -1.0527208 -0.34805888 39 4 -0.023700351
7.4698067 -2.9892218 1.2743154 33 12 -0.023698047
2.67274 -1.0701021 -0.25188008 16 5 -0.023695745
6.4264855 -2.5730133 1.3455851 28 13 -0.02369344
2.582675 -1.0345652 -0.14580798 26 6 -0.023691136
5.6436806 -2.2618828 1.4036945 39 14 -0.023688832
2.77478 -1.1126428 -0.052182697 37 7 -0.023686528
5.0327959 -2.0190907 1.4530102 35 15 -0.023684224
2.1486852 -0.86507308 -0.62064809 44 0 -0.023663487
7.6828666 -3.0947244 0.14457573 100 8 -0.023661183
2.1508975 -0.86683637 -0.53538352 49 1 -0.023658879
2.8433547 -1.1464814 0.1606714 16 9 -0.023656575
2.5564184 -1.0307845 -0.5357917 36 2 -0.023654271
7.7289371 -3.1179869 0.72914493 100 10 -0.023651967
3.038949 -1.2265813 -0.51904958 93 3 -0.023649665
7.7308369 -3.1218913 1.0237026 100 11 -0.023647361
2.6246183 -1.0604146 -0.3475714 36 4 -0.023645056
7.4629893 -3.0167584 1.2749411 35 12 -0.023642752
2.6765654 -1.081946 -0.25257733 23 5 -0.023640448
6.4211044 -2.5969024 1.3463483 28 13 -0.023638144
2.5642366 -1.037581 -0.14497061 27 6 -0.02363584
5.626719 -2.2779129 1.4014452 39 14 -0.023633536
2.7857065 -1.1283274 -0.052461933 28 7 -0.023631232
5.0167646 -2.0330181 1.4504219 35 15 -0.023628928
2.1384945 -0.8696571 -0.61857754 46 0 -0.023608191
7.6868358 -3.1275532 0.14485498 100 8 -0.023605887
2.1406391 -0.87140018 -0.53358394 53 1 -0.023603585
7.693027 -3.1332028 0.43533054 100 9 -0.023601281
2.5455315 -1.0367397 -0.53426522 39 2 -0.023598976
7.7216973 -3.146451 0.72949362 100 10 -0.023596672
2.6340532 -1.0738648 -0.4505313 43 3 -0.023594368
7.7309203 -3.1533561 1.0251651 100 11 -0.023592064
2.6264143 -1.0718197 -0.3483026 32 4 -0.02358976
7.445097 -3.0398037 1.2736895 33 12 -0.023587456
2.6912181 -1.0988138 -0.25432047 22 5 -0.023585152
6.4301748 -2.6267245 1.3501645 28 13 -0.023582848
2.5735409 -1.0518148 -0.14570332 25 6 -0.023580544
5.6205378 -2.2982774 1.4018949 37 14 -0.02357824
2.7003162 -1.1047285 -0.050926123 41 7 -0.023575936
5.0221529 -2.0556402 1.4540454 35 15 -0.023573631
2.1193631 -0.87051082 -0.61391884 45 0 -0.023552896
7.6814208 -3.1566467 0.14495969 100 8 -0.023550592
2.1321771 -0.87664402 -0.53223419 52 1 -0.023548288
2.5346346 -1.0426314 -0.53273875 29 2 -0.02354368
7.7106671 -3.1733851 0.72949362 100 10 -0.023541376
2.6266356 -1.0815486 -0.44990557 46 3 -0.023539072
7.7345495 -3.186372 1.0271149 100 11 -0.023536768
2.6501868 -1.0923281 -0.35195872 59 4 -0.023534464
7.4307895 -3.0642676 1.2730639 32 12 -0.02353216
2.6468439 -1.0914907 -0.2504856 21 5 -0.023529856
2.5587766 -1.0562193 -0.14507528 20 6 -0.023525247
5.6088781 -2.3163948 1.4009951 37 14 -0.023522943
2.6151249 -1.0805475 -0.049390312 40 7 -0.023520639
5.0113764 -2.0716825 1.4530102 35 15 -0.023518335
2.1056051 -0.87346208 -0.61081296 47 0 -0.0234976
7.6574268 -3.1780744 0.14471537 97 8 -0.023495296
2.1273043 -0.88333398 -0.5317843 55 1 -0.023492992
2.7813935 -1.1555047 0.15784526 3 9 -0.023490688
2.5472972 -1.0582515 -0.53617334 21 2 -0.023488384
7.6940231 -3.1979871 0.72897059 100 10 -0.02348608
2.6173725 -1.0884352 -0.44896698 37 3 -0.023483776
7.7307115 -3.2164018 1.0280899 100 11 -0.023481471
2.6445248 -1.1008095 -0.35171497 36 4 -0.023479167
7.4346356 -3.0962625 1.2755668 33 12 -0.023476863
2.6356606 -1.0976593 -0.24978836 20 5 -0.023474559
6.5167904 -2.7153471 1.3722984 3 13 -0.023472255
2.5477004 -1.0620707 -0.1446566 14 6 -0.023469951
5.6151471 -2.3419607 1.4045944 35 14 -0.023467647
2.5338275 -1.0573258 -0.047924306 43 7 -0.023465343
4.9969835 -2.0861857 1.4509397 35 15 -0.023463041
2.0971975 -0.87856728 -0.60926002 46 0 -0.023442304
2.1044395 -0.88246465 -0.52683532 56 1 -0.023437696
2.7443929 -1.1508193 0.15596117 27 9 -0.023435391
2.5508289 -1.0701748 -0.53769976 10 2 -0.023433087
7.6956725 -3.2302222 0.73019081 100 10 -0.023430783
2.5680249 -1.0784436 -0.44114524 46 3 -0.023428479
7.7157764 -3.2418292 1.0276023 100 11 -0.023426175
2.6681159 -1.1215726 -0.35537103 35 4 -0.023423871
7.4261484 -3.1216652 1.2758796 38 12 -0.023421567
2.6152835 -1.0999011 -0.24821955 35 5 -0.023419263
6.4077449 -2.6962001 1.3513094 1 13 -0.023416961
2.5402961 -1.0694076 -0.14444725 15 6 -0.023414657
5.6033459 -2.3600342 1.4036945 35 14 -0.023412352
2.5376792 -1.0688274 -0.04806393 38 7 -0.023410048
5.0007191 -2.1072457 1.4540454 33 15 -0.023407744
2.0905597 -0.88437724 -0.60822481 49 0 -0.023387007
2.6059809 -1.1024178 0.049390312 11 8 -0.023384703
2.0943232 -0.88640016 -0.52503574 56 1 -0.023382399
2.6520789 -1.1230103 0.1509369 48 9 -0.023380095
2.6555412 -1.125023 -0.56059688 23 2 -0.023377791
7.6935225 -3.2609534 0.73106235 100 10 -0.023375487
2.6317279 -1.1154764 -0.45272139 10 3 -0.023373183
7.7013283 -3.2658477 1.0271149 100 11 -0.023370881
2.6296611 -1.1156832 -0.35073999 51 4 -0.023368577
7.4242978 -3.1514275 1.277444 35 12 -0.023366272
2.6077607 -1.107466 -0.24787092 30 5 -0.023363968
6.3987684 -2.7174344 1.3513094 27 13 -0.023361664
2.6176169 -1.112191 -0.14905281 41 6 -0.02335936
5.5919018 -2.3770776 1.4027947 39 14 -0.023357056
2.5412936 -1.0808094 -0.048203547 34 7 -0.023354752
4.9933329 -2.1246886 1.4540454 35 15 -0.023352448
2.0893919 -0.89206338 -0.60874242 50 0 -0.023331711
2.5947611 -1.1083654 0.049250688 14 8 -0.023329407
2.0912161 -0.89370537 -0.52503574 63 1 -0.023327103
2.6465039 -1.131014 0.15083225 45 9 -0.023324799
2.6193027 -1.1199299 -0.55372775 12 2 -0.023322497
7.6881614 -3.2887988 0.73158526 100 10 -0.023320192
2.6241863 -1.1231016 -0.45209566 41 3 -0.023317888
7.7117801 -3.3020873 1.0300398 100 11 -0.023315584
2.6168225 -1.1204906 -0.34952128 51 4 -0.02331328
7.4101758 -3.1744742 1.2768183 35 12 -0.023310976
2.6040738 -1.1161075 -0.24787092 29 5 -0.023308672
6.3946571 -2.7420747 1.3524542 30 13 -0.023306368
2.6816316 -1.1504569 -0.15292569 49 6 -0.023304064
5.5839882 -2.3956082 1.4027947 39 14 -0.02330176
2.5376952 -1.0892308 -0.048203547 34 7 -0.023299456
4.9862599 -2.1412356 1.4540454 33 15 -0.023297152
2.0704551 -0.89210725 -0.60408366 51 0 -0.023276417
2.6406524 -1.1383375 0.050193124 22 8 -0.023274112
2.0864515 -0.89986336 -0.52458584 59 1 -0.023271808
2.6464067 -1.1413658 0.15104158 35 9 -0.023269504
2.6119695 -1.1270541 -0.55296451 21 2 -0.0232672
7.680872 -3.3158553 0.73193395 100 10 -0.023264896
2.5406554 -1.0973344 -0.4383294 30 3 -0.023262592
7.7026095 -3.3284295 1.0302836 100 11 -0.023260288
2.6185591 -1.1315243 -0.35025251 54 4 -0.023257984
7.3959813 -3.1974621 1.2761924 36 12 -0.02325568
2.5930438 -1.121573 -0.24717368 31 5 -0.023253376
6.3801236 -2.760926 1.3513094 32 13 -0.023251072
2.6649716 -1.1537886 -0.15219298 25 6 -0.023248767
5.5813785 -2.4164348 1.4041444 41 14 -0.023246463
2.5230596 -1.0928712 -0.047994118 37 7 -0.023244159
4.9738145 -2.1554544 1.4524926 35 15 -0.023241855
2.0603988 -0.89588696 -0.60201317 52 0 -0.02322112
2.6423643 -1.1494811 0.050297838 10 8 -0.023218816
2.0780957 -0.90444434 -0.52323616 63 1 -0.023216512
2.6955109 -1.17372 0.15407708 17 9 -0.023214208
2.6154175 -1.1388446 -0.55449098 48 2 -0.023211904
7.6661806 -3.3397157 0.73158526 100 10 -0.0232096
2.4174864 -1.0536624 -0.41768005 30 3 -0.023207296
7.6988091 -3.3571281 1.0312586 100 11 -0.023204992
2.6182323 -1.1422454 -0.35073999 54 4 -0.023202688
7.3883963 -3.2248402 1.2768183 35 12 -0.023200383
2.5966144 -1.1333537 -0.24787092 32 5 -0.023198079
6.3655353 -2.779711 1.3501645 33 13 -0.023195775
2.662961 -1.1634191 -0.15229765 9 6 -0.023193471
5.5782666 -2.4382441 1.4054942 39 14 -0.023191167
2.5228939 -1.1032741 -0.04806393 36 7 -0.023188863
4.9680305 -2.1735775 1.4530102 35 15 -0.023186559
2.0590279 -0.90384996 -0.60253078 55 0 -0.023165824
2.594394 -1.1393994 0.04946012 10 8 -0.02316352
2.0570846 -0.90385354 -0.51873708 63 1 -0.023161216
7.6719446 -3.3725405 0.43920338 60 9 -0.023158912
2.624007 -1.1534977 -0.55716228 47 2 -0.023156608
7.6690669 -3.3728724 0.73297983 100 10 -0.023154303
2.5548244 -1.1241497 -0.44208387 30 3 -0.023151999
7.681592 -3.3815815 1.0305272 100 11 -0.023149695
2.6451132 -1.1649799 -0.35488355 67 4 -0.023147391
7.3897481 -3.256186 1.2790084 38 12 -0.023145087
2.6163445 -1.1528546 -0.25013697 20 5 -0.023142783
6.3593864 -2.8034978 1.3509278 34 13 -0.023140479
2.6387823 -1.1638417 -0.15114626 35 6 -0.023138177
5.5750699 -2.4600611 1.4068439 15 14 -0.023135873
2.5153687 -1.1104587 -0.047994118 38 7 -0.023133568
4.9639468 -2.192467 1.4540454 35 15 -0.023131264
2.0523281 -0.90946662 -0.6014955 58 0 -0.023110528
2.6287909 -1.1654686 0.050193124 9 8 -0.023108223
2.0521357 -0.91023856 -0.51828724 62 1 -0.023105919
7.6363935 -3.3887684 0.43784264 9 9 -0.023103615
2.6271429 -1.1658355 -0.55868876 11 2 -0.023101311
10.687367 -4.7449183 1.0230341 20 10 -0.023099007
2.5779643 -1.1450889 -0.4467769 20 3 -0.023096703
8.7636051 -3.8944793 1.1775017 33 11 -0.023094399
2.6337748 -1.1709801 -0.3539086 20 4 -0.023092095
7.3729219 -3.2795529 1.2780697 35 12 -0.023089793
2.6487129 -1.1781752 -0.25362319 43 5 -0.023087488
6.3531489 -2.8272755 1.351691 31 13 -0.023085184
2.6383529 -1.1746703 -0.15135561 58 6 -0.02308288
5.6358738 -2.5104315 1.4243901 1 14 -0.023080576
2.511477 -1.1192321 -0.047994118 38 7 -0.023078272
4.9597926 -2.2113543 1.4550807 35 15 -0.023075968
2.0473773 -0.91583622 -0.60097784 57 0 -0.023055231
2.6502597 -1.1860737 0.050681788 7 8 -0.023052927
2.0418315 -0.9142108 -0.5164876 62 1 -0.023050623
13.776262 -6.1710782 0.7911104 22 9 -0.023048319
2.6069319 -1.1677754 -0.55525422 15 2 -0.023046017
10.685285 -4.7887135 1.0244286 27 10 -0.023043711
2.5991859 -1.1653953 -0.45115703 21 3 -0.023041409
8.7517691 -3.925859 1.1777455 31 11 -0.023039104
2.6314826 -1.1809795 -0.35415235 50 4 -0.0230368
7.3524194 -3.3012238 1.2765055 33 12 -0.023034496
2.6554894 -1.1923103 -0.25466907 58 5 -0.023032192
6.3432407 -2.8494349 1.351691 32 13 -0.023029888
2.6415231 -1.1871476 -0.15177429 9 6 -0.023027584
5.6181898 -2.5260932 1.4221406 3 14 -0.02302528
2.507555 -1.127992 -0.047994118 44 7 -0.023022976
4.9590893 -2.2318246 1.4571513 35 15 -0.023020672
2.0318432 -0.91741228 -0.59735435 62 0 -0.022984982
2.6697946 -1.2060194 0.051135551 7 8 -0.022982677
2.0368521 -0.92053008 -0.5160377 67 1 -0.022980373
13.769197 -6.2257118 0.79194778 22 9 -0.022978069
2.6028397 -1.1768682 -0.55525422 23 2 -0.022975765
10.664873 -4.8243413 1.02408 27 10 -0.022973461
2.6364942 -1.1931937 -0.45835301 58 3 -0.022971157
8.7579031 -3.9653914 1.1804266 31 11 -0.022968853
2.6255357 -1.1893386 -0.3539086 39 4 -0.022966549
7.3480477 -3.3301301 1.2777568 38 12 -0.022964245
2.5152071 -1.1398901 -0.24159572 16 5 -0.022961941
6.3404088 -2.8748028 1.3532175 34 13 -0.022959638
2.6519141 -1.2029617 -0.15261166 6 6 -0.022957334
5.5756216 -2.5303874 1.4135925 1 14 -0.02295503
2.5928214 -1.1772474 -0.049704451 48 7 -0.022952726
4.9442329 -2.2459259 1.4550807 33 15 -0.022950422
2.0215969 -0.92129475 -0.59528387 62 0 -0.022929685
2.6601098 -1.2128427 0.051030833 32 8 -0.022927381
2.0353992 -0.92844307 -0.5164876 65 1 -0.022925077
13.765551 -6.2820292 0.7929945 5 9 -0.022922773
2.5844274 -1.179426 -0.55220127 45 2 -0.022920469
10.651593 -4.8631935 1.0244286 27 10 -0.022918165
2.6323133 -1.2023895 -0.45835301 57 3 -0.022915861
8.7458134 -3.996763 1.1806704 33 11 -0.022913558
2.6574755 -1.2150046 -0.35878339 13 4 -0.022911254
7.3345819 -3.3549373 1.277444 35 12 -0.02290895
2.513025 -1.1494917 -0.24177003 19 5 -0.022906646
6.3303351 -2.8969176 1.3532175 33 13 -0.022904342
2.6658587 -1.2205255 -0.15365838 8 6 -0.022902038
5.5632114 -2.5482113 1.4126925 22 14 -0.022899734
2.612329 -1.1971208 -0.050158214 42 7 -0.02289743
4.9363637 -2.2631707 1.4550807 35 15 -0.022895126
2.0166135 -0.92753857 -0.5947662 60 0 -0.022874389
2.6685762 -1.2279723 0.051275171 4 8 -0.022872085
2.0232952 -0.93146765 -0.51423806 69 1 -0.022869781
13.750086 -6.3301492 0.7933085 19 9 -0.022867478
2.5874274 -1.1917254 -0.55372775 38 2 -0.022865174
10.634552 -4.9003453 1.0244286 24 10 -0.02286287
2.6316881 -1.2132249 -0.4589788 52 3 -0.022860566
8.7191916 -4.0214477 1.1789641 31 11 -0.022858262
2.6676376 -1.230927 -0.36073327 67 4 -0.022855958
2.5071878 -1.1574215 -0.24159572 18 5 -0.02285135
6.3166194 -2.9173501 1.3524542 34 13 -0.022849046
2.6307602 -1.2155818 -0.15187897 19 6 -0.022846742
5.561358 -2.5708861 1.4144921 16 14 -0.022844438
2.6192358 -1.2108116 -0.050367646 35 7 -0.022842133
4.9288316 -2.2795279 1.4550807 35 15 -0.022839829
2.0063543 -0.9313187 -0.59269565 58 0 -0.022819094
2.6536067 -1.2317631 0.051065743 34 8 -0.02281679
2.0184278 -0.93735135 -0.51378822 71 1 -0.022814486
13.733339 -6.3806314 0.79362249 16 9 -0.022812182
2.6811697 -1.2462643 -0.57471669 28 2 -0.022809878
10.628222 -4.9424772 1.0254744 22 10 -0.022807574
2.5846622 -1.2019541 -0.45146993 30 3 -0.02280527
8.7094069 -4.0520134 1.1794516 34 11 -0.022802966
2.6689403 -1.2422795 -0.3614645 20 4 -0.022800662
7.3384366 -3.4172924 1.282137 42 12 -0.022798358
2.5085506 -1.1686904 -0.24211864 15 5 -0.022796053
6.3104701 -2.939939 1.3532175 31 13 -0.022793749
2.6049912 -1.2141738 -0.15062289 1 6 -0.022791445
5.5351405 -2.5810785 1.4099932 7 14 -0.022789141
4.9278464 -2.2999871 1.4571513 33 15 -0.022784533
2.0085034 -0.94042432 -0.59424853 62 0 -0.022763798
2.0116146 -0.94273722 -0.51288843 71 1 -0.02275919
13.710982 -6.4285307 0.79362249 19 9 -0.022756886
2.6592464 -1.2468141 -0.57090056 23 2 -0.022754582
10.620792 -4.9819255 1.0263461 24 10 -0.022752278
2.5518386 -1.1975417 -0.446464 15 3 -0.022749973
8.7005997 -4.0849214 1.1801828 33 11 -0.022747669
2.6304493 -1.2355531 -0.35683349 33 4 -0.022745365
7.3193126 -3.439527 1.2808856 43 12 -0.022743061
2.3856494 -1.121076 -0.2306141 9 5 -0.022740757
6.3090525 -2.966125 1.3551255 32 13 -0.022738453
2.168787 -1.0200913 -0.12560631 8 6 -0.022736149
5.529624 -2.6020432 1.410893 5 14 -0.022733845
2.1620297 -1.0178349 -0.041711252 8 7 -0.022731541
4.9250312 -2.3196437 1.4587041 31 15 -0.022729237
1.9964752 -0.94330323 -0.59166032 66 0 -0.022708502
2.6557901 -1.2553862 0.051275171 22 8 -0.022706198
2.0047882 -0.9480871 -0.51198858 71 1 -0.022703893
13.699292 -6.4814773 0.79425055 22 9 -0.022701589
2.3176944 -1.0965592 -0.49839315 2 2 -0.022699285
10.596134 -5.0155592 1.0256487 24 10 -0.022696981
2.303055 -1.0906168 -0.40360096 20 3 -0.022694677
8.697052 -4.1203671 1.1816452 30 11 -0.022692373
2.2817111 -1.0814847 -0.31003565 38 4 -0.022690069
7.3054771 -3.4642088 1.2805728 45 12 -0.022687765
2.2196994 -1.0525668 -0.21492605 47 5 -0.022685461
6.307529 -2.9923372 1.3570337 34 13 -0.022683157
2.1381478 -1.01481 -0.12403623 18 6 -0.022680854
5.5152259 -2.6188219 1.4095433 7 14 -0.02267855
2.1151137 -1.0047822 -0.040873535 13 7 -0.022676246
4.9727383 -2.3633573 1.4752686 1 15 -0.022673942
1.9861952 -0.94694096 -0.58958983 66 0 -0.022653205
2.6387575 -1.2586228 0.051030833 3 8 -0.022650901
1.9997077 -0.95424014 -0.51153868 69 1 -0.022648597
13.705422 -6.5430241 0.79592532 22 9 -0.022646293
2.2571578 -1.0775763 -0.48618135 50 2 -0.022643989
10.628901 -5.0765591 1.0305295 2 10 -0.022641685
2.268934 -1.0841709 -0.39828217 54 3 -0.022639381
8.6844082 -4.1515565 1.1818891 19 11 -0.022637077
2.2743404 -1.0877297 -0.30954817 52 4 -0.022634774
7.2933407 -3.4896889 1.2805728 45 12 -0.02263247
2.1405275 -1.0241911 -0.20760499 40 5 -0.022630166
6.2864208 -3.0092504 1.354744 33 13 -0.022627862
2.1129766 -1.0119153 -0.12278017 22 6 -0.022625558
5.5007787 -2.6355314 1.4081936 15 14 -0.022623254
2.106184 -1.0095663 -0.040768825 20 7 -0.02262095
4.9818778 -2.3890543 1.480445 7 15 -0.022618646
1.9898412 -0.95721811 -0.59166032 69 0 -0.022597909
1.9875857 -0.95698756 -0.50928921 71 1 -0.022593301
13.686098 -6.5925589 0.79613465 22 9 -0.022590997
2.2675326 -1.0922648 -0.4892343 68 2 -0.022588693
10.664962 -5.1395788 1.0357589 2 10 -0.02258639
2.2633564 -1.0912266 -0.39796934 55 3 -0.022584086
8.6680746 -4.1809826 1.1816452 13 11 -0.022581782
2.2705297 -1.0956621 -0.30954817 49 4 -0.022579478
7.2953463 -3.5219967 1.2830757 45 12 -0.022577174
2.1100256 -1.0186635 -0.2049903 54 5 -0.02257487
6.2688069 -3.0277605 1.3532175 34 13 -0.022572566
2.0860531 -1.0079883 -0.12141944 25 6 -0.022570262
5.4985638 -2.6581094 1.4099932 18 14 -0.022567958
2.0900455 -1.0108175 -0.040524486 26 7 -0.022565654
4.9665523 -2.4030643 1.4783745 1 15 -0.022563349
1.9812739 -0.9616276 -0.5901075 62 0 -0.022542613
2.6514926 -1.2874956 0.051449694 1 8 -0.02254031
1.9789743 -0.96136522 -0.50793946 77 1 -0.022538006
13.664799 -6.6411657 0.79623932 24 9 -0.022535702
2.2548773 -1.0958824 -0.4873262 62 2 -0.022533398
10.578868 -5.1436691 1.029135 22 10 -0.022531094
2.2470992 -1.0930719 -0.39577925 51 3 -0.02252879
8.6516418 -4.2103457 1.1814015 27 11 -0.022526486
2.2488434 -1.0948913 -0.30711079 42 4 -0.022524182
7.2830081 -3.547441 1.2830757 45 12 -0.022521878
2.1154132 -1.0303851 -0.20586187 50 5 -0.022519574
6.2652593 -3.0530641 1.354744 32 13 -0.022517269
2.0609784 -1.0047611 -0.12016336 35 6 -0.022514965
5.4822454 -2.6738698 1.4081936 22 14 -0.022512661
2.0847073 -1.0172302 -0.040489584 42 7 -0.022510357
4.9077883 -2.3958089 1.4633629 3 15 -0.022508053
1.977905 -0.96853775 -0.5901075 64 0 -0.022487318
2.6523697 -1.2993824 0.051554412 20 8 -0.022485014
1.9791062 -0.96998245 -0.50883931 77 1 -0.02248271
13.641534 -6.6888242 0.79623932 22 9 -0.022480406
2.2316477 -1.0942391 -0.4831284 54 2 -0.022478102
10.568004 -5.1840749 1.0298322 22 10 -0.022475798
2.2361763 -1.097428 -0.39452776 41 3 -0.022473494
8.644021 -4.24402 1.1823765 30 11 -0.022471189
2.2378807 -1.0992339 -0.3061358 36 4 -0.022468885
7.2652612 -3.5702276 1.282137 43 12 -0.022466581
2.188694 -1.0755478 -0.21335725 36 5 -0.022464277
6.261611 -3.0783801 1.3562704 37 13 -0.022461973
2.0484977 -1.0075417 -0.11964 74 6 -0.022459669
5.4781241 -2.6955712 1.4095433 24 14 -0.022457365
2.0578208 -1.0130194 -0.040035821 47 7 -0.022455061
4.8855314 -2.4060981 1.4592218 35 15 -0.022452757
1.9623879 -0.96944636 -0.58648396 69 0 -0.022432022
2.6370616 -1.303317 0.05134498 3 8 -0.022429718
1.9757082 -0.97688496 -0.50883931 80 1 -0.022427414
13.659277 -6.7567687 0.79864681 13 9 -0.02242511
2.2172565 -1.0967995 -0.48083872 39 2 -0.022422805
10.555201 -5.2235837 1.0303552 24 10 -0.022420501
2.1809938 -1.0798094 -0.3854546 11 3 -0.022418197
8.6416054 -4.2803345 1.1840826 28 11 -0.022415893
2.0703909 -1.02595 -0.28371185 8 4 -0.022413589
7.2492156 -3.593812 1.2815113 43 12 -0.022411285
2.0528312 -1.0176948 -0.20045821 13 5 -0.022408981
6.2508273 -3.1002183 1.3562704 37 13 -0.022406677
2.043179 -1.0137985 -0.11953534 39 6 -0.022404373
5.470427 -2.7155435 1.4099932 30 14 -0.02240207
2.0309889 -1.0086336 -0.039582059 50 7 -0.022399766
4.8701816 -2.4196985 1.4571513 33 15 -0.022397462
1.9624501 -0.97801387 -0.58751929 71 0 -0.022376725
1.9775178 -0.98638499 -0.510189 74 1 -0.022372117
13.635609 -6.8044071 0.79864681 22 9 -0.022369813
2.0851767 -1.0405397 -0.45298058 12 2 -0.022367509
10.540467 -5.2621751 1.0307038 24 10 -0.022365205
2.0340667 -1.0159218 -0.36011216 37 3 -0.022362901
8.6266117 -4.3104734 1.1840826 30 11 -0.022360597
2.036612 -1.0180815 -0.27956831 45 4 -0.022358293
7.2454605 -3.6235123 1.2830757 41 12 -0.022355989
2.0296643 -1.0150512 -0.19854078 47 5 -0.022353686
6.2399673 -3.1220191 1.3562704 38 13 -0.022351382
2.0217676 -1.0119845 -0.11848862 48 6 -0.022349078
5.4713693 -2.7398574 1.4126925 33 14 -0.022346774
2.0292439 -1.0166125 -0.039616965 56 7 -0.02234447
4.8634329 -2.4375496 1.457669 35 15 -0.022342166
1.9572982 -0.98399043 -0.58700162 62 0 -0.022321429
15.342212 -7.7163281 0.29976252 3 8 -0.022319125
1.9670994 -0.9897781 -0.50838935 74 1 -0.022316821
13.629614 -6.8609433 0.79969347 22 9 -0.022314517
2.0026197 -1.0080887 -0.43580776 36 2 -0.022312213
10.536271 -5.3061061 1.0320983 24 10 -0.022309909
2.0199232 -1.017683 -0.35823497 57 3 -0.022307606
8.6115131 -4.34056 1.1840826 27 11 -0.022305302
2.0312731 -1.0242906 -0.27932456 52 4 -0.022302998
7.2398214 -3.6523399 1.284327 41 12 -0.022300694
2.0136569 -1.0158482 -0.19732061 54 5 -0.02229839
6.2220211 -3.1402433 1.354744 6 13 -0.022296086
2.0093083 -1.0145345 -0.11796526 55 6 -0.022293782
5.4791665 -2.7677259 1.4171916 20 14 -0.022291478
2.0274675 -1.0245917 -0.039651867 66 7 -0.022289174
4.8566189 -2.4553828 1.4581866 35 15 -0.02228687
1.9555746 -0.9916904 -0.58751929 66 0 -0.022266133
1.9549438 -0.99222863 -0.50613987 80 1 -0.022261526
13.618047 -6.9148078 0.80042619 22 9 -0.022259222
1.9903359 -1.0106288 -0.4338997 48 2 -0.022256918
10.533671 -5.3509736 1.0336671 22 10 -0.022254614
1.9952264 -1.0139881 -0.35448053 53 3 -0.02225231
8.5963087 -4.3705931 1.1840826 30 11 -0.022250006
2.0082226 -1.0214751 -0.27664346 54 4 -0.022247702
7.2305503 -3.6793818 1.2849529 41 12 -0.022245398
2.00122 -1.018353 -0.19644904 74 5 -0.022243094
6.221519 -3.1672871 1.3570337 19 13 -0.02224079
2.0039749 -1.0206357 -0.11786059 100 6 -0.022238486
5.4885716 -2.796567 1.4221406 22 14 -0.022236181
2.02566 -1.0325707 -0.039686773 60 7 -0.022233877
4.8531818 -2.4749534 1.4597394 37 15 -0.022231573
1.9572606 -1.0011499 -0.58907217 73 0 -0.022210838
14.853612 -7.6009765 0.29124579 3 8 -0.022208534
1.9514683 -0.99904656 -0.50613987 83 1 -0.02220623
13.600375 -6.9626589 0.80074024 22 9 -0.022203926
1.9815538 -1.0148853 -0.43275481 54 2 -0.022201622
10.529114 -5.3949785 1.0350616 22 10 -0.022199318
2.000464 -1.025452 -0.35604486 55 3 -0.022197014
8.5880661 -4.4041967 1.1850576 28 11 -0.02219471
2.001112 -1.0266664 -0.27615595 61 4 -0.022192406
7.2095213 -3.6988301 1.2833885 38 12 -0.022190101
2.0082884 -1.0307912 -0.19749491 64 5 -0.022187797
6.2139182 -3.1907785 1.3577969 22 13 -0.022185493
2.0181656 -1.0367509 -0.1189073 66 6 -0.022183189
5.4493113 -2.8005655 1.4144921 5 14 -0.022180885
2.0186679 -1.0374544 -0.039616965 58 7 -0.022178581
4.8535376 -2.4954503 1.4623276 16 15 -0.022176277
1.9468868 -1.0044328 -0.58700162 73 0 -0.022155542
14.181449 -7.3164568 0.2785404 23 8 -0.022153238
1.9585348 -1.0108752 -0.50883931 80 1 -0.022150934
13.59196 -7.0183382 0.80168223 19 9 -0.02214863
1.9745106 -1.0199939 -0.43199161 51 2 -0.022146326
10.506678 -5.4298697 1.0347129 18 10 -0.022144021
1.9988074 -1.0329872 -0.35635775 51 3 -0.022141717
8.5751772 -4.4335632 1.1853014 9 11 -0.022139413
2.0047495 -1.0369449 -0.27713093 54 4 -0.022137109
2.0064476 -1.0387111 -0.19766922 54 5 -0.022132501
2.01649 -1.0443562 -0.11901198 54 6 -0.022127893
2.9656966 -1.5366144 0.77113223 1 14 -0.022125589
2.0114834 -1.0426539 -0.039547153 57 7 -0.022123285
2.9789073 -1.5447785 0.89913744 12 15 -0.022120982
1.9349759 -1.0064263 -0.58441341 69 0 -0.022100246
13.999719 -7.284687 0.27546877 8 8 -0.022097941
1.9584513 -1.0195053 -0.5097391 63 1 -0.022095637
1.9780824 -1.0301634 -0.43351805 51 2 -0.022091029
1.9846793 -1.0344797 -0.35448053 49 3 -0.022086421
2.9746673 -1.5511541 0.4119184 1 11 -0.022084117
2.0046375 -1.0457727 -0.27761838 54 4 -0.022081813
2.9262962 -1.5272304 0.52280408 11 12 -0.022079509
1.987095 -1.0370624 -0.19610041 53 5 -0.022077205
2.9341781 -1.5319955 0.643408 21 13 -0.022074902
2.0163727 -1.0532382 -0.11922132 54 6 -0.022072598
2.9309533 -1.5316141 0.76348388 23 14 -0.022070294
2.0096037 -1.0505954 -0.039582059 70 7 -0.02206799
2.9272766 -1.5309937 0.88516116 27 15 -0.022065686
1.9382938 -1.0167642 -0.58648396 58 0 -0.022044949
1.9462537 -1.021806 -0.50748956 56 1 -0.022040341
2.9281368 -1.537958 0.17333671 1 9 -0.022038037
1.9779506 -1.0388876 -0.43428129 51 2 -0.022035733
2.9030921 -1.5254505 0.2869167 12 10 -0.022033429
1.9775592 -1.0395629 -0.35385481 50 3 -0.022031125
2.9165261 -1.5338088 0.40460625 28 11 -0.022028822
2.0044885 -1.0546124 -0.27810585 56 4 -0.022026518
2.9017189 -1.5273149 0.51936251 35 12 -0.022024214
1.9905152 -1.0477043 -0.19679767 55 5 -0.02202191
2.8940699 -1.5239339 0.63577563 25 13 -0.022019606
1.9914794 -1.0490997 -0.11796526 72 6 -0.022017302
2.9031777 -1.5300244 0.75763518 27 14 -0.022014998
2.0165377 -1.0631996 -0.039791487 82 7 -0.022012694
2.8928661 -1.5258807 0.87636131 28 15 -0.02201039
1.9586396 -1.0361711 -0.59373093 53 0 -0.021989653
2.9038801 -1.5368764 0.057348609 30 8 -0.021987349
1.9598974 -1.0377122 -0.51198858 61 1 -0.021985045
2.892746 -1.5322767 0.17155728 39 9 -0.021982741
1.9777819 -1.0476236 -0.43504456 54 2 -0.021980438
2.8854265 -1.5290444 0.28569651 32 10 -0.021978134
1.9791541 -1.0492353 -0.3547934 69 3 -0.02197583
2.8690655 -1.5216573 0.3987565 33 11 -0.021973526
1.993781 -1.0578812 -0.27713093 72 4 -0.021971222
2.8684533 -1.5226158 0.51435655 33 12 -0.021968918
1.9938854 -1.0583827 -0.19749491 74 5 -0.021966614
2.854054 -1.5156109 0.62814325 30 13 -0.02196431
1.9913328 -1.0579189 -0.11817461 65 6 -0.021962006
2.8530784 -1.5163699 0.74593771 29 14 -0.021959702
2.0163453 -1.0721098 -0.039861299 82 7 -0.021957397
2.8636446 -1.523268 0.8691144 33 15 -0.021955093
1.9618286 -1.0466391 -0.59580147 56 0 -0.021934358
2.8685071 -1.5309968 0.056755226 36 8 -0.021932054
1.9614203 -1.0473008 -0.51333827 66 1 -0.02192975
2.8521466 -1.5235441 0.16946384 39 9 -0.021927446
1.9689181 -1.0517459 -0.4338997 64 2 -0.021925142
2.8519561 -1.5240822 0.28290752 28 10 -0.021922838
1.9841899 -1.0607942 -0.35635775 73 3 -0.021920534
2.8357294 -1.5166835 0.39485672 34 11 -0.02191823
1.9865754 -1.0629613 -0.27664346 70 4 -0.021915926
2.8248067 -1.5121098 0.50747347 37 12 -0.021913622
1.993692 -1.0672169 -0.19784354 77 5 -0.021911317
2.8245161 -1.5125887 0.62280059 30 13 -0.021909013
1.9876279 -1.0648636 -0.11817461 69 6 -0.021906709
2.8065457 -1.504226 0.73514003 27 14 -0.021904405
2.0020168 -1.0734719 -0.039651867 80 7 -0.021902101
2.8225598 -1.5140775 0.858244 34 15 -0.021899797
1.9547608 -1.0516502 -0.5947662 71 0 -0.021879062
2.8332112 -1.5248892 0.056161843 38 8 -0.021876758
1.9663317 -1.0587604 -0.51558781 71 1 -0.021874454
2.8134017 -1.5154942 0.16747507 40 9 -0.02187215
1.9635062 -1.0576813 -0.43351805 69 2 -0.021869846
2.8132942 -1.5160698 0.27959561 33 10 -0.021867542
1.9909077 -1.0733384 -0.35823497 68 3 -0.021865238
2.8024631 -1.5114955 0.39095688 37 11 -0.021862933
1.9828529 -1.0698893 -0.27664346 69 4 -0.021860629
2.7691007 -1.4947497 0.49840027 35 12 -0.021858325
1.9864479 -1.0722768 -0.19749491 73 5 -0.021856021
2.7846699 -1.5037816 0.61516827 26 13 -0.021853717
1.994442 -1.0774912 -0.11880264 68 6 -0.021851413
2.7704194 -1.4973352 0.72704178 27 14 -0.021849109
1.9964983 -1.0795026 -0.039616965 78 7 -0.021846805
2.7713792 -1.4991043 0.84426773 34 15 -0.021844501
1.9476817 -1.0566248 -0.59373093 71 0 -0.021823766
2.7698724 -1.5032921 0.055009987 33 8 -0.021821462
1.9677616 -1.0684075 -0.51693749 77 1 -0.021819158
2.7765036 -1.5081459 0.16559097 40 9 -0.021816853
1.9649777 -1.06734 -0.43466291 65 2 -0.021814549
2.7624693 -1.5011469 0.27506351 34 10 -0.021812245
1.9836779 -1.0783943 -0.35760921 66 3 -0.021809941
2.7727554 -1.5079907 0.38754454 37 11 -0.021807637
1.9878249 -1.081548 -0.27786213 76 4 -0.021805333
2.7361057 -1.4892962 0.49339435 35 12 -0.021803029
1.9791927 -1.0772991 -0.19714628 69 5 -0.021800725
2.7414713 -1.4928371 0.6067726 25 13 -0.021798421
1.9941765 -1.0863575 -0.11901198 69 6 -0.021796118
2.74122 -1.4939411 0.72074318 27 14 -0.021793814
1.9944737 -1.0874223 -0.039651867 73 7 -0.02179151
2.733906 -1.4911931 0.83443266 31 15 -0.021789206
1.9507608 -1.0671256 -0.59580147 71 0 -0.021768469
2.7347865 -1.4966314 0.054416601 36 8 -0.021766165
1.9588922 -1.0724621 -0.51558781 74 1 -0.021763861
2.7379396 -1.4995992 0.16360222 43 9 -0.021761557
1.9646838 -1.0760787 -0.43542615 67 2 -0.021759253
2.7292554 -1.4954622 0.27227452 30 10 -0.021756949
1.9712404 -1.0805645 -0.35604486 77 3 -0.021754645
2.7274423 -1.4957066 0.38193855 36 11 -0.021752341
1.9892583 -1.0913445 -0.27859333 72 4 -0.021750037
2.7066467 -1.4855319 0.48901421 33 12 -0.021747734
1.9789135 -1.0861186 -0.19749491 71 5 -0.02174543
2.708709 -1.4872791 0.60066676 27 13 -0.021743126
1.9833699 -1.0894654 -0.11859328 66 6 -0.021740822
2.7035391 -1.4856687 0.71219504 27 14 -0.021738518
1.9994273 -1.0991944 -0.039826389 78 7 -0.021736214
2.7083712 -1.4895554 0.82822096 32 15 -0.02173391
1.9504071 -1.0757945 -0.59683669 66 0 -0.021713173
2.7032833 -1.4916769 0.05389303 42 8 -0.021710869
1.9517248 -1.0774099 -0.51468801 74 1 -0.021708565
2.6994693 -1.4908018 0.16161345 46 9 -0.021706261
1.9712272 -1.0886248 -0.43771586 65 2 -0.021703959
2.6978598 -1.4905276 0.26965985 31 10 -0.021701653
1.9726431 -1.0903056 -0.35698348 70 3 -0.02169935
2.6874604 -1.4860067 0.37706378 39 11 -0.021697046
1.9750146 -1.0925164 -0.27713093 72 4 -0.021694742
2.6789761 -1.4825366 0.48494691 38 12 -0.021692438
1.9855698 -1.0988078 -0.19854078 71 5 -0.021690134
2.6725843 -1.4796088 0.59379762 31 13 -0.02168783
1.9760605 -1.0944468 -0.11838394 68 6 -0.021685526
2.6625407 -1.4752629 0.70274711 29 14 -0.021683222
2.0008254 -1.1090755 -0.039931107 86 7 -0.021680918
2.6744342 -1.4830734 0.81942111 36 15 -0.021678613
1.9567701 -1.0882297 -0.59994256 66 0 -0.021658897
2.6770904 -1.4894376 0.053474173 42 8 -0.021656593
1.9513575 -1.0861114 -0.51558781 74 1 -0.021654289
2.6558595 -1.4788396 0.15931067 46 9 -0.021651985
1.9588389 -1.0907236 -0.43580776 70 2 -0.021649681
2.6717539 -1.4883008 0.26756814 33 10 -0.021647377
1.9791785 -1.1029544 -0.3588607 68 3 -0.021645073
2.6597171 -1.4828124 0.37389517 40 11 -0.021642769
1.9746562 -1.1013378 -0.27761838 72 4 -0.021640465
2.6410093 -1.4735914 0.47900239 41 12 -0.021638161
1.9852018 -1.1076736 -0.1988894 71 5 -0.021635856
2.6434033 -1.4755323 0.58845496 33 13 -0.021633554
1.9757158 -1.1032853 -0.11859328 68 6 -0.02163125
2.6267521 -1.4674405 0.69464886 31 14 -0.021628946
1.9934506 -1.1141018 -0.039861299 82 7 -0.021626642
2.6388896 -1.4754301 0.81010365 37 15 -0.021624338
1.9428492 -1.0893846 -0.59683669 71 0 -0.021603601
2.6492023 -1.486055 0.05302041 45 8 -0.021601297
1.9509531 -1.0948238 -0.5164876 74 1 -0.021598993
2.6350074 -1.4793018 0.15836863 49 9 -0.021596689
1.9533077 -1.0965934 -0.43542615 67 2 -0.021594385
2.6352737 -1.4800564 0.26443052 39 10 -0.021592081
1.9787607 -1.1117915 -0.35948643 69 3 -0.021589777
2.6320288 -1.4794428 0.37072656 43 11 -0.021587474
1.9725304 -1.1091969 -0.27786213 76 4 -0.02158517
2.6065814 -1.4663365 0.47368363 47 12 -0.021582866
1.9709047 -1.1087354 -0.19784354 77 5 -0.021580562
2.6074402 -1.4674187 0.58158582 33 13 -0.021578258
1.987516 -1.118994 -0.11953534 80 6 -0.021575954
2.5978427 -1.4632118 0.68835026 30 14 -0.02157365
1.9825805 -1.1171267 -0.039721675 82 7 -0.021571346
2.6000657 -1.4656596 0.79975086 36 15 -0.021569042
1.9356714 -1.0942583 -0.59580147 69 0 -0.021548305
2.5952616 -1.4677305 0.052043077 40 8 -0.021546001
1.9488156 -1.1025869 -0.51693749 69 1 -0.021543697
2.5987971 -1.4703288 0.15648453 41 9 -0.021541394
1.9580108 -1.1082405 -0.43733424 69 2 -0.02153909
2.5954163 -1.4696121 0.26094431 35 10 -0.021536786
1.9645551 -1.1128501 -0.35760921 70 3 -0.021534482
2.6009429 -1.4739405 0.3670705 46 11 -0.021532178
1.9738269 -1.1190125 -0.27859333 69 4 -0.021529874
2.5707726 -1.4574362 0.46805197 39 12 -0.02152757
1.9670224 -1.1156086 -0.19784354 69 5 -0.021525266
2.5715661 -1.4590725 0.57471669 34 13 -0.021522962
1.9905457 -1.1298684 -0.11995402 69 6 -0.021520657
2.5757732 -1.4626484 0.68385124 29 14 -0.021518353
1.9927764 -1.1315947 -0.040000916 82 7 -0.021516049
2.5632761 -1.4561434 0.78991574 32 15 -0.021513745
1.9385536 -1.1048348 -0.59787202 66 0 -0.02149301
2.5556335 -1.4565256 0.05134498 37 8 -0.021490706
1.9434557 -1.108078 -0.5164876 74 1 -0.021488402
2.5676255 -1.4645476 0.15491444 42 9 -0.021486098
1.9541305 -1.1150683 -0.43733424 70 2 -0.021483794
2.5556645 -1.458908 0.25745806 35 10 -0.02148149
1.9574229 -1.1174001 -0.35698348 70 3 -0.021479186
2.5426028 -1.4520401 0.35951459 36 11 -0.021476882
1.9701053 -1.1255518 -0.27859333 69 4 -0.021474577
2.5416596 -1.452678 0.46367183 34 12 -0.021472273
1.9665754 -1.1244459 -0.19819216 73 5 -0.021469969
2.5309227 -1.4471277 0.56670272 39 13 -0.021467665
1.9746522 -1.1295214 -0.11922132 71 6 -0.021465361
2.5489209 -1.4585994 0.67800248 32 14 -0.021463057
1.9905498 -1.1395373 -0.040035821 76 7 -0.021460753
2.534708 -1.451641 0.78266883 33 15 -0.021458449
1.9382296 -1.1131814 -0.59890729 71 0 -0.021437714
2.5262594 -1.4514903 0.050856311 37 8 -0.02143541
1.9395759 -1.1148553 -0.5164876 74 1 -0.021433106
2.5261383 -1.4525939 0.15271634 45 9 -0.021430802
1.9572297 -1.125457 -0.43886071 72 2 -0.021428498
2.5335424 -1.4574399 0.25571495 37 10 -0.021426193
1.9637833 -1.1301378 -0.3588607 70 3 -0.021423889
2.5134339 -1.4470402 0.35610226 35 11 -0.021421585
1.9627241 -1.1304404 -0.27810585 72 4 -0.021419281
2.5040529 -1.4428035 0.45772728 32 12 -0.021416977
1.9731935 -1.136929 -0.19923802 79 5 -0.021414673
2.5071459 -1.4451685 0.56250495 40 13 -0.021412369
1.9706975 -1.1364073 -0.11922132 68 6 -0.021410065
2.4965501 -1.440222 0.66540521 36 14 -0.021407761
1.9900239 -1.1484778 -0.04010563 78 7 -0.021405457
2.5078759 -1.4479228 0.77593952 32 15 -0.021403152
1.9376756 -1.1218762 -0.59994256 66 0 -0.021382418
2.5004125 -1.4482727 0.050437454 40 8 -0.021380113
1.9373589 -1.1225958 -0.51693749 69 1 -0.021377809
2.5003171 -1.449383 0.15146028 49 9 -0.021375505
1.9464953 -1.1283438 -0.43733424 69 2 -0.021373201
2.4939685 -1.4462844 0.25222871 35 10 -0.021370897
1.9700781 -1.1429332 -0.36073789 73 3 -0.021368593
2.486048 -1.4428513 0.35293365 36 11 -0.021366289
1.9621996 -1.1392782 -0.27859333 69 4 -0.021363985
2.4716709 -1.4356607 0.45272139 45 12 -0.021361681
1.9726586 -1.1458113 -0.19958666 75 5 -0.021359377
2.4732289 -1.4371431 0.5560174 39 13 -0.021357073
1.9684455 -1.1442833 -0.119326 77 6 -0.02135477
2.4696078 -1.436192 0.65955651 37 14 -0.021352466
1.9773606 -1.1503893 -0.039931107 78 7 -0.021350162
2.4727528 -1.4391764 0.76662207 33 15 -0.021347858
1.930411 -1.1266855 -0.59890729 66 0 -0.021327121
2.483254 -1.4499336 0.050193124 42 8 -0.021324817
1.9384766 -1.1323005 -0.51828724 74 1 -0.021322513
2.4693761 -1.4429868 0.14989018 52 9 -0.021320209
1.9425447 -1.1351315 -0.43733424 69 2 -0.021317905
2.454504 -1.4348711 0.24874248 35 10 -0.021315601
1.9626663 -1.1478087 -0.36011216 70 3 -0.021313297
2.4655757 -1.4424986 0.35073999 39 11 -0.021310993
1.9616374 -1.1481262 -0.27908084 72 4 -0.02130869
2.4410748 -1.4293079 0.44802836 47 12 -0.021306386
1.9617697 -1.1486633 -0.1988894 73 5 -0.021304082
2.4444809 -1.4318752 0.5506748 39 13 -0.021301778
1.9696088 -1.1541768 -0.11964 71 6 -0.021299474
2.4326375 -1.4260787 0.65100831 35 14 -0.02129717
1.9785078 -1.1603193 -0.040035821 90 7 -0.021294866
2.4343891 -1.4282477 0.75626928 36 15 -0.021292562
1.9297962 -1.1353763 -0.59994256 69 0 -0.021271825
2.4368172 -1.4342494 0.049355406 47 8 -0.021269521
1.9345123 -1.13906 -0.51828724 74 1 -0.021267217
2.4402316 -1.4374063 0.14842479 55 9 -0.021264913
1.9385704 -1.1419053 -0.43733424 74 2 -0.021262608
2.4305985 -1.4323034 0.24682505 38 10 -0.021260306
1.9552443 -1.1526464 -0.35948643 66 3 -0.021258002
2.438297 -1.4379869 0.3475714 41 11 -0.021255698
1.967876 -1.1610186 -0.28054324 69 4 -0.021253394
2.4156568 -1.4257715 0.44427395 47 12 -0.02125109
1.9577481 -1.1555041 -0.1988894 75 5 -0.021248786
2.4022758 -1.4184391 0.54227924 39 13 -0.021246482
1.9793253 -1.1691713 -0.12047738 72 6 -0.021244178
2.4108675 -1.4246473 0.64650929 36 14 -0.021241874
1.9658383 -1.1621305 -0.039861299 82 7 -0.021239569
2.4027834 -1.421002 0.74798709 36 15 -0.021237265
1.9324679 -1.1460475 -0.60201317 66 0 -0.021216528
2.39568 -1.4213196 0.048622403 47 8 -0.021214226
1.9305243 -1.1458058 -0.51828724 71 1 -0.021211922
2.4145908 -1.4336792 0.14716873 52 9 -0.021209618
1.9480776 -1.1566838 -0.44038719 72 2 -0.021207314
2.3998892 -1.4255165 0.24421038 40 10 -0.02120501
1.9478128 -1.1574463 -0.3588607 70 3 -0.021202706
2.3888972 -1.4201158 0.34123421 41 11 -0.021200402
1.9672234 -1.1699102 -0.28103071 69 4 -0.021198098
2.3885958 -1.4210652 0.44020665 48 12 -0.021195794
1.9571271 -1.1643684 -0.19923802 69 5 -0.021193489
2.380439 -1.416775 0.538463 36 13 -0.021191185
1.9649355 -1.1699426 -0.11984935 69 6 -0.021188881
2.3891375 -1.4230815 0.64201027 36 14 -0.021186577
1.9789481 -1.1792217 -0.040210344 82 7 -0.021184273
2.3712585 -1.4135538 0.73970485 34 15 -0.021181969
1.9234812 -1.1498123 -0.60046023 64 0 -0.021161234
2.3683932 -1.4163315 0.048168644 41 8 -0.02115893
1.9265131 -1.1525375 -0.51828724 74 1 -0.021156626
2.3787236 -1.4236369 0.14528462 52 9 -0.021154322
1.9406589 -1.1614605 -0.43962395 72 2 -0.021152018
2.3726761 -1.4205799 0.24194433 40 10 -0.021149714
1.9471498 -1.1662683 -0.35948643 69 3 -0.021147409
2.3532753 -1.4100803 0.33684689 38 11 -0.021145105
1.9495069 -1.168605 -0.27908084 69 4 -0.021142801
2.3514323 -1.4100918 0.4342621 46 12 -0.021140497
1.9564683 -1.1732422 -0.19958666 75 5 -0.021138193
2.3586435 -1.4149759 0.53464681 39 13 -0.021135889
1.9574144 -1.1747388 -0.11964 71 6 -0.021133585
2.3507404 -1.411351 0.63301229 35 14 -0.021131281
1.9748198 -1.1861224 -0.040210344 86 7 -0.021128977
2.3497505 -1.4118726 0.73452848 36 15 -0.021126673
