# .PCD v0.7 - Point Cloud Data file format
VERSION 0.7
FIELDS x y z intensity ring time
SIZE 4 4 4 4 2 4
TYPE F F F F U F
COUNT 1 1 1 1 1 1
WIDTH 944
HEIGHT 1
VIEWPOINT 0 0 0 1 0 0 0
POINTS 944
DATA ascii
1.1283287 6.0820112 1.6574773 100 15 -0.073453695
0.65939397 3.5302584 -0.96228927 111 0 -0.07343296
1.1936507 6.3843846 0.11337084 22 8 -0.073430657
0.6635353 3.5455637 -0.8327688 123 1 -0.073428348
1.2017769 6.4154515 0.34206784 6 9 -0.073426045
0.58812755 3.1396043 -0.62089252 57 2 -0.073423743
1.2124479 6.4661813 0.57557648 2 10 -0.073421441
0.58083826 3.0947146 -0.49871314 53 3 -0.073419131
1.2139212 6.461587 0.8072626 1 11 -0.073416829
0.58734697 3.1233878 -0.39022568 27 4 -0.073414527
1.2105927 6.4314809 1.0365349 1 12 -0.073412225
0.59410876 3.1563044 -0.28099012 41 5 -0.073409915
0.61183935 3.2442799 -0.17302269 46 6 -0.073405311
1.1495535 6.0780354 1.6574773 100 15 -0.073398396
0.69158697 3.6323116 -0.99075931 21 0 -0.073377661
1.2166796 6.3841076 0.11344065 22 8 -0.073375359
0.67627037 3.5451407 -0.83321869 116 1 -0.073373057
1.2215432 6.3974843 0.34133515 2 9 -0.073370747
0.60166156 3.151031 -0.62356383 50 2 -0.073368445
1.2350134 6.4619093 0.57557648 2 10 -0.073366143
0.59571791 3.1140106 -0.50215465 46 3 -0.073363841
1.2245241 6.3949199 0.79946297 1 11 -0.073361531
0.59226817 3.0901248 -0.38632584 58 4 -0.073359229
1.233031 6.427217 1.0365349 1 12 -0.073356926
0.61112672 3.185519 -0.28377908 46 5 -0.073354624
1.7197324 8.9556942 1.7726158 1 13 -0.073352315
0.62655401 3.2597766 -0.17396474 49 6 -0.073350012
1.2342269 6.4092503 -0.11392931 45 7 -0.073345408
1.1714958 6.0777793 1.6585126 100 15 -0.073343098
0.73774302 3.8024564 -1.0378644 9 0 -0.073322363
1.2416241 6.3935633 0.11368498 30 8 -0.073320061
1.2434845 6.3912215 0.34123048 4 9 -0.073315457
0.60178304 3.0930252 -0.61249691 20 2 -0.073313147
1.2575608 6.4575591 0.57557648 2 10 -0.073310845
0.61112028 3.1351786 -0.50590914 45 3 -0.073308542
1.2590051 6.4529538 0.8072626 1 11 -0.07330624
0.60799664 3.1133664 -0.38949445 47 4 -0.07330393
1.2554604 6.4228735 1.0365349 1 12 -0.073301628
0.62853879 3.2125871 -0.28639376 56 5 -0.073299326
1.7408075 8.8976145 1.7623119 3 13 -0.073297024
0.64176661 3.2771699 -0.17501146 52 6 -0.073294714
1.2565937 6.4049029 -0.11392931 55 7 -0.07329011
1.1927028 6.0736532 1.6585126 100 15 -0.073287807
0.75055277 3.7940409 -1.0363115 8 0 -0.073267072
1.2616074 6.3774195 0.11347555 22 8 -0.073264763
1.2650084 6.3829236 0.34102112 6 9 -0.073260158
0.60662216 3.0580611 -0.60600942 24 2 -0.073257856
1.2750111 6.4216394 0.57278752 2 10 -0.073255546
0.62607181 3.1503553 -0.50872493 55 3 -0.073253244
2.2093801 11.117467 1.391748 1 11 -0.073250942
0.63047957 3.1696334 -0.3968066 11 4 -0.07324864
1.2716999 6.387454 1.0315289 1 12 -0.07324633
0.64091486 3.2162356 -0.2869167 52 5 -0.073244028
1.7753254 8.9008017 1.76422 12 13 -0.073241726
0.6588577 3.3002574 -0.17637219 58 6 -0.073239423
1.2754123 6.3828301 -0.11361516 73 7 -0.073234811
1.2131404 6.0656638 1.6574773 100 15 -0.073232509
0.76379108 3.7913978 -1.0363115 8 0 -0.073211774
1.2857624 6.3766732 0.11354536 30 8 -0.073209472
0.60526025 2.9990559 -0.70634627 5 1 -0.073207162
1.2895825 6.3841171 0.34133515 2 9 -0.07320486
0.61496013 3.0443788 -0.60371965 29 2 -0.073202558
1.2934723 6.3976207 0.57104445 2 10 -0.073200256
0.64020008 3.1636395 -0.51122791 51 3 -0.073197946
2.2501159 11.109294 1.391748 1 11 -0.073195644
0.64761364 3.1945388 -0.40021896 1 4 -0.073193341
1.3013893 6.4137249 1.0365349 1 12 -0.073191039
0.65530819 3.2295995 -0.28831118 55 5 -0.073188737
1.8032564 8.879159 1.7611672 37 13 -0.073186427
0.67315799 3.3116384 -0.17710489 55 6 -0.073184125
1.2999967 6.3839908 -0.11371988 77 7 -0.073179521
1.234591 6.0573912 1.6564419 100 15 -0.073177211
0.77779645 3.7924941 -1.0373468 8 0 -0.073156476
1.3052003 6.3584342 0.11330102 32 8 -0.073154174
0.62003857 3.0179224 -0.71129525 1 1 -0.073151872
1.3106511 6.3737082 0.34102112 10 9 -0.073149569
0.62439632 3.0364451 -0.60257488 31 2 -0.07314726
1.3166013 6.3969688 0.57139301 2 10 -0.073144957
0.65482569 3.1787984 -0.51404375 56 3 -0.073142655
2.2888784 11.101372 1.391748 1 11 -0.073140353
1.323768 6.4091434 1.0365349 1 12 -0.073135741
0.67060697 3.2468045 -0.29005429 56 5 -0.073133439
0.68633324 3.3170917 -0.17752358 56 6 -0.073128827
1.3230866 6.3833299 -0.11378969 78 7 -0.073124222
1.2565142 6.0568275 1.6574773 100 15 -0.07312192
0.79616237 3.8143399 -1.0440761 9 0 -0.073101185
1.3269773 6.351882 0.11326612 30 8 -0.073098876
0.91654021 4.383409 -1.033875 5 1 -0.073096573
1.3333023 6.3710485 0.34112579 10 9 -0.073094271
0.63338387 3.0265601 -0.60104835 31 2 -0.073091969
1.3389214 6.3923345 0.57139301 2 10 -0.073089659
0.6719982 3.2054937 -0.51873678 55 3 -0.073087357
1.33461 6.3606853 0.79800051 1 11 -0.073085055
1.3461338 6.4044833 1.0365349 1 12 -0.073080443
0.68603539 3.2639415 -0.2917974 61 5 -0.073078141
0.69873023 3.3185847 -0.17773293 56 6 -0.073073536
1.3453592 6.3786731 -0.11378969 120 7 -0.073068924
1.2764505 6.0467343 1.6559243 100 15 -0.073066622
0.80866855 3.8077581 -1.0430408 8 0 -0.073045887
1.3537134 6.3687272 0.11365007 35 8 -0.073043585
0.93710613 4.4049621 -1.0397238 8 1 -0.073041275
1.355116 6.3644028 0.34102112 6 9 -0.073038973
0.6398555 3.0051289 -0.59723216 31 2 -0.073036671
1.3711915 6.4343891 0.57557648 2 10 -0.073034368
0.68565649 3.2147195 -0.52061397 52 3 -0.073032059
1.3617766 6.3792844 0.80092543 1 11 -0.073029757
1.3635262 6.376564 1.0327804 1 12 -0.073025152
0.70242482 3.2849071 -0.29388916 61 5 -0.073022842
0.71282083 3.3278432 -0.17836095 54 6 -0.073018238
1.3684542 6.3778481 -0.1138595 133 7 -0.073013633
1.3012019 6.0592408 1.660583 100 15 -0.073011324
0.8196618 3.797502 -1.0409703 9 0 -0.072989941
1.3735604 6.3583398 0.11354536 50 8 -0.072987638
0.95417839 4.413259 -1.0424232 8 1 -0.072985336
1.3729923 6.3503537 0.34049776 4 9 -0.072983027
0.64566606 2.9838018 -0.59341598 28 2 -0.072980724
0.70091397 3.2336648 -0.52405554 61 3 -0.07297612
1.3804002 6.3630934 0.79946297 1 11 -0.07297381
1.3852274 6.3799706 1.0340319 1 12 -0.072969206
0.71246576 3.2786665 -0.29354054 60 5 -0.072966903
0.72894925 3.3488796 -0.17961702 55 6 -0.072962292
1.3867834 6.3657017 -0.11371988 129 7 -0.072957687
1.3177607 6.043798 1.6574773 100 15 -0.072955377
0.83622515 3.8097131 -1.0451113 9 0 -0.072934642
1.394208 6.3517966 0.11351045 35 8 -0.07293234
0.97131807 4.4214907 -1.0451226 7 1 -0.072930038
1.3985834 6.3611274 0.34133515 6 9 -0.072927736
0.6569221 2.9853644 -0.59417921 28 2 -0.072925426
1.3961028 6.3392935 0.5679068 2 10 -0.072923124
0.71418339 3.2428975 -0.52593273 57 3 -0.072920822
1.401492 6.3584814 0.79946297 1 11 -0.072918519
1.4057844 6.3673811 1.0327804 1 12 -0.072913907
0.72734594 3.2917228 -0.29493502 62 5 -0.072911605
0.74220783 3.3561945 -0.18014038 58 6 -0.072906993
1.4098589 6.3647275 -0.11378969 124 7 -0.072902389
1.3371786 6.0316167 1.6554067 100 15 -0.072900087
0.84927547 3.8088043 -1.0456289 8 0 -0.072879352
1.4137567 6.3351812 0.11330102 30 8 -0.072877042
0.98589766 4.414269 -1.0442228 7 1 -0.07287474
1.4216524 6.3601046 0.34154451 8 9 -0.072872438
0.66424817 2.971674 -0.59188956 13 2 -0.072870135
1.4205954 6.350184 0.56930131 2 10 -0.072867826
1.4271529 6.3690467 0.80141288 1 11 -0.072863221
1.4288691 6.3662901 1.0334063 1 12 -0.072858609
0.74000394 3.2970686 -0.29563227 62 5 -0.072856307
0.75391626 3.3535838 -0.18014038 59 6 -0.072851703
1.4320692 6.359767 -0.11378969 84 7 -0.072847091
1.3599194 6.034452 1.6574773 100 15 -0.072844788
0.86384577 3.8114691 -1.0471818 8 0 -0.072824053
1.4376332 6.3380084 0.11344065 45 8 -0.072821751
1.0025958 4.4165015 -1.0455725 8 1 -0.072819442
1.438091 6.3297844 0.34018376 8 9 -0.072817139
1.4480557 6.3684993 0.57139301 2 10 -0.072812535
1.4493749 6.3640261 0.80141288 1 11 -0.072807923
1.4484487 6.3497076 1.0315289 1 12 -0.072803319
0.75682646 3.317775 -0.29772401 61 5 -0.072801016
0.76784307 3.360667 -0.18066373 56 6 -0.072796404
1.4551508 6.3586278 -0.1138595 84 7 -0.0727918
1.3818395 6.0334339 1.6585126 106 15 -0.07278949
0.88018119 3.8216085 -1.0508054 9 0 -0.072768755
1.4601959 6.3349004 0.11347555 40 8 -0.072766453
1.0180031 4.4129758 -1.0455725 7 1 -0.072764151
1.4628747 6.3364019 0.34081176 14 9 -0.072761841
1.4586139 6.3129334 0.56686091 2 10 -0.072757237
1.475163 6.3743997 0.80336279 1 11 -0.072752632
1.4706 6.344614 1.0315289 1 12 -0.07274802
0.77110004 3.3267591 -0.29876989 61 5 -0.072745718
0.78408682 3.3774211 -0.18171045 54 6 -0.072741106
1.475528 6.3457184 -0.11371988 84 7 -0.072736502
1.403331 6.0304546 1.6590302 134 15 -0.072734199
0.8913123 3.809108 -1.0482172 8 0 -0.072713457
1.4841255 6.3375521 0.11361516 32 8 -0.072711155
1.0400722 4.4378552 -1.0523211 9 1 -0.072708853
1.48726 6.3409805 0.34133515 12 9 -0.07270655
1.4915704 6.3543558 0.57104445 2 10 -0.072701938
0.67943227 2.8922338 -0.47055492 1 3 -0.072699636
1.4937658 6.3537536 0.80141288 1 11 -0.072697334
1.5090389 6.4086618 1.0427923 1 12 -0.072692722
0.78362215 3.3279257 -0.29911849 61 5 -0.07269042
0.79770458 3.3824396 -0.18212914 56 6 -0.072685815
1.4976714 6.340529 -0.11371988 81 7 -0.072681203
1.4234825 6.0217595 1.6579949 138 15 -0.072678901
0.90281731 3.7984552 -1.0461466 6 0 -0.072658166
1.5039266 6.3226056 0.11344065 30 8 -0.072655864
1.0523969 4.420927 -1.0491717 7 1 -0.072653554
1.5073559 6.3321266 0.34112579 12 9 -0.072651252
1.5072747 6.3219767 0.56860405 2 10 -0.072646648
0.68402177 2.8667872 -0.46680051 1 3 -0.072644338
1.5159372 6.3484998 0.80141288 1 11 -0.072642036
0.79358965 3.3208525 -0.41923055 1 4 -0.072639734
1.5211016 6.3651967 1.0365349 1 12 -0.072637431
0.79801381 3.3367968 -0.30016437 61 5 -0.072635122
0.81322938 3.3951726 -0.18296652 55 6 -0.072630517
1.5200832 6.341363 -0.1138246 68 7 -0.072625905
1.4456958 6.0263996 1.660583 123 15 -0.072623603
0.91833824 3.8046701 -1.0487348 2 0 -0.072602868
1.523476 6.3117523 0.11333593 30 8 -0.072600566
1.5322675 6.3384748 0.34175381 12 9 -0.072595954
1.5321422 6.3282967 0.56964993 2 10 -0.072591349
1.5425925 6.3665891 0.80433774 1 11 -0.072586738
0.80366141 3.3143444 -0.4187431 16 4 -0.072584435
1.5377196 6.3368125 1.0327804 1 12 -0.072582133
0.80965745 3.3339908 -0.30016437 65 5 -0.072579831
0.82448304 3.3924572 -0.18296652 56 6 -0.072575219
1.5422112 6.3360176 -0.1138246 64 7 -0.072570615
1.467639 6.0250692 1.6616182 100 15 -0.072568312
1.5469255 6.312223 0.11344065 30 8 -0.072545268
1.5539093 6.3311477 0.34164914 10 9 -0.072540663
1.5483683 6.3038321 0.5679068 2 10 -0.072536051
0.81338549 3.3090224 -0.53969896 12 3 -0.072533749
1.5610148 6.3457441 0.80238777 1 11 -0.072531447
0.81902117 3.3269396 -0.42069301 56 4 -0.072529137
1.5654991 6.354423 1.0365349 1 12 -0.072526835
0.82606059 3.3504887 -0.30190748 67 5 -0.072524533
0.8387115 3.3992548 -0.18348989 60 6 -0.072519928
1.5671985 6.3422427 -0.11403403 61 7 -0.072515316
1.4881965 6.0180345 1.6611006 43 15 -0.072513014
0.39968413 1.6066282 -0.44361585 7 0 -0.072492279
1.5684687 6.3048439 0.11340573 27 8 -0.072489969
0.39686933 1.594129 -0.37926748 1 1 -0.072487667
1.5730982 6.3140578 0.34102112 12 9 -0.072485365
1.5811079 6.3367772 0.57139301 2 10 -0.072480753
0.83077323 3.3271008 -0.54314053 1 3 -0.072478451
2.7459943 10.997225 1.391748 1 11 -0.072476149
0.83063024 3.3240602 -0.42069301 36 4 -0.072473846
1.5876722 6.3489194 1.0365349 1 12 -0.072471544
0.83871764 3.3514504 -0.30225611 66 5 -0.072469234
0.85407883 3.4077814 -0.18411791 59 6 -0.07246463
1.5864072 6.3250966 -0.1138246 52 7 -0.072460018
1.5082554 6.0090561 1.6600655 22 15 -0.072457716
0.39677703 1.5715079 -0.43429837 50 0 -0.072436981
1.5954843 6.3145633 0.11368498 22 8 -0.072434679
0.40270987 1.5926636 -0.37926748 22 1 -0.072432369
1.5986811 6.3179302 0.34154451 8 9 -0.072430067
0.40502602 1.6006484 -0.32094073 3 2 -0.072427765
1.5973506 6.3080425 0.56930131 2 10 -0.072425462
0.42313156 1.6697497 -0.27282172 1 3 -0.07242316
1.604429 6.3267155 0.80141288 1 11 -0.07242085
1.6109302 6.3430581 1.0365349 1 12 -0.072416246
0.8533532 3.3600888 -0.30330199 26 5 -0.072413944
1.6282585 6.4066014 1.2849078 1 13 -0.072411634
0.8669529 3.4086509 -0.18432724 51 6 -0.072409332
1.6085936 6.3153629 -0.11375479 9 7 -0.072404727
1.5288366 5.9978714 1.6585126 18 15 -0.072402418
0.40561676 1.5832131 -0.43792182 62 0 -0.072381683
1.6170213 6.3070178 0.11365007 12 8 -0.07237938
0.40826648 1.5912483 -0.37926748 46 1 -0.072377078
1.6172498 6.298769 0.34081176 6 9 -0.072374776
0.4047524 1.5764058 -0.31636134 28 2 -0.072372466
1.6183699 6.2985682 0.56895268 2 10 -0.072370164
0.41567522 1.6166078 -0.26437429 37 3 -0.072367862
1.6309574 6.338378 0.80360651 1 11 -0.07236556
0.42323759 1.6436365 -0.20839658 3 4 -0.07236325
1.6330603 6.3373961 1.0365349 1 12 -0.072360948
1.5420263 5.9625731 1.6502303 20 15 -0.072347127
0.41211239 1.5855272 -0.43895712 65 0 -0.072326392
0.41234624 1.5841556 -0.37791777 51 1 -0.07232178
0.4122318 1.5825828 -0.31788781 59 2 -0.072317176
1.6594419 6.3661432 0.57557648 2 10 -0.072314866
0.41782594 1.6017669 -0.2621842 69 3 -0.072312564
1.6430436 6.2942324 0.79873174 1 11 -0.072310261
0.42345312 1.6210222 -0.20571546 45 4 -0.072307959
1.6540688 6.3319459 1.0365349 1 12 -0.07230565
0.42227021 1.6153412 -0.14607303 3 5 -0.072303347
0.42993715 1.6423271 -0.088971131 1 6 -0.072298743
0.44291091 1.6906813 -0.030506806 1 7 -0.072294131
1.5598297 5.9499526 1.6481597 37 15 -0.072291829
0.41961408 1.5915511 -0.44102767 63 0 -0.072271094
0.41660342 1.579011 -0.37701797 58 1 -0.072266482
0.41975918 1.5887268 -0.31941426 57 2 -0.072261877
0.42263076 1.5984626 -0.26187131 60 3 -0.072257265
0.42526931 1.6061763 -0.20400929 78 4 -0.072252661
0.42484286 1.602302 -0.14502715 64 5 -0.072248049
0.42616081 1.6061442 -0.087087035 19 6 -0.072243445
0.43289134 1.6292132 -0.029424759 45 7 -0.07223884
1.5790987 5.9388704 1.6466069 45 15 -0.07223653
0.42489001 1.5901507 -0.44102767 61 0 -0.072215796
0.43235049 1.6169401 0.029215328 7 8 -0.072213493
0.42211157 1.5775473 -0.37701797 56 1 -0.072211191
0.42451793 1.5854295 -0.31903264 57 2 -0.072206579
0.42667204 1.591254 -0.26093271 57 3 -0.072201975
0.42675552 1.5893445 -0.20205939 59 4 -0.072197363
0.43118769 1.6047329 -0.14537577 96 5 -0.072192758
0.43072724 1.6007894 -0.086877696 99 6 -0.072188146
0.42765003 1.5871447 -0.028691756 126 7 -0.072183542
1.5988153 5.9295907 1.6455716 60 15 -0.07218124
0.42488119 1.5681469 -0.43533364 58 0 -0.072160497
0.4296191 1.5845411 0.028656852 66 8 -0.072158195
0.42761606 1.5760642 -0.37701797 52 1 -0.072155893
0.42912552 1.580533 0.085830979 11 9 -0.072153591
0.42850673 1.578254 -0.31788781 66 2 -0.072151288
0.43148795 1.5881411 0.14398128 1 10 -0.072148979
0.43326086 1.5935671 -0.26155844 59 3 -0.072146676
0.43282187 1.5897605 -0.20230313 63 4 -0.072142072
0.43050158 1.5801501 -0.14328404 82 5 -0.07213746
0.43420938 1.5915688 -0.086459011 90 6 -0.072132856
0.435296 1.5933583 -0.028831376 100 7 -0.072128244
1.6174678 5.9165196 1.643501 28 15 -0.072125942
0.42881626 1.5610662 -0.43378076 63 0 -0.072105207
0.43143785 1.5695344 0.028412517 100 8 -0.072102904
0.43311536 1.5745618 -0.37701797 56 1 -0.072100595
0.43463892 1.5790257 0.085830979 71 9 -0.072098292
0.43453321 1.5786418 -0.31826943 57 2 -0.07209599
0.43438393 1.5770209 0.14310972 27 10 -0.072093688
0.43462202 1.5768102 -0.25905553 53 3 -0.072091378
0.44125795 1.5997984 0.20376556 7 11 -0.072089076
0.4404816 1.5958942 -0.20327808 61 4 -0.072086774
0.43965471 1.5918151 0.26155844 4 12 -0.072084472
0.43601516 1.5786377 -0.14328404 79 5 -0.072082162
0.43976277 1.5900433 -0.086459011 97 6 -0.072077557
0.44192153 1.5956837 -0.028901186 100 7 -0.072072946
0.43529958 1.5632817 -0.434816 65 0 -0.072049908
0.43906134 1.575724 0.028552137 100 8 -0.072047606
0.43651503 1.5655318 -0.37521836 58 1 -0.072045304
0.44336909 1.5890415 0.086459011 92 9 -0.072042994
0.43898618 1.573333 -0.31750616 72 2 -0.072040692
0.43935075 1.5735759 0.14293543 61 10 -0.07203839
0.43587074 1.5600635 -0.25655255 57 3 -0.072036088
0.4388226 1.5695717 0.20010948 43 11 -0.072033778
0.44605008 1.5943468 -0.20327808 61 4 -0.072031476
0.44201288 1.5788574 0.25968125 38 12 -0.072029173
0.44259688 1.5809435 -0.14363267 79 5 -0.072026871
0.44539988 1.5898868 0.32094073 10 13 -0.072024561
0.44423258 1.5846523 -0.086249664 83 6 -0.072022259
0.45739564 1.6305151 0.39096493 1 14 -0.072019957
0.44748923 1.5941312 -0.028901186 100 7 -0.072017655
0.44390172 1.572908 -0.43792182 65 0 -0.07199461
0.44401443 1.5722576 0.028517231 100 8 -0.071992308
0.43879783 1.5527468 -0.37251896 58 1 -0.071990006
0.44863653 1.5875623 0.086459011 98 9 -0.071987703
0.44447586 1.5717911 -0.31750616 69 2 -0.071985394
0.44700974 1.5797014 0.14363267 71 10 -0.071983092
0.44292864 1.5642341 -0.25749114 62 3 -0.071980789
0.44700497 1.5775797 0.20132817 69 11 -0.071978487
0.44538146 1.5718499 -0.20059694 67 4 -0.071976177
0.44886243 1.5830845 0.26061985 60 12 -0.071973875
0.45028847 1.5870557 -0.14432991 75 5 -0.071971573
0.45362839 1.5977653 0.32284883 48 13 -0.071969271
0.45085186 1.5869347 -0.086459011 83 6 -0.071966961
0.45268101 1.5933731 0.38241678 28 14 -0.071964659
0.45277357 1.5926384 -0.028901186 100 7 -0.071962357
0.45776758 1.6091374 0.44827461 4 15 -0.071960054
0.4480539 1.5677123 -0.43688658 63 0 -0.071939319
0.45087579 1.5765444 0.028621947 100 8 -0.07193701
0.44769737 1.5643979 -0.37566826 59 1 -0.071934707
0.4489527 1.5687845 0.085516959 91 9 -0.071932405
0.44644248 1.5589843 -0.31521648 69 2 -0.071930103
0.45444158 1.5858716 0.14432991 73 10 -0.071927793
0.4486576 1.5646559 -0.25780404 59 3 -0.071925491
0.45442361 1.5837212 0.20230313 75 11 -0.071923189
0.44894865 1.5646402 -0.19986574 65 4 -0.071920887
0.45301974 1.5777898 0.25999412 68 12 -0.071918577
0.45224747 1.5740643 -0.14328404 77 5 -0.071916275
0.45892471 1.5962521 0.32284883 62 13 -0.071913972
0.4483816 1.5585591 -0.084993601 100 6 -0.07191167
0.45634648 1.5862447 0.3810671 58 14 -0.071909368
0.45362651 1.5757552 -0.028621947 100 7 -0.071907058
0.46149734 1.6020412 0.44672167 41 15 -0.071904756
0.45163882 1.5606509 -0.43533364 68 0 -0.071884021
0.45443234 1.5692784 0.028517231 94 8 -0.071881719
0.45288306 1.5629046 -0.37566826 61 1 -0.071879409
0.45442569 1.5672078 0.085516959 91 9 -0.071877107
0.4535225 1.563073 -0.31636134 68 2 -0.071874805
0.45525616 1.569048 0.14293543 74 10 -0.071872503
0.4565981 1.5726446 -0.25936839 62 3 -0.071870193
0.45911881 1.5802994 0.20205939 79 11 -0.071867891
0.45606965 1.5687821 -0.20059694 65 4 -0.071865588
0.45631784 1.5686116 0.25874263 68 12 -0.071863286
0.45439771 1.5609982 -0.14223817 79 5 -0.071860984
0.46174753 1.5852162 0.32094073 59 13 -0.071858674
0.45940855 1.5761589 -0.086040318 89 6 -0.071856372
0.46133581 1.5827709 0.38061717 72 14 -0.07185407
0.46024364 1.5780015 -0.028691756 100 7 -0.071851768
0.46383819 1.589294 0.44361585 53 15 -0.071849458
0.45572478 1.5534239 -0.43378076 68 0 -0.071828723
0.45849156 1.5618458 0.028412517 100 8 -0.071826421
0.45915723 1.5631039 -0.37611815 58 1 -0.071824118
0.46016714 1.5655316 0.085516959 75 9 -0.071821816
0.46201873 1.5708176 -0.31826943 62 2 -0.071819507
0.45931777 1.5616345 0.14241248 76 10 -0.071817204
0.4590123 1.5595903 -0.25749114 60 3 -0.071814902
0.46602982 1.5824143 0.20254686 79 11 -0.0718126
0.46181685 1.5670999 -0.20059694 60 4 -0.07181029
0.4609462 1.5631393 0.2581169 70 12 -0.071807988
0.46011642 1.5593221 -0.14223817 79 5 -0.071805686
0.46588716 1.5778645 0.31979591 61 13 -0.071803384
0.46518204 1.5744646 -0.086040318 89 6 -0.071801074
0.4676857 1.5829386 0.3810671 70 14 -0.071798772
0.46375686 1.5686333 -0.028552137 100 7 -0.071796469
0.46801642 1.5820256 0.44206294 55 15 -0.071794167
0.46637043 1.5684086 -0.43843949 80 0 -0.071773432
0.46079168 1.5486549 0.028203089 100 8 -0.071771123
0.46710718 1.5688815 -0.37791777 63 1 -0.07176882
0.46362063 1.5561781 0.085098274 75 9 -0.071766518
0.46721247 1.567232 -0.31788781 68 2 -0.071764216
0.46333113 1.5542123 0.14188954 82 10 -0.071761906
0.46359569 1.5541117 -0.25686541 60 3 -0.071759604
0.46501285 1.5578698 0.19962201 69 11 -0.071757302
0.47039846 1.5749069 -0.20181565 63 4 -0.071754999
0.46893466 1.5690101 0.25936839 63 12 -0.07175269
0.46582893 1.5576252 -0.14223817 82 5 -0.071750388
0.47166756 1.5761461 0.31979591 59 13 -0.071748085
0.46865755 1.5650959 -0.085621633 89 6 -0.071745783
0.47460198 1.5849475 0.38196689 67 14 -0.071743473
0.47352123 1.5803318 -0.028796472 100 7 -0.071741171
0.4738121 1.5802996 0.44206294 59 15 -0.071738869
0.4743458 1.5740874 -0.44051 97 0 -0.071718134
0.46704158 1.5488702 0.028237993 94 8 -0.071715832
0.47172886 1.5634276 -0.37701797 83 1 -0.071713522
0.46816707 1.5506443 0.084888928 78 9 -0.07171122
0.47465646 1.5711472 -0.31903264 65 2 -0.071708918
0.47132891 1.5601327 0.14258678 82 10 -0.071706615
0.4715755 1.5599656 -0.2581169 62 3 -0.071704306
0.47244424 1.5618551 0.20035322 85 11 -0.071702003
0.47271681 1.5617726 -0.20035322 60 4 -0.071699701
0.47296482 1.5616091 0.25842977 73 12 -0.071697399
0.4738459 1.5635345 -0.14293543 75 5 -0.071695089
0.47516194 1.5668918 0.31826943 58 13 -0.071692787
0.47439116 1.5633675 -0.085621633 83 6 -0.071690485
0.47757906 1.5738733 0.37971738 59 14 -0.071688183
0.47872892 1.5766724 -0.028761568 100 7 -0.07168588
0.48072386 1.5822493 0.44309825 56 15 -0.071683571
0.47703552 1.5651978 -0.43843949 97 0 -0.071661472
0.47540486 1.5588719 0.028447423 100 8 -0.07165917
0.47720665 1.5638019 -0.37746787 86 1 -0.071656868
0.47159967 1.5454279 0.084679581 75 9 -0.071654558
0.47874242 1.5678544 -0.31865105 82 2 -0.071652256
0.47739202 1.5624554 0.14293543 86 10 -0.071649954
0.48340416 1.5811452 -0.26187131 92 3 -0.071647651
0.4773483 1.5603632 0.20035322 85 11 -0.071645342
0.48052582 1.5697707 -0.20157191 67 4 -0.07164304
0.47470477 1.5507547 0.25686541 68 12 -0.071640737
0.47965035 1.5659316 -0.14328404 77 5 -0.071638435
0.47980937 1.565475 0.31826943 62 13 -0.071636125
0.48019862 1.5657722 -0.085830979 85 6 -0.071633823
0.47566107 1.5500091 0.37431854 60 14 -0.071631521
0.48105872 1.5675981 -0.028621947 100 7 -0.071629219
0.48314855 1.5734289 0.44102767 52 15 -0.071626909
0.48363587 1.5672148 -0.43947476 93 0 -0.071606174
0.48116171 1.5591973 0.028482327 94 8 -0.071603872
0.48526502 1.5715206 -0.37971738 83 1 -0.07160157
0.47817028 1.5475889 0.084888928 78 9 -0.071599267
0.48363292 1.564298 -0.31826943 90 2 -0.071596958
0.48048812 1.5531658 0.14223817 82 10 -0.071594656
0.48981282 1.5833076 -0.26249707 96 3 -0.071592353
0.48369372 1.5625645 0.2008407 77 11 -0.071590051
0.48866588 1.5776494 -0.2027906 97 4 -0.071587741
0.48011544 1.549088 0.25686541 76 12 -0.071585439
0.48747313 1.57186 -0.14398128 77 5 -0.071583137
0.48848614 1.5751264 0.32055911 62 13 -0.071580835
0.48953226 1.5775237 -0.086563677 69 6 -0.071578525
0.48310971 1.5558677 0.37611815 67 14 -0.071576223
0.48830658 1.5716385 -0.02872666 90 7 -0.071573921
0.48634347 1.5643538 0.43895712 56 15 -0.071571618
0.48767841 1.5619144 -0.43843949 91 0 -0.071550883
0.48302311 1.5460562 0.028272899 80 8 -0.071548574
0.49074736 1.5698172 -0.37971738 83 1 -0.071546271
0.48476237 1.5497226 0.085098274 80 9 -0.071543969
0.48998952 1.5664331 -0.31903264 90 2 -0.071541667
0.48444614 1.5477608 0.14188954 82 10 -0.071539357
0.49179399 1.5702778 -0.26061985 93 3 -0.071537055
0.49092644 1.5665492 0.20157191 79 11 -0.071534753
0.49357635 1.5740398 -0.20254686 100 4 -0.071532451
0.48729372 1.5530572 0.25780404 73 12 -0.071530141
0.49089396 1.5645316 -0.14345835 100 5 -0.071527839
0.49045342 1.562173 0.31826943 59 13 -0.071525536
0.49443769 1.5738997 -0.086459011 92 6 -0.071523234
0.49029055 1.5597491 0.37746787 66 14 -0.071520932
0.49919 1.5870924 -0.029040804 100 7 -0.071518622
0.48948169 1.5552756 0.43688658 56 15 -0.07151632
0.493128 1.5602025 -0.43843949 97 0 -0.071495585
0.49022555 1.5500805 0.028377613 74 8 -0.071493283
0.49210885 1.5550889 -0.37656805 86 1 -0.071490973
0.4937869 1.5594454 0.085726306 78 9 -0.071488671
0.49901077 1.5759431 -0.32132238 85 2 -0.071486369
0.4904466 1.54796 0.14206386 76 10 -0.071484067
0.49727273 1.5685514 -0.26061985 96 3 -0.071481757
0.49279076 1.5534728 0.20010948 83 11 -0.071479455
0.50146896 1.5798759 -0.20352182 100 4 -0.071477152
0.49331027 1.5532292 0.2581169 70 12 -0.07147485
0.49876505 1.5704042 -0.14415559 100 5 -0.071472548
0.49352539 1.5529671 0.31674296 62 13 -0.071470238
0.4969013 1.5626478 -0.085935652 100 6 -0.071467936
0.49809599 1.5654562 0.37926748 64 14 -0.071465634
0.50290745 1.5796237 -0.02893609 100 7 -0.071463332
0.49842486 1.5646019 0.4399924 56 15 -0.071461022
0.49974805 1.5621517 -0.43947476 93 0 -0.071440287
0.50416863 1.5750228 0.02886628 100 8 -0.071437985
0.49931633 1.5589297 -0.37791777 83 1 -0.071435682
0.50078207 1.5635059 0.086040318 100 9 -0.071433373
0.50331008 1.5704525 -0.32055911 87 2 -0.071431071
0.50010616 1.5595191 0.14328404 86 10 -0.071428768
0.50274539 1.5668061 -0.26061985 93 3 -0.071426466
0.49821004 1.5517433 0.20010948 83 11 -0.071424164
0.50455248 1.5705558 -0.20254686 100 4 -0.071421854
0.49906212 1.5534657 0.25842977 65 12 -0.071419552
0.5030247 1.5648597 -0.14380698 100 5 -0.07141725
0.50134748 1.5587109 0.31826943 59 13 -0.071414948
0.50480086 1.5685086 -0.086354338 100 6 -0.071412638
0.49877912 1.5488683 0.37566826 70 14 -0.071410336
0.51120812 1.5874643 -0.029110614 100 7 -0.071408033
0.50479597 1.566618 0.44102767 57 15 -0.071405731
0.50638843 1.5640734 -0.44051 93 0 -0.071384989
0.51000524 1.5752447 0.028901186 100 8 -0.071382686
0.50388306 1.5554112 -0.37746787 86 1 -0.071380384
0.50870055 1.569348 0.086459011 100 9 -0.071378082
0.50697219 1.5630834 -0.31941426 93 2 -0.07137578
0.50800669 1.5653445 0.14398128 100 10 -0.07137347
0.51159585 1.5764039 -0.26249707 87 3 -0.071371168
0.50703132 1.561411 0.20157191 96 11 -0.071368866
0.50730455 1.5613222 -0.20157191 95 4 -0.071366563
0.5075351 1.5611072 0.25999412 78 12 -0.071364254
0.5127973 1.5763572 -0.14502715 100 5 -0.071361952
0.50651324 1.55704 0.31826943 55 13 -0.071359649
0.51247263 1.5744226 -0.086773023 100 6 -0.071357347
0.50330883 1.5453529 0.37521836 60 14 -0.071355037
0.51302761 1.5742629 -0.028901186 100 7 -0.071352735
0.51026183 1.5648462 0.44102767 59 15 -0.071350433
0.50916737 1.5550419 -0.43843949 97 0 -0.071329698
0.51363194 1.5677543 0.028796472 100 8 -0.071327396
0.51173794 1.5610499 -0.37926748 86 1 -0.071325086
0.51230842 1.5618691 0.086144991 100 9 -0.071322784
0.51154059 1.5595282 -0.31903264 90 2 -0.071320482
0.51070923 1.5560791 0.14328404 100 10 -0.071318179
0.5170958 1.5746084 -0.26249707 90 3 -0.07131587
0.51743644 1.5747186 0.20352182 100 11 -0.071313567
0.51523048 1.5670853 -0.20254686 98 4 -0.071311265
0.51174712 1.555573 0.25936839 100 12 -0.071308963
0.51677704 1.5708628 -0.14467853 100 5 -0.071306653
0.51931179 1.5776401 0.32284883 86 13 -0.071304351
0.5192138 1.5764184 -0.086982369 100 6 -0.071302049
0.51235938 1.5546917 0.37791777 65 14 -0.071299747
0.5172677 1.5686642 -0.028831376 100 7 -0.071297437
0.51208884 1.5520482 0.43792182 57 15 -0.071295135
0.51580721 1.5569229 -0.43947476 93 0 -0.0712744
0.51721406 1.5602573 0.028691756 100 8 -0.071272098
0.51841134 1.5629532 -0.38016728 86 1 -0.071269795
0.52027333 1.5676538 0.086563677 100 9 -0.071267486
0.51821774 1.56146 -0.31979591 90 2 -0.071265183
0.51613826 1.5542868 0.14328404 100 10 -0.071262881
0.51885229 1.5615461 -0.26061985 90 3 -0.071260579
0.52292979 1.5729028 0.20352182 100 11 -0.071258269
0.52195108 1.5690444 -0.20303436 100 4 -0.071255967
0.51717436 1.5537771 0.25936839 100 12 -0.071253665
0.51974082 1.5614876 -0.14398128 100 5 -0.071251363
0.52109319 1.5646417 0.32055911 100 13 -0.071249053
0.52471381 1.5745963 -0.086982369 100 6 -0.071246751
0.52394766 1.5713804 0.38241678 100 14 -0.071244448
0.52400553 1.5706429 -0.028901186 100 7 -0.071242146
0.52423185 1.5704083 0.44361585 70 15 -0.071239844
0.52123916 1.5551128 -0.43947476 91 0 -0.071219102
0.52075011 1.5527544 0.028587043 100 8 -0.071216799
0.52138299 1.5537444 -0.37836766 86 1 -0.071214497
0.52574271 1.565828 0.086563677 100 9 -0.071212195
0.52616513 1.567086 -0.32132238 87 2 -0.071209885
0.52409899 1.5600302 0.14398128 100 10 -0.071207583
0.52429891 1.5597259 -0.26061985 90 3 -0.071205281
0.52462047 1.5597787 0.20205939 100 11 -0.071202978
0.53122431 1.5785012 -0.20449677 100 4 -0.071200669
0.52511615 1.5594509 0.26061985 100 12 -0.071198367
0.52645957 1.5634403 -0.14432991 100 5 -0.071196064
0.52529842 1.5590923 0.31979591 93 13 -0.071193762
0.5302074 1.572755 -0.086982369 100 6 -0.07119146
0.53005213 1.5713886 0.38286668 100 14 -0.07118915
0.53204322 1.5763829 -0.029040804 100 7 -0.071186848
0.52909273 1.5667384 0.44309825 89 15 -0.071184546
0.52790463 1.5569431 -0.44051 91 0 -0.071163811
0.52937907 1.5603958 0.028761568 100 8 -0.071161501
0.52429819 1.5445336 -0.37656805 89 1 -0.071159199
0.52735096 1.5526365 0.085935652 100 9 -0.071156897
0.53289449 1.5689578 -0.32208559 85 2 -0.071154594
0.53082317 1.5619643 0.14432991 100 10 -0.071152285
0.53101242 1.5616264 -0.26124558 96 3 -0.071149983
0.52814418 1.5523 0.20132817 100 11 -0.07114768
0.53289241 1.5653622 -0.20303436 93 4 -0.071145378
0.53183001 1.5613482 0.26124558 100 12 -0.071143076
0.53062868 1.5578213 -0.14398128 100 5 -0.071140766
0.53073788 1.5572491 0.31979591 93 13 -0.071138464
0.53440446 1.5671141 -0.086773023 100 6 -0.071136162
0.53175795 1.5584629 0.38016728 99 14 -0.071133859
0.537543 1.5745159 -0.029040804 100 7 -0.07113155
0.53830498 1.5758508 0.44620407 92 15 -0.071129248
0.5370962 1.5660553 -0.44361585 91 0 -0.071108513
0.5374192 1.5661039 0.028901186 100 8 -0.07110621
0.5322175 1.5500667 -0.37836766 86 1 -0.071103901
0.53341681 1.552675 0.086040318 100 9 -0.071101598
0.53390318 1.5540906 -0.31941426 93 2 -0.071099296
0.53886324 1.5676383 0.14502715 100 10 -0.071096994
0.54159969 1.5747073 -0.26374856 93 3 -0.071094692
0.53549701 1.5560781 0.20205939 100 11 -0.071092382
0.5370611 1.5597385 -0.20254686 100 4 -0.07109008
0.53534615 1.5538793 0.26030698 100 12 -0.071087778
0.54125476 1.5710294 -0.14537577 100 5 -0.071085475
0.54000896 1.5665233 0.32208559 96 13 -0.071083166
0.53987193 1.565239 -0.086773023 100 6 -0.071080863
0.53719521 1.556597 0.38016728 100 14 -0.071078561
0.54303545 1.57263 -0.029040804 100 7 -0.071076259
0.54254121 1.5703101 0.44516876 92 15 -0.071073949
0.53749514 1.5495694 -0.43947476 93 0 -0.071053214
0.54288238 1.5642186 0.028901186 100 8 -0.071050912
0.53890395 1.5518812 -0.37926748 89 1 -0.07104861
0.53948861 1.5526903 0.086144991 100 9 -0.071046308
0.5393244 1.5522177 -0.31941426 93 2 -0.071043998
0.53844357 1.5488107 0.14345835 100 10 -0.071041696
0.54449761 1.565344 -0.26249707 90 3 -0.071039394
0.54484016 1.5654483 0.20352182 100 11 -0.071037091
0.54380769 1.5616038 -0.20303436 100 4 -0.071034782
0.53881752 1.546405 0.25936839 100 12 -0.071032479
0.54280245 1.5578418 -0.14432991 100 5 -0.071030177
0.54676616 1.5683365 0.32284883 93 13 -0.071027875
0.54664761 1.5671166 -0.086982369 100 6 -0.071025565
0.54390949 1.5583924 0.3810671 100 14 -0.071023263
0.54456568 1.5593978 -0.028831376 100 7 -0.071020961
0.54674447 1.5647594 0.44413349 87 15 -0.071018659
0.54226106 1.5458609 -0.43895712 100 0 -0.070997924
0.54569066 1.5547665 0.028761568 100 8 -0.070995614
0.54560947 1.5536678 -0.38016728 89 1 -0.070993312
0.54662025 1.556546 0.086459011 100 9 -0.070991009
0.54473901 1.5503258 -0.31941426 93 2 -0.070988707
0.54318625 1.5450419 0.14328404 100 10 -0.070986398
0.54733682 1.55598 -0.26124558 96 3 -0.070984095
0.54964185 1.5616646 0.20327808 100 11 -0.070981793
0.55057454 1.5634407 -0.20352182 100 4 -0.070979491
0.54394305 1.5446095 0.25936839 100 12 -0.070977181
0.5482375 1.5559374 -0.14432991 100 5 -0.070974879
0.54962599 1.5590124 0.32132238 96 13 -0.070972577
0.55610132 1.5764998 -0.087610394 100 6 -0.070970275
0.55323786 1.56751 0.3837665 100 14 -0.070967965
0.55239642 1.5651259 -0.028970996 100 7 -0.070965663
0.5506435 1.5592947 0.44309825 92 15 -0.07096336
0.54959166 1.5494206 -0.44051 93 0 -0.070942625
0.54950607 1.5491792 0.028691756 100 8 -0.070940323
0.54945481 1.548177 -0.37926748 89 1 -0.070938013
0.55071336 1.5508643 0.086249664 100 9 -0.070935711
0.55474877 1.5613644 -0.32208559 87 2 -0.070933409
0.55124533 1.5506458 0.14398128 100 10 -0.070931107
0.55116999 1.550434 -0.26061985 96 3 -0.070928797
0.55415273 1.5579628 0.20303436 100 11 -0.070926495
0.55708688 1.5653467 -0.20400929 95 4 -0.070924193
0.55330694 1.553867 0.26124558 100 12 -0.07092189
0.55366504 1.5540143 -0.14432991 100 5 -0.070919581
0.5547933 1.5571811 0.32132238 96 13 -0.070917279
0.55394882 1.5539529 -0.086459011 100 6 -0.070914976
0.55581385 1.5583249 0.38196689 99 14 -0.070912674
0.56188869 1.5744884 -0.029180422 100 7 -0.070910372
0.55868202 1.5646403 0.44516876 87 15 -0.070908062
0.55603087 1.5512264 -0.44154531 93 0 -0.070887327
0.55626023 1.5510164 0.028761568 100 8 -0.070885025
0.55222249 1.5389128 -0.37746787 89 1 -0.070882723
0.55679882 1.5508121 0.086354338 100 9 -0.070880413
0.55992383 1.5595161 -0.32208559 90 2 -0.070878111
0.55840486 1.5544347 0.14450422 100 10 -0.070875809
0.55925089 1.5559363 -0.26187131 90 3 -0.070873506
0.55690098 1.5485469 0.20205939 100 11 -0.070871197
0.56187588 1.5615246 -0.20376556 97 4 -0.070868894
0.56006545 1.5556433 0.26187131 100 12 -0.070866592
0.56016475 1.5559191 -0.14467853 100 5 -0.07086429
0.56288725 1.562623 0.32284883 96 13 -0.070861988
0.55937016 1.5520097 -0.086459011 100 6 -0.070859678
0.55992758 1.5527091 0.3810671 99 14 -0.070857376
0.56602436 1.5687554 -0.029110614 100 7 -0.070855074
0.56414068 1.5626805 0.44516876 87 15 -0.070852771
0.56144118 1.5492765 -0.44154531 93 0 -0.070832029
0.5623529 1.550945 0.028796472 100 8 -0.070829727
0.56024969 1.5443033 -0.37926748 86 1 -0.070827425
0.55811894 1.537595 0.085726306 100 9 -0.070825122
0.56134391 1.5464798 -0.31979591 90 2 -0.07082282
0.56314778 1.5506032 0.14432991 100 10 -0.07082051
0.56602848 1.5576879 -0.26249707 96 3 -0.070818208
0.56569338 1.555922 0.20327808 100 11 -0.070815906
0.56528705 1.5539576 -0.20303436 94 4 -0.070813604
0.56279027 1.5462538 0.26061985 100 12 -0.070811294
0.56831867 1.561443 -0.14537577 100 5 -0.070808992
0.56968087 1.5643384 0.32361206 93 13 -0.07080669
0.56478393 1.5500479 -0.086459011 100 6 -0.070804387
0.56534457 1.5507449 0.3810671 100 14 -0.070802078
0.57012677 1.5630125 -0.029040804 100 7 -0.070799775
0.57224095 1.5679609 0.44723931 89 15 -0.070797473
0.56418806 1.5400513 -0.43947476 97 0 -0.070776738
0.57051653 1.5564826 0.02893609 100 8 -0.070774436
0.56563658 1.5423384 -0.37926748 86 1 -0.070772126
0.56623518 1.5431373 0.086144991 100 9 -0.070769824
0.56673914 1.5445108 -0.31979591 90 2 -0.070767522
0.56787062 1.5467573 0.14415559 100 10 -0.07076522
0.57418656 1.5631196 -0.26374856 90 3 -0.07076291
0.57249111 1.5576642 0.20376556 100 11 -0.070760608
0.57207859 1.5557009 -0.20352182 100 4 -0.070758305
0.56545556 1.5368645 0.25936839 100 12 -0.070756003
0.5723893 1.5557101 -0.14502715 100 5 -0.070753694
0.57242548 1.5549707 0.32208559 96 13 -0.070751391
0.57571399 1.5630602 -0.087296382 100 6 -0.070749089
0.57210153 1.5524192 0.38196689 100 14 -0.070746787
0.57281101 1.5535085 -0.028901186 100 7 -0.070744477
0.57236195 1.5514542 0.44309825 89 15 -0.070742175
0.56956083 1.5380723 -0.43947476 93 0 -0.07072144
0.57386088 1.5488566 0.028831376 100 8 -0.070719138
0.57372677 1.5476633 -0.3810671 86 1 -0.070716836
0.57578605 1.552387 0.086773023 100 9 -0.070714526
0.57281017 1.5443636 -0.32017753 93 2 -0.070712224
0.57395852 1.5466342 0.14432991 100 10 -0.070709921
0.5755142 1.5499945 -0.26187131 96 3 -0.070707619
0.57861662 1.5575169 0.20400929 100 11 -0.07070531
0.5788877 1.5574163 -0.20400929 98 4 -0.070703007
0.57081717 1.5348811 0.25936839 100 12 -0.070700705
0.57642776 1.5499675 -0.14467853 100 5 -0.070698403
0.57853496 1.554803 0.32246721 99 13 -0.070696093
0.58255923 1.5647849 -0.087505728 100 6 -0.070693791
0.57887793 1.5540649 0.38286668 100 14 -0.070691489
0.58242071 1.5627421 -0.029110614 100 7 -0.070689186
0.57777297 1.5494472 0.44309825 89 15 -0.070686877
0.57763463 1.543312 -0.44154531 93 0 -0.070666142
0.57856303 1.5449712 0.028796472 100 8 -0.07066384
0.57775855 1.5420014 -0.38016728 86 1 -0.070661537
0.58190215 1.5522379 0.086877696 100 9 -0.070659235
0.58026469 1.5478699 -0.32132238 87 2 -0.070656925
0.57865447 1.5427555 0.14415559 100 10 -0.070654623
0.58092159 1.547976 -0.26187131 96 3 -0.070652321
0.58056056 1.5461959 0.2027906 100 11 -0.070650019
0.58432096 1.5553858 -0.20400929 100 4 -0.070647709
0.58103698 1.5458225 0.26155844 100 12 -0.070645407
0.58323705 1.5516757 -0.14502715 100 5 -0.070643105
0.58188516 1.5472615 0.32132238 93 13 -0.070640802
0.58239126 1.5477873 -0.086668357 100 6 -0.070638493
0.58704591 1.5593297 0.38466629 100 14 -0.07063619
0.58787185 1.5606997 -0.029110614 100 7 -0.070633888
0.58590353 1.5546516 0.44516876 84 15 -0.070631586
0.58301866 1.5412862 -0.44154531 93 0 -0.070610851
0.5860756 1.548553 0.028901186 100 8 -0.070608541
0.58175641 1.5363307 -0.37926748 86 1 -0.070606239
0.58307165 1.5389909 0.086249664 100 9 -0.070603937
0.58775127 1.5513425 -0.32246721 93 2 -0.070601635
0.58756685 1.5500414 0.14502715 100 10 -0.070599325
0.58632046 1.5459391 -0.26187131 93 3 -0.070597023
0.58736324 1.5478717 0.20327808 100 11 -0.070594721
0.58833796 1.5496249 -0.20352182 93 4 -0.070592418
0.59063715 1.5548654 0.26343569 100 12 -0.070590109
0.59006387 1.5533561 -0.14537577 100 5 -0.070587806
0.58867794 1.5488909 0.32208559 91 13 -0.070585504
0.58779091 1.5457448 -0.086668357 100 6 -0.070583202
0.5897125 1.5499859 0.38286668 99 14 -0.0705809
0.5961622 1.5661135 -0.029250234 100 7 -0.07057859
0.59407747 1.5598183 0.44723931 87 15 -0.070576288
0.58977449 1.5428509 -0.44258058 97 0 -0.070555553
0.59004921 1.5427622 0.028831376 100 8 -0.070553251
0.58711606 1.5342906 -0.37926748 89 1 -0.070550941
0.5877257 1.535081 0.086144991 100 9 -0.070548639
0.58965272 1.5401142 -0.32055911 90 2 -0.070546336
0.59297436 1.5479808 0.14502715 100 10 -0.070544034
0.59595531 1.5549502 -0.26374856 99 3 -0.070541725
0.59347314 1.5476656 0.20352182 100 11 -0.070539422
0.59587646 1.553122 -0.20425305 97 4 -0.07053712
0.59110606 1.5398847 0.26124558 100 12 -0.070534818
0.59691089 1.5550067 -0.1457244 100 5 -0.070532516
0.59971178 1.5614887 0.32513854 93 13 -0.070530206
0.59318262 1.5436836 -0.086668357 100 6 -0.070527904
0.59372115 1.5442799 0.38196689 100 14 -0.070525602
0.59731811 1.5528245 -0.029040804 100 7 -0.070523299
0.59951836 1.5577352 0.44723931 92 15 -0.07052099
0.59097958 1.5299703 -0.43947476 97 0 -0.070500255
0.59687299 1.5444233 0.028901186 100 8 -0.070497952
0.5952791 1.5395021 -0.3810671 86 1 -0.07049565
0.59452152 1.5367457 0.086354338 100 9 -0.070493348
0.59502476 1.5380466 -0.32055911 90 2 -0.070491038
0.59693629 1.5421853 0.14467853 100 10 -0.070488736
0.60351926 1.5583867 -0.26468715 100 3 -0.070486434
0.6010232 1.5511377 0.20425305 100 11 -0.070484132
0.60057712 1.5491816 -0.20400929 93 4 -0.070481822
0.59504873 1.5341288 0.26061985 100 12 -0.07047952
0.59801197 1.5417686 -0.14467853 100 5 -0.070477217
0.60515839 1.5593859 0.32513854 96 13 -0.070474915
0.60290533 1.5527745 -0.087296382 100 6 -0.070472606
0.60051906 1.5458312 0.38286668 100 14 -0.070470303
0.60418344 1.5544579 -0.029110614 100 7 -0.070468001
0.60355222 1.5520318 0.44620407 87 15 -0.070465699
0.59842414 1.5332969 -0.44102767 100 0 -0.070444964
0.60007793 1.5367426 0.028796472 100 8 -0.070442654
0.6034863 1.5446752 -0.38286668 89 1 -0.070440352
0.60351819 1.5439619 0.086877696 100 9 -0.07043805
0.60324937 1.5432742 -0.32208559 87 2 -0.070435748
0.60086417 1.5363814 0.14432991 100 10 -0.070433438
0.60535675 1.5470726 -0.2631228 93 3 -0.070431136
0.60788178 1.5527271 0.20474051 100 11 -0.070428833
0.61032474 1.558166 -0.20547174 94 4 -0.070426531
0.60112131 1.5338812 0.26093271 100 12 -0.070424221
0.60484439 1.5433815 -0.14502715 100 5 -0.070421919
0.60629839 1.5462972 0.32284883 93 13 -0.070419617
0.60978037 1.5543792 -0.087505728 100 6 -0.070417315
0.60875976 1.5509815 0.38466629 100 14 -0.070415005
0.61106735 1.5560622 -0.029180422 100 7 -0.070412703
0.60472715 1.5391273 0.44309825 87 15 -0.070410401
0.60306364 1.5294017 -0.44051 97 0 -0.070389666
0.601035 1.5234776 0.028587043 100 8 -0.070387363
0.60458207 1.5316833 -0.38016728 89 1 -0.070385054
0.60817003 1.5399883 0.086773023 100 9 -0.070382752
0.6100747 1.5448111 -0.32284883 90 2 -0.070380449
0.60768741 1.5379807 0.14467853 100 10 -0.070378147
0.60930133 1.5412759 -0.26249707 93 3 -0.070375837
0.61110741 1.545058 0.20400929 100 11 -0.070373535
0.61649019 1.5578721 -0.20571546 97 4 -0.070371233
0.61156255 1.5446301 0.2631228 96 12 -0.070368931
0.61169547 1.5449657 -0.14537577 100 5 -0.070366621
0.61024588 1.540521 0.32208559 93 13 -0.070364319
0.61078751 1.5411006 -0.086877696 100 6 -0.070362017
0.61417043 1.5488468 0.38466629 100 14 -0.070359714
0.61796987 1.5576375 -0.029250234 100 7 -0.070357412
0.61793643 1.5567583 0.44879225 95 15 -0.070355102
0.61125875 1.5344658 -0.44258058 97 0 -0.070335865
0.61079109 1.532516 0.028796472 100 8 -0.070333563
0.60992461 1.5295637 -0.38016728 89 1 -0.070331261
0.61031479 1.530542 0.086354338 100 9 -0.070328951
0.61546379 1.542672 -0.32284883 87 2 -0.070326649
0.61748368 1.5469526 0.1457244 100 10 -0.070324346
0.61614263 1.5428088 -0.2631228 93 3 -0.070322044
0.61207801 1.5318549 0.20254686 100 11 -0.070319735
0.61649734 1.5429151 -0.20400929 95 4 -0.070317432
0.6166811 1.5425936 0.2631228 96 12 -0.07031513
0.62004399 1.5502208 -0.14607303 100 5 -0.070312828
0.61707878 1.5420268 0.32284883 93 13 -0.070310518
0.6161629 1.5389593 -0.086877696 100 6 -0.070308216
0.61495692 1.5359471 0.38196689 100 14 -0.070305914
0.62461936 1.559292 -0.029320043 100 7 -0.070303611
0.62237644 1.5529075 0.44827461 89 15 -0.070301302
0.61922699 1.5395998 -0.44465113 91 0 -0.070280567
0.61736321 1.5341922 0.02886628 100 8 -0.070278265
0.61644882 1.5311483 -0.3810671 92 1 -0.070275962
0.61837029 1.5359209 0.086773023 100 9 -0.07027366
0.61910868 1.5369806 -0.32208559 87 2 -0.07027135
0.62261057 1.5448964 0.1457244 100 10 -0.070269048
0.62420988 1.5480855 -0.26437429 93 3 -0.070266746
0.62086821 1.5390213 0.20376556 100 11 -0.070264444
0.62161088 1.5408622 -0.20400929 98 4 -0.070262134
0.61883539 1.533213 0.26187131 96 12 -0.070259832
0.6266731 1.5518512 -0.14642164 100 5 -0.07025753
0.62660205 1.5508935 0.32513854 93 13 -0.070255227
0.62275958 1.540611 -0.087087035 100 6 -0.070252918
0.62150723 1.5375129 0.38286668 100 14 -0.070250615
0.62528795 1.5460893 -0.029110614 100 7 -0.070248313
0.63042158 1.5579982 0.45034516 87 15 -0.070246011
0.62142229 1.530378 -0.44258058 97 0 -0.070225276
0.62621033 1.5413997 0.029040804 100 8 -0.070222966
0.62299091 1.532706 -0.38196689 92 1 -0.070220664
0.62372828 1.5337528 0.086773023 100 9 -0.070218362
0.62420255 1.5349189 -0.32208559 87 2 -0.07021606
0.62472641 1.5354413 0.14502715 100 10 -0.07021375
0.63083011 1.549666 -0.26500002 93 3 -0.070211448
0.62821442 1.5424695 0.20449677 100 11 -0.070209146
0.62848282 1.5423602 -0.20449677 95 4 -0.070206843
0.62194675 1.5255558 0.26093271 100 12 -0.070204534
0.62730324 1.5386946 -0.14537577 100 5 -0.070202231
0.63174129 1.5488074 0.32513854 96 13 -0.070199929
0.62937403 1.5422361 -0.087296382 100 6 -0.070197627
0.63129056 1.5461589 0.38556612 100 14 -0.070195325
0.6321938 1.5475993 -0.029180422 100 7 -0.070193015
0.63146985 1.5450588 0.44723931 92 15 -0.070190713
0.62456107 1.5228376 -0.44102767 100 0 -0.070169978
0.6270327 1.5281045 0.028831376 100 8 -0.070167676
0.63203812 1.5395356 -0.3842164 83 1 -0.070165366
0.63211328 1.5389564 0.087191716 100 9 -0.070163064
0.63104808 1.536363 -0.32284883 90 2 -0.070160761
0.63008267 1.5332512 0.14502715 100 10 -0.070158459
0.63323134 1.5401465 -0.26374856 93 3 -0.07015615
0.63510478 1.543939 0.20498425 100 11 -0.070153847
0.63839626 1.5511709 -0.2059592 100 4 -0.070151545
0.62726861 1.5233754 0.26093271 100 12 -0.070149243
0.63418806 1.5401798 -0.1457244 100 5 -0.070146941
0.63415211 1.5393318 0.32361206 96 13 -0.070144631
0.63932055 1.5511088 -0.087924413 100 6 -0.070142329
0.6366843 1.5439458 0.38556612 100 14 -0.070140027
0.63911712 1.5490804 -0.029250234 100 7 -0.070137724
0.63685971 1.542845 0.44723931 92 15 -0.070135415
0.63209122 1.5260023 -0.44258058 97 0 -0.07011468
0.63083154 1.5222119 0.028761568 100 8 -0.070112377
0.63068974 1.5211191 -0.38016728 89 1 -0.070110075
0.64130825 1.5459645 0.087715074 100 9 -0.070107765
0.63715976 1.5359641 -0.32323048 96 2 -0.070105463
0.63619512 1.5328826 0.14520147 100 10 -0.070103161
0.63557243 1.5306298 -0.26249707 90 3 -0.070100859
0.63592124 1.5307133 0.20352182 100 11 -0.070098557
0.64228362 1.5452669 -0.20547174 98 4 -0.070096247
0.6363737 1.5302967 0.26249707 96 12 -0.070093945
0.64108938 1.5416366 -0.14607303 100 5 -0.070091642
0.63952202 1.5371087 0.32361206 96 13 -0.07008934
0.64012623 1.5378042 -0.087296382 100 6 -0.070087031
0.64356709 1.5453122 0.38646591 100 14 -0.070084728
0.64605922 1.5505315 -0.029320043 100 7 -0.070082426
0.64224178 1.5406123 0.44723931 89 15 -0.070080124
0.63890409 1.5273516 -0.44361585 93 0 -0.070059381
0.64308971 1.5366024 0.02907571 100 8 -0.070057079
0.63599604 1.5189081 -0.38016728 86 1 -0.070054777
0.64129764 1.5308218 0.086982369 100 9 -0.070052475
0.64327496 1.5355418 -0.32361206 87 2 -0.070050173
0.64231181 1.5324901 0.14537577 100 10 -0.070047863
0.64549524 1.5393318 -0.26437429 93 3 -0.070045561
0.64125943 1.5284847 0.20352182 100 11 -0.070043258
0.64460015 1.535694 -0.20449677 89 4 -0.070040956
0.64553624 1.5371724 0.26406142 92 12 -0.070038646
0.64646721 1.5393893 -0.14607303 100 5 -0.070036344
0.64488399 1.5348667 0.32361206 93 13 -0.070034042
0.64548999 1.5355606 -0.087296382 100 6 -0.07003174
0.64442486 1.5322781 0.3837665 100 14 -0.07002943
0.65457028 1.5556395 -0.029459663 100 7 -0.070027128
0.64911437 1.5419225 0.44827461 89 15 -0.070024826
0.64648718 1.5304506 -0.44516876 100 0 -0.070004091
0.64533615 1.5269802 0.02893609 100 8 -0.070001788
0.64432955 1.5238587 -0.38196689 89 1 -0.069999479
0.64248186 1.5194888 0.086459011 100 9 -0.069997177
0.64786661 1.5314788 -0.32323048 93 2 -0.069994874
0.64998734 1.5357429 0.1458987 100 10 -0.069992572
0.65240479 1.5407075 -0.26500002 93 3 -0.069990262
0.64968884 1.5335481 0.20449677 100 11 -0.06998796
0.64995724 1.5334344 -0.20449677 91 4 -0.069985658
0.64600527 1.5241107 0.2621842 92 12 -0.069983356
0.65339214 1.540792 -0.14642164 100 5 -0.069981046
0.65407062 1.5416434 0.32552016 99 13 -0.069978744
0.65084654 1.5332979 -0.087296382 100 6 -0.069976442
0.64976925 1.5300195 0.3837665 100 14 -0.069974139
0.6550343 1.5424173 -0.029250234 100 7 -0.06997183
0.65875643 1.5504296 0.45138043 92 15 -0.069969527
0.64879423 1.5210767 -0.44309825 100 0 -0.069948792
0.65510333 1.535868 0.029145518 100 8 -0.06994649
0.65090871 1.5252984 -0.38286668 89 1 -0.069944188
0.65327203 1.5300946 0.087191716 100 9 -0.069941878
0.6508953 1.5237913 -0.32208559 90 2 -0.069939576
0.64986235 1.5206405 0.14467853 100 10 -0.069937274
0.65906262 1.5421685 -0.26562575 90 3 -0.069934972
0.65633196 1.5350355 0.20498425 100 11 -0.069932662
0.65816134 1.5385712 -0.20547174 94 4 -0.06993036
0.64976591 1.5182146 0.26155844 92 12 -0.069928057
0.65562993 1.5311754 -0.1457244 100 5 -0.069925755
0.66149813 1.5448802 0.32666501 96 13 -0.069923446
0.6606462 1.5421466 -0.087924413 100 6 -0.069921143
0.65791059 1.5350208 0.38556612 100 14 -0.069918841
0.66041481 1.5401212 -0.029250234 100 7 -0.069916539
0.65807152 1.5339175 0.44723931 87 15 -0.069914237
0.65459901 1.520691 -0.44361585 100 0 -0.069893494
0.65492338 1.5207158 0.028901186 100 8 -0.069891192
0.65931398 1.5301754 -0.38466629 89 1 -0.06988889
0.66019076 1.5314729 0.087401055 100 9 -0.069886588
0.66138554 1.5342445 -0.32475692 93 2 -0.069884278
0.65647984 1.5221357 0.14502715 100 10 -0.069881976
0.66444218 1.5398585 -0.26562575 93 3 -0.069879673
0.66483378 1.5400251 0.2059592 100 11 -0.069877371
0.66667598 1.5435541 -0.20644669 91 4 -0.069875062
0.65897977 1.5250037 0.2631228 96 12 -0.069872759
