# .PCD v0.7 - Point Cloud Data file format
VERSION 0.7
FIELDS x y z intensity ring time
SIZE 4 4 4 4 2 4
TYPE F F F F U F
COUNT 1 1 1 1 1 1
WIDTH 907
HEIGHT 1
VIEWPOINT 0 0 0 1 0 0 0
POINTS 907
DATA ascii
-1.1857893 -0.32550803 -0.28388825 58 1 -0.018907061
-1.1691444 -0.32071915 0.063535862 63 9 -0.018904757
-1.1814251 -0.32408801 -0.23812963 60 2 -0.018902455
-1.1778786 -0.3228941 0.10685294 69 10 -0.01890015
-1.1774026 -0.322543 -0.19335303 55 3 -0.018897846
-1.1698475 -0.32025352 0.14892435 70 11 -0.018895542
-1.1967098 -0.32738277 -0.15233669 58 4 -0.018893238
-1.1623276 -0.31775886 0.19085006 60 12 -0.018890934
-1.1819474 -0.32312253 -0.10720156 66 5 -0.01888863
-1.1945829 -0.32612875 -0.064896591 60 6 -0.018884022
-2.9366074 -0.80116189 0.70274711 77 14 -0.018881718
-1.2038713 -0.32821307 -0.021780603 65 7 -0.018879414
-2.9263461 -0.79726505 0.81269181 88 15 -0.01887711
-1.1821144 -0.32050872 -0.32818255 75 0 -0.018856375
-1.1773638 -0.31900039 0.021291936 72 8 -0.01885407
-1.1906803 -0.3223854 -0.28478804 58 1 -0.018851766
-1.1818243 -0.31976593 0.064163886 63 9 -0.018849462
-1.1844443 -0.3204748 -0.23851125 58 2 -0.018847158
-1.1886151 -0.32138103 0.1077245 67 10 -0.018844854
-1.1861492 -0.32049212 -0.1946045 57 3 -0.01884255
-1.1747912 -0.31720296 0.14941183 72 11 -0.018840246
-1.2055113 -0.32527193 -0.15331164 58 4 -0.018837942
-1.1729661 -0.31627095 0.1924144 58 12 -0.018835638
-1.1907629 -0.32106957 -0.10789881 67 5 -0.018833334
-1.191857 -0.32091832 -0.064687252 62 6 -0.018828725
-2.9431498 -0.79191899 0.7036469 79 14 -0.018826421
-1.2165962 -0.32712421 -0.021990033 67 7 -0.018824117
-2.9347084 -0.78854924 0.81424475 96 15 -0.018821813
-1.1906911 -0.31837678 -0.33025309 77 0 -0.018801078
-1.1900617 -0.31798595 0.021501366 69 8 -0.018798774
-1.1936812 -0.31872961 -0.28523794 55 1 -0.01879647
-1.1848631 -0.3161535 0.064268559 65 9 -0.018794166
-1.2083185 -0.32241204 -0.24309067 58 2 -0.018791862
-1.2032056 -0.32082319 0.10894467 65 10 -0.018789558
-1.2025311 -0.32041824 -0.19710746 59 3 -0.018787254
-1.1758913 -0.31310022 0.14941183 75 11 -0.01878495
-1.2028028 -0.32004133 -0.15282416 57 4 -0.018782645
-1.1797901 -0.31369737 0.19335303 60 12 -0.018780341
-1.2034293 -0.31998286 -0.10894467 67 5 -0.018778037
-1.1968305 -0.31778136 -0.064896591 60 6 -0.018773429
-2.9270604 -0.7766428 0.69914788 79 14 -0.018771125
-1.2273953 -0.32543799 -0.022164557 74 7 -0.018768821
-2.9393106 -0.77879506 0.81476241 91 15 -0.018766517
-1.2030033 -0.31717351 -0.33335894 70 0 -0.018745782
-1.200833 -0.31637722 0.02167589 67 8 -0.018743478
-1.2079782 -0.31803399 -0.28838724 56 1 -0.018741174
-1.1936854 -0.31404859 0.064687252 67 9 -0.01873887
-1.2037405 -0.31669396 -0.2419458 60 2 -0.018736565
-1.2043182 -0.31662121 0.10894467 65 10 -0.018734261
-1.217016 -0.31973216 -0.19929753 62 3 -0.018731957
-1.1980973 -0.31453869 0.15209295 77 11 -0.018729653
-1.2077528 -0.31684795 -0.15331164 57 4 -0.018727349
-1.1866103 -0.31107998 0.19429164 58 12 -0.018725045
-1.2161026 -0.31881163 -0.10999054 67 5 -0.018722741
-1.2133898 -0.31764787 -0.065733969 59 6 -0.018718135
-2.925983 -0.76543427 0.69824809 77 14 -0.018715831
-1.2227196 -0.31963459 -0.022059841 67 7 -0.018713526
-2.9401419 -0.76804185 0.81424475 96 15 -0.018711222
-1.2153214 -0.3158882 -0.33646476 70 0 -0.018690486
-1.2154784 -0.31570223 0.021920223 65 8 -0.018688181
-1.2147398 -0.3152844 -0.28973696 55 1 -0.018685877
-1.2063742 -0.31288838 0.065315276 65 9 -0.018683573
-1.2067391 -0.31298304 -0.24232745 58 2 -0.018681269
-1.2034875 -0.31191525 0.10877036 67 10 -0.018678965
-1.2315108 -0.31894916 -0.20148762 57 3 -0.018676661
-1.224171 -0.31682029 0.15526156 72 11 -0.018674357
-1.2280703 -0.31760046 -0.15574904 56 4 -0.018672053
-1.1876889 -0.30693629 0.19429164 54 12 -0.018669751
-1.2094918 -0.31257087 -0.1092933 66 5 -0.018667446
-1.2260946 -0.31640473 -0.066361994 58 6 -0.018662838
-2.9267502 -0.75473011 0.69779819 82 14 -0.018660534
-1.223828 -0.31536421 -0.022059841 72 7 -0.01865823
-2.9259675 -0.75343847 0.80958605 88 15 -0.018655926
-1.208931 -0.30972645 -0.33439422 70 0 -0.018635189
-1.2165729 -0.31145775 0.021920223 65 8 -0.018632885
-1.2328243 -0.31538907 -0.29378608 51 1 -0.018630581
-1.2210044 -0.31213787 0.066047981 63 9 -0.018628277
-1.2154326 -0.3107135 -0.24385393 57 2 -0.018625975
-1.2200121 -0.3116577 0.11016486 67 10 -0.018623669
-1.2249604 -0.31269407 -0.20023614 57 3 -0.018621366
-1.2252696 -0.31254488 0.15526156 75 11 -0.018619062
-1.2445599 -0.31723449 -0.15769894 56 4 -0.018616758
-1.2078958 -0.30766442 0.19742033 50 12 -0.018614454
-1.214437 -0.30933058 -0.10964192 72 5 -0.01861215
-1.4783152 -0.37626815 0.29651719 6 13 -0.018609846
-1.2349341 -0.3140924 -0.066780686 60 6 -0.018607542
-2.9293668 -0.74450916 0.69779819 82 14 -0.018605238
-1.2423649 -0.31552041 -0.022373985 74 7 -0.018602934
-2.9210894 -0.74132007 0.80751544 91 15 -0.01860063
-1.2249895 -0.30928764 -0.33853534 73 0 -0.018582344
-1.2234696 -0.30867678 0.022024937 67 8 -0.01858004
-1.232028 -0.31060764 -0.29333615 55 1 -0.018577736
-1.2394625 -0.31248197 0.066990033 67 9 -0.018575432
-1.2412587 -0.31270409 -0.24881494 60 2 -0.018573128
-1.2249566 -0.30836987 0.11051348 63 10 -0.018570824
-1.2337074 -0.31034383 -0.20148762 57 3 -0.01856852
-1.226353 -0.30826628 0.15526156 75 11 -0.018566215
-1.2495103 -0.31385541 -0.15818642 57 4 -0.018563911
-1.2299838 -0.30895072 0.20086187 47 12 -0.018561607
-1.2348341 -0.30993959 -0.11138504 70 5 -0.018559303
-1.4567684 -0.36537454 0.29193777 8 13 -0.018557001
-1.2360229 -0.30977973 -0.066780686 58 6 -0.018554697
-2.9319479 -0.73427844 0.69779819 82 14 -0.018552393
-1.255043 -0.31431359 -0.022583414 72 7 -0.018550089
-2.9179096 -0.73022228 0.8059625 93 15 -0.018547785
-1.2410593 -0.30874071 -0.34267643 66 0 -0.018527048
-1.2283676 -0.30558336 0.022094747 63 8 -0.018524744
-1.2406161 -0.30840054 -0.29513577 52 1 -0.01852244
-1.2289157 -0.30526423 0.066361994 67 9 -0.018520135
-1.2575861 -0.31215304 -0.25186789 60 2 -0.018517831
-1.2492312 -0.30984774 0.11260521 63 10 -0.018515527
-1.2462333 -0.3091042 -0.20336483 55 3 -0.018513223
-1.2350758 -0.30610797 0.15623651 75 11 -0.018510921
-1.2543979 -0.31066453 -0.1586739 57 4 -0.018508617
-1.2387248 -0.30655348 0.20211335 44 12 -0.018506313
-1.2513813 -0.30945387 -0.11277953 68 5 -0.018504009
-1.4655954 -0.36242688 0.29346424 3 13 -0.018501705
-1.2447993 -0.30759567 -0.067199372 58 6 -0.0184994
-2.9230151 -0.72174937 0.69509876 82 14 -0.018497096
-1.2755471 -0.31472129 -0.022932461 70 7 -0.018494792
-2.9279437 -0.72188216 0.80803311 93 15 -0.018492488
-1.2495813 -0.30646408 -0.34474698 71 0 -0.018471751
-1.2527335 -0.30700538 0.022513606 63 8 -0.018469447
-1.2511491 -0.30638593 -0.29738528 51 1 -0.018467143
-1.2377338 -0.30287153 0.066780686 67 9 -0.018464841
-1.2548006 -0.30704772 -0.25110465 61 2 -0.018462537
-1.256058 -0.30712312 0.11312816 59 10 -0.018460233
-1.270332 -0.31037864 -0.20711927 57 3 -0.018457929
-1.2438506 -0.30367815 0.15721147 75 11 -0.018455625
-1.2593319 -0.30722493 -0.15916139 54 4 -0.01845332
-1.2378683 -0.30175981 0.20180048 36 12 -0.018451016
-1.2601435 -0.30718991 -0.11347678 71 5 -0.018448712
-1.4859264 -0.36195511 0.29728043 6 13 -0.018446408
-1.257509 -0.30608273 -0.067827404 60 6 -0.018444104
-2.9103682 -0.70785731 0.69149953 82 14 -0.0184418
-1.2688656 -0.30837789 -0.022792844 72 7 -0.018439496
-2.9210591 -0.70937777 0.8054449 88 15 -0.018437192
-1.2543991 -0.30300754 -0.34578225 63 0 -0.018416457
-1.2576851 -0.30356929 0.022583414 60 8 -0.018414153
-1.2654719 -0.30521479 -0.30053461 52 1 -0.018411849
-1.2465502 -0.30042094 0.067199372 67 9 -0.018409545
-1.2577733 -0.30312574 -0.25148627 58 2 -0.018407241
-1.2493743 -0.30087116 0.11243091 60 10 -0.018404936
-1.2752486 -0.30686638 -0.207745 55 3 -0.018402632
-1.2603438 -0.30304709 0.15916139 70 11 -0.018400328
-1.2719775 -0.30560991 -0.1606238 54 4 -0.018398024
-1.2504388 -0.30020383 0.2036777 28 12 -0.01839572
-1.2612081 -0.3027893 -0.11347678 71 5 -0.018393416
-1.5005442 -0.35997185 0.29995176 4 13 -0.018391112
-1.2702231 -0.30448508 -0.068455435 60 6 -0.018388808
-2.9204023 -0.69950956 0.69329917 82 14 -0.018386504
-1.2777132 -0.3058086 -0.022932461 72 7 -0.0183842
-2.9047291 -0.69468349 0.80026853 91 15 -0.018381895
-1.259208 -0.29952136 -0.34681752 63 0 -0.018361161
-1.2626282 -0.30010211 0.022653224 60 8 -0.018358856
-1.2854897 -0.30529851 -0.30503362 52 1 -0.018356552
-1.2689151 -0.3013621 0.06835077 63 9 -0.018354248
-1.2798358 -0.30372012 -0.25568405 55 2 -0.018351944
-1.2542942 -0.29742724 0.11277953 59 10 -0.01834964
-1.2840008 -0.3042348 -0.20899647 55 3 -0.018347336
-1.2691205 -0.30047545 0.16013633 70 11 -0.018345032
-1.2884908 -0.30482373 -0.16257372 54 4 -0.018342728
-1.2552722 -0.29696509 0.20430344 18 12 -0.018340424
-1.2700131 -0.30021834 -0.11417402 71 5 -0.01833812
-1.5151665 -0.35789132 0.30262309 6 13 -0.018335816
-1.2809976 -0.30234292 -0.068978801 57 6 -0.018333511
-2.9152391 -0.68752187 0.69149953 90 14 -0.018331207
-1.2942909 -0.30524194 -0.023211701 72 7 -0.018328903
-2.9032557 -0.6841616 0.7992332 88 15 -0.018326599
-1.2752935 -0.29864794 -0.35095865 63 0 -0.018305864
-1.2675104 -0.29682529 0.022723034 60 8 -0.01830356
-1.278905 -0.29925793 -0.30323401 50 1 -0.018301256
-1.2855176 -0.30056891 0.06918814 63 9 -0.018298952
-1.2942706 -0.30237728 -0.25835541 52 2 -0.018296648
-1.2689064 -0.29621762 0.11399971 58 10 -0.018294344
-1.2888498 -0.30087331 -0.2096222 53 3 -0.01829204
-1.2720432 -0.29671615 0.16038008 68 11 -0.018289736
-1.3049606 -0.30415431 -0.16452362 53 4 -0.018287431
-1.2697684 -0.2957179 0.20649351 11 12 -0.018285127
-1.2826965 -0.29849309 -0.11521988 74 5 -0.018282823
-1.5029596 -0.34974995 0.29995176 2 13 -0.018280519
-1.2878294 -0.29945028 -0.069292814 62 6 -0.018278217
-2.9212995 -0.67873269 0.69239932 78 14 -0.018275913
-1.3070357 -0.30343571 -0.023421129 70 7 -0.018273609
-2.9150357 -0.6762051 0.80182141 96 15 -0.018271305
-1.2875713 -0.29702267 -0.35406446 61 0 -0.018250568
-1.2802303 -0.29509389 0.022932461 56 8 -0.018248264
-1.2780428 -0.29435477 -0.30278412 49 1 -0.01824596
-1.276827 -0.29384014 0.068664782 59 9 -0.018243656
-1.3048325 -0.30028513 -0.26026347 54 2 -0.018241351
-1.2795902 -0.29424059 0.11487127 60 10 -0.018239047
-1.3052939 -0.29991162 -0.21212517 55 3 -0.018236743
-1.2788755 -0.29360661 0.16111128 66 11 -0.018234439
-1.3021448 -0.29870927 -0.16403615 54 4 -0.018232137
-1.2746438 -0.29216674 0.20711927 9 12 -0.018229833
-1.2953833 -0.2966826 -0.11626577 72 5 -0.018227529
-1.5137398 -0.34669298 0.30185983 1 13 -0.018225225
-1.2888668 -0.29495308 -0.069292814 59 6 -0.018222921
-2.9103527 -0.66549122 0.68925005 89 14 -0.018220617
-1.3236825 -0.30243471 -0.023700368 66 7 -0.018218312
-2.9117284 -0.66473562 0.80026853 91 15 -0.018216008
-1.3037233 -0.29572019 -0.35820559 65 0 -0.018195271
-1.2910036 -0.29283503 0.023106987 58 8 -0.018192967
-1.2999684 -0.29462993 -0.30773303 52 1 -0.018190663
-1.2875847 -0.291587 0.06918814 63 9 -0.018188359
-1.3020946 -0.29463404 -0.25950024 54 2 -0.018186055
-1.2981502 -0.29350337 0.11644007 67 10 -0.018183753
-1.3198723 -0.29817244 -0.21431525 52 3 -0.018181449
-1.295383 -0.29264009 0.1630612 63 11 -0.018179145
-1.3089887 -0.29547366 -0.16476737 52 4 -0.018176841
-1.2640939 -0.28510788 0.20524204 4 12 -0.018174537
-1.3119602 -0.29566288 -0.11766025 68 5 -0.018172232
-2.9189136 -0.65727073 0.58158582 62 13 -0.018169928
-1.3133216 -0.29548833 -0.070548877 60 6 -0.018167624
-2.9127724 -0.65481901 0.68925005 76 14 -0.01816532
-1.3169262 -0.29605758 -0.023560748 70 7 -0.018163016
-2.9102609 -0.65372157 0.7992332 91 15 -0.018160712
-1.3009768 -0.290326 -0.35717031 63 0 -0.018139975
-1.301827 -0.29027724 0.023281511 56 8 -0.018137673
-1.3200605 -0.29410109 -0.31223205 50 1 -0.018135369
-1.3022915 -0.2899037 0.069920845 59 9 -0.018133065
-1.3088644 -0.29136688 -0.26064509 52 2 -0.018130761
-1.3011117 -0.28940275 0.11661438 60 10 -0.018128457
-1.3247616 -0.29442051 -0.21494098 52 3 -0.018126152
-1.3061363 -0.29004192 0.16427989 61 11 -0.018123848
-1.3294425 -0.29497388 -0.16720475 51 4 -0.018121544
-2.0172658 -0.44721732 0.32726091 9 12 -0.01811924
-1.3168746 -0.29194424 -0.11800887 68 5 -0.018116936
-2.9307742 -0.64920074 0.58349395 82 13 -0.018114632
-1.3260454 -0.29349178 -0.071176901 58 6 -0.018112328
-2.8979156 -0.64086109 0.68520093 82 14 -0.018110024
-1.3297182 -0.29381785 -0.023770178 68 7 -0.01810772
-2.9032054 -0.64096737 0.79664505 100 15 -0.018105416
-1.3133038 -0.28826803 -0.36027613 61 0 -0.018084681
-1.3047855 -0.28615987 0.023316415 53 8 -0.018082377
-1.3363078 -0.29282847 -0.31583127 52 1 -0.018080072
-1.3189038 -0.28877351 0.070758224 59 9 -0.018077768
-1.3271337 -0.29057541 -0.26407966 54 2 -0.018075464
-1.3098992 -0.28656238 0.11731163 60 10 -0.01807316
-1.3296409 -0.29063803 -0.21556671 52 3 -0.018070856
-1.3110195 -0.28632799 0.16476737 58 11 -0.018068552
-1.3421006 -0.29287076 -0.16866718 51 4 -0.018066248
-1.692639 -0.36905512 0.27438608 9 12 -0.018063944
-1.3217789 -0.28819451 -0.11835749 70 5 -0.01806164
-2.9176764 -0.63562322 0.580441 48 13 -0.018059336
-1.3348682 -0.29056007 -0.071595594 58 6 -0.018057032
-2.9115601 -0.63322634 0.6879003 80 14 -0.018054727
-1.3483225 -0.29299611 -0.024084322 64 7 -0.018052423
-2.8959858 -0.62877983 0.79405683 88 15 -0.018050119
-1.3294089 -0.28694296 -0.36441725 65 0 -0.018029384
-1.3135955 -0.28328949 0.023456035 52 8 -0.01802708
-1.3316067 -0.28693062 -0.31448159 51 1 -0.018024776
-1.3296664 -0.28626999 0.071281582 57 9 -0.018022472
-1.3396555 -0.28842062 -0.26636937 50 2 -0.018020168
-1.3225785 -0.28450221 0.11835749 65 10 -0.018017864
-1.342235 -0.28848544 -0.21744394 51 3 -0.01801556
-1.3333602 -0.28633487 0.16744849 63 11 -0.018013256
-1.3625239 -0.29234862 -0.17110457 49 4 -0.018010952
-1.5220144 -0.32629171 0.24654076 19 12 -0.018008647
-1.3344656 -0.28608474 -0.11940337 68 5 -0.018006343
-2.910279 -0.62337792 0.57853287 46 13 -0.018004039
-1.3397803 -0.286735 -0.071804941 58 6 -0.018001735
-2.9099414 -0.62224418 0.68700051 82 14 -0.017999433
-1.3610705 -0.29079431 -0.024293751 62 7 -0.017997129
-2.9019413 -0.61947435 0.79509211 88 15 -0.017994825
-1.3493003 -0.28631064 -0.36959362 63 0 -0.017974088
-1.3302261 -0.28202033 0.023735272 52 8 -0.017971784
-1.3402258 -0.2838963 -0.31628117 51 1 -0.01796948
-1.3306576 -0.28162649 0.071281582 57 9 -0.017967176
-1.3540992 -0.28658777 -0.2690407 52 2 -0.017964872
-1.3411072 -0.2835936 0.1199263 63 10 -0.017962568
-1.3548299 -0.28624874 -0.21932115 51 3 -0.017960263
-1.3188133 -0.27839839 0.16549858 57 11 -0.017957959
-1.3635361 -0.28759071 -0.17110457 51 4 -0.017955655
-1.5907962 -0.33523378 0.25749114 29 12 -0.017953351
-1.358851 -0.28635517 -0.12149511 68 5 -0.017951049
-2.912437 -0.61321598 0.57853287 47 13 -0.017948745
-1.3407731 -0.28205651 -0.071804941 58 6 -0.017946441
-2.8911178 -0.60767412 0.6820516 75 14 -0.017944137
-1.3699052 -0.28768569 -0.024433369 60 7 -0.017941833
-2.9003048 -0.60854739 0.79405683 88 15 -0.017939528
-1.3578562 -0.28317618 -0.37166417 63 0 -0.017918792
-1.3468635 -0.28063875 0.024014512 53 8 -0.017916488
-1.3564713 -0.28239369 -0.3198804 49 1 -0.017914183
-1.3354948 -0.27802673 0.071490921 55 9 -0.017911879
-1.3550913 -0.28185934 -0.2690407 51 2 -0.017909575
-1.361596 -0.28296474 0.12166941 67 10 -0.017907271
-1.375162 -0.28553367 -0.22244984 49 3 -0.017904969
-1.3567076 -0.2814545 0.17012961 65 11 -0.017902665
-1.366426 -0.28347066 -0.1713483 48 4 -0.017900361
-1.816274 -0.37646329 0.29378396 24 12 -0.017898057
-1.3598423 -0.2816098 -0.12149511 67 5 -0.017895753
-2.9145598 -0.60304588 0.57853287 47 13 -0.017893448
-1.3652202 -0.28222692 -0.073060997 58 6 -0.017891144
-2.8854835 -0.59650534 0.68025202 77 14 -0.01788884
-1.3747684 -0.28395027 -0.024503179 62 7 -0.017886536
-2.902307 -0.59892619 0.79405683 88 15 -0.017884232
-1.3625727 -0.279448 -0.37269944 68 0 -0.017863495
-1.3693358 -0.28058633 0.024398465 56 8 -0.017861191
-1.365037 -0.27945727 -0.32168001 49 1 -0.017858889
-1.3520628 -0.27680114 0.072328299 56 9 -0.017856585
-1.3733295 -0.28090489 -0.27247527 55 2 -0.017854281
-1.3527666 -0.27645329 0.12079786 60 10 -0.017851977
-1.387714 -0.2833429 -0.22432704 49 3 -0.017849673
-1.3576335 -0.27695391 0.17012961 60 11 -0.017847368
-1.3829188 -0.28211206 -0.17329822 48 4 -0.017845064
-1.9975216 -0.40712693 0.32288077 27 12 -0.01784276
-1.3763872 -0.28027961 -0.12288959 61 5 -0.017840456
-2.9126961 -0.59259462 0.57776964 47 13 -0.017838152
-1.3778921 -0.28008485 -0.073689036 58 6 -0.017835848
-2.8912654 -0.58770901 0.68115181 75 14 -0.017833544
-1.3835411 -0.28098205 -0.024642797 62 7 -0.01783124
-2.8948107 -0.58737761 0.79146868 93 15 -0.017828936
-1.3710667 -0.27645564 -0.37476999 60 0 -0.017808201
-1.3682983 -0.27564895 0.024363559 54 8 -0.017805897
-1.3869708 -0.27915871 -0.32662892 50 1 -0.017803593
-1.3726014 -0.27601731 0.073375016 57 9 -0.017801289
-1.383877 -0.27828473 -0.27438337 52 2 -0.017798984
-1.3673496 -0.27471292 0.12201804 63 10 -0.01779668
-1.388646 -0.27873948 -0.22432704 49 3 -0.017794376
-1.3702224 -0.27479225 0.17159206 60 11 -0.017792072
-1.4014127 -0.28079328 -0.17549187 46 4 -0.017789768
-1.9989307 -0.40015176 0.32288077 30 12 -0.017787464
-1.3812164 -0.2764959 -0.12323821 61 5 -0.01778516
-2.9069448 -0.58139229 0.57624322 48 13 -0.017782856
-1.3925231 -0.27825347 -0.074421734 57 6 -0.017780552
-2.8913882 -0.57723218 0.68070191 82 14 -0.017778248
-1.4002023 -0.27927971 -0.024922037 64 7 -0.017775944
-2.8873703 -0.57538146 0.78888047 88 15 -0.017773639
-1.3871839 -0.27466989 -0.37891111 63 0 -0.017752904
-1.3692522 -0.27087095 0.024363559 53 8 -0.0177506
-1.3936722 -0.2754491 -0.32797864 49 1 -0.017748296
-1.3872725 -0.27393267 0.074107721 58 9 -0.017745992
-1.4060266 -0.2776359 -0.27858114 50 2 -0.017743688
-1.3800284 -0.27225205 0.12306391 63 10 -0.017741384
-1.4051154 -0.27694643 -0.22683001 48 3 -0.01773908
-1.3750687 -0.27077496 0.17207953 60 11 -0.017736776
-1.414071 -0.27819884 -0.1769543 50 4 -0.017734472
-2.0138831 -0.39583853 0.32507086 25 12 -0.017732168
-1.397813 -0.27474692 -0.12463271 60 5 -0.017729864
-2.8973978 -0.56897169 0.57395351 49 13 -0.017727559
-1.4052451 -0.27569833 -0.075049765 54 6 -0.017725255
-2.8914733 -0.56676024 0.68025202 79 14 -0.017722951
-1.4149054 -0.27708045 -0.02516637 61 7 -0.017720647
-2.8874652 -0.56492883 0.78836286 93 15 -0.017718345
-1.3995124 -0.27203768 -0.38201693 60 0 -0.017697608
-1.3858936 -0.26913944 0.024642797 53 8 -0.017695304
-1.4003644 -0.27169639 -0.32932836 50 1 -0.017693
-1.3842987 -0.26832837 0.073898375 58 9 -0.017690696
-1.4108421 -0.27347344 -0.27934438 50 2 -0.017688392
-1.3985748 -0.27084234 0.12463271 60 10 -0.017686088
-1.4099525 -0.27279007 -0.22745575 46 3 -0.017683784
-1.3701583 -0.26484317 0.1713483 59 11 -0.017681479
-1.4130844 -0.2728847 -0.17671056 47 4 -0.017679175
-2.0462863 -0.39479318 0.33007675 22 12 -0.017676871
-1.4144616 -0.27263856 -0.12602721 60 5 -0.017674567
-2.8858716 -0.55625403 0.57128215 74 13 -0.017672265
-1.3905092 -0.26777005 -0.074212395 49 6 -0.017669961
-2.8857791 -0.55519086 0.67845237 77 14 -0.017667657
-1.4296101 -0.27478224 -0.025410704 58 7 -0.017665353
-2.8894198 -0.55484617 0.78836286 85 15 -0.017663049
-1.4156815 -0.26979998 -0.38615805 55 0 -0.017642312
-1.4025393 -0.26729533 0.024922037 54 8 -0.017640008
-1.4147047 -0.26935762 -0.33247766 48 1 -0.017637704
-1.3950373 -0.26536068 0.074421734 55 9 -0.017635399
-1.4195498 -0.26976705 -0.28087085 48 2 -0.017633095
-1.4113026 -0.26794422 0.12567857 59 10 -0.017630791
-1.4225873 -0.26982948 -0.22933295 46 3 -0.017628487
-1.4081305 -0.2670874 0.17597936 65 11 -0.017626185
-1.4218298 -0.26942909 -0.17768551 47 4 -0.017623881
-2.0360067 -0.38544372 0.32819954 22 12 -0.017621577
-1.4271507 -0.26992103 -0.12707306 60 5 -0.017619273
-2.8994658 -0.54785931 0.57357186 76 13 -0.017616969
-1.4150324 -0.26711753 -0.075468451 50 6 -0.017614665
-2.8763049 -0.54244399 0.675753 74 14 -0.01761236
-1.4325256 -0.27016082 -0.025445608 67 7 -0.017610056
-2.8894405 -0.54439837 0.78784519 88 15 -0.017607752
-1.4261094 -0.26663148 -0.38874623 54 0 -0.017587015
-1.4192352 -0.2650899 0.025201276 54 8 -0.017584711
-1.4310077 -0.26703072 -0.33607689 49 1 -0.017582407
-1.411708 -0.26317403 0.075259112 55 9 -0.017580103
-1.4301329 -0.26660883 -0.28277895 47 2 -0.017577801
-1.4161468 -0.26374578 0.12602721 59 10 -0.017575497
-1.4429411 -0.2684758 -0.23246165 47 3 -0.017573193
-1.4208101 -0.26410118 0.17744178 58 11 -0.017570889
-1.4403733 -0.26747757 -0.17987917 48 4 -0.017568585
-2.031579 -0.37689778 0.32726091 18 12 -0.01756628
-1.4280843 -0.26493767 -0.12707306 57 5 -0.017563976
-2.9052215 -0.53845114 0.5743351 78 13 -0.017561672
-1.4238117 -0.26363099 -0.075887144 50 6 -0.017559368
-2.8820133 -0.53310937 0.67665279 75 14 -0.017557064
-1.4453046 -0.26708883 -0.025655037 63 7 -0.01755476
-2.8838174 -0.5324021 0.78577471 87 15 -0.017552456
-1.4251313 -0.26130337 -0.3882286 49 0 -0.017531721
-1.4319537 -0.26229632 0.025410704 53 8 -0.017529417
-1.4549341 -0.26624331 -0.34147573 41 1 -0.017527113
-1.4342297 -0.2621955 0.076410502 60 9 -0.017524809
-1.4387797 -0.26302731 -0.28430542 46 2 -0.017522505
-1.4248986 -0.26023304 0.12672445 60 10 -0.0175202
-1.4477562 -0.26414609 -0.23308739 47 3 -0.017517896
-1.4412524 -0.2626996 0.17987917 56 11 -0.017515592
-1.4627811 -0.2663599 -0.18256028 49 4 -0.017513288
-2.0056736 -0.36485434 0.32288077 11 12 -0.017510984
-1.4368414 -0.26137742 -0.12777032 58 5 -0.01750868
-2.8916304 -0.52549839 0.57128215 78 13 -0.017506376
-1.448305 -0.26294059 -0.077143207 50 6 -0.017504072
-2.8876915 -0.52374142 0.67755258 74 14 -0.017501768
-1.4580342 -0.26418129 -0.025864467 67 7 -0.017499464
-2.8780544 -0.52095604 0.7837041 88 15 -0.01749716
-1.4488512 -0.26042864 -0.39444023 46 0 -0.017476425
-1.4230195 -0.25552908 0.02523618 51 8 -0.01747412
-1.4481822 -0.25978628 -0.33967611 38 1 -0.017471816
-1.446932 -0.25930136 0.077038541 59 9 -0.017469512
-1.4590139 -0.26146653 -0.28812161 46 2 -0.017467208
-1.4395267 -0.25771534 0.12794463 58 10 -0.017464904
-1.4603364 -0.26117748 -0.23496459 47 3 -0.0174626
-1.4480231 -0.25871447 0.18061039 55 11 -0.017460296
-1.4676104 -0.26195014 -0.18304777 48 4 -0.017457992
-2.0224924 -0.36062497 0.32538372 15 12 -0.017455688
-1.4573594 -0.25985768 -0.12951343 58 5 -0.017453384
-2.8895812 -0.51471281 0.57051897 78 13 -0.01745108
-1.4531467 -0.25858322 -0.077352546 50 6 -0.017448775
-2.8818276 -0.51229399 0.675753 75 14 -0.017446471
-1.4746985 -0.26188728 -0.026143704 67 7 -0.017444167
-2.8798554 -0.51090652 0.7837041 88 15 -0.017441863
-1.4611667 -0.25738037 -0.39754605 49 0 -0.017421128
-1.4534442 -0.25575855 0.025759753 52 8 -0.017418824
-1.4625154 -0.25709125 -0.34282541 39 1 -0.01741652
-1.4537296 -0.25528568 0.077352546 57 9 -0.017414216
-1.4715196 -0.25840974 -0.29041129 45 2 -0.017411912
-1.4580795 -0.25578687 0.12951343 57 10 -0.017409608
-1.476805 -0.2588062 -0.23746756 46 3 -0.017407304
-1.452828 -0.2543433 0.18109787 55 11 -0.017405
-1.4646049 -0.25614128 -0.18256028 47 4 -0.017402695
-2.0217931 -0.35322297 0.32507086 14 12 -0.017400391
-1.473959 -0.25751209 -0.13090792 58 5 -0.017398087
-2.8874919 -0.50394869 0.56975567 78 13 -0.017395783
-1.469781 -0.25625354 -0.078189924 50 6 -0.017393481
-2.8701594 -0.49989071 0.67260367 82 14 -0.017391177
-1.4913645 -0.25948057 -0.026422944 63 7 -0.017388873
-2.8816214 -0.50085074 0.7837041 88 15 -0.017386569
-1.4753824 -0.25457779 -0.40116954 45 0 -0.017365832
-1.4681227 -0.25306091 0.026004087 51 8 -0.017363528
-1.4749266 -0.25396901 -0.34552482 36 1 -0.017361224
-1.4624853 -0.25156394 0.077771239 57 9 -0.01735892
-1.4724127 -0.25327155 -0.29041129 46 2 -0.017356616
-1.4766359 -0.25373229 0.13108224 50 10 -0.017354311
-1.4971683 -0.2569918 -0.24059623 47 3 -0.017352007
-1.4615332 -0.25061238 0.18207282 55 11 -0.017349703
-1.4830993 -0.25404358 -0.18475394 47 4 -0.017347399
-2.0113311 -0.34416479 0.32319364 11 12 -0.017345097
-1.4866319 -0.25438198 -0.13195379 61 5 -0.017342793
-2.9085855 -0.49717352 0.57357186 70 13 -0.017340489
-1.4824792 -0.25313845 -0.078817956 48 6 -0.017338185
-2.8699658 -0.48954186 0.67215377 70 14 -0.017335881
-1.4922612 -0.25427276 -0.026422944 63 7 -0.017333576
-2.8871608 -0.49143717 0.78473938 87 15 -0.017331272
-1.4762622 -0.24942578 -0.40116954 45 0 -0.017310536
-1.4808279 -0.24993174 0.026213516 50 8 -0.017308231
-1.5046285 -0.25367874 -0.35227334 38 1 -0.017305927
-1.4751717 -0.24844721 0.078399271 56 9 -0.017303623
-1.4849037 -0.25008628 -0.29270101 46 2 -0.017301321
-1.4775126 -0.24857666 0.13108224 49 10 -0.017299015
-1.5136408 -0.25438321 -0.24309918 45 3 -0.017296713
-1.4898069 -0.25010997 0.18548515 55 11 -0.017294409
-1.5035547 -0.25214854 -0.18719132 45 4 -0.017292105
-1.9306947 -0.32343423 0.31005314 7 12 -0.017289801
-1.4914409 -0.24984945 -0.13230242 61 5 -0.017287496
-1.501083 -0.25092611 -0.079760008 52 6 -0.017282888
-1.5049744 -0.25103629 -0.026632372 63 7 -0.01727828
-1.4847476 -0.24553221 -0.40324008 41 0 -0.017257214
-1.4895833 -0.2460648 0.026353134 50 8 -0.01725491
-1.5189641 -0.25064591 -0.35542265 39 1 -0.017252605
-1.4996779 -0.24719463 0.079655334 48 9 -0.017250301
-1.4973904 -0.24681757 -0.29499072 47 2 -0.017247997
-1.4862349 -0.24471238 0.13177948 49 10 -0.017245693
-1.5125703 -0.24877708 -0.24278632 44 3 -0.017243389
-1.5024238 -0.24683933 0.18694758 55 11 -0.017241085
-1.5220556 -0.24979191 -0.18938497 42 4 -0.017238781
-1.9181664 -0.31445536 0.30786306 9 12 -0.017236477
-1.4962361 -0.24528605 -0.13265103 60 5 -0.017234173
-2.0265713 -0.33186409 0.39917243 4 13 -0.01723187
-1.5157473 -0.24794175 -0.080492713 49 6 -0.017229566
-2.0347831 -0.33247906 0.47599643 6 14 -0.017227262
-1.5255772 -0.24900298 -0.026981421 63 7 -0.017224958
-2.0039167 -0.32671794 0.54403764 5 15 -0.017222654
-1.5084802 -0.24405034 -0.40945172 41 0 -0.017201917
-1.5003035 -0.24245876 0.026527658 48 8 -0.017199613
-1.5102104 -0.24378937 -0.35317314 38 1 -0.017197309
-1.5123624 -0.24386592 0.080283366 46 9 -0.017195005
-1.5234395 -0.24565208 -0.29995176 43 2 -0.017192701
-1.5008494 -0.24174073 0.13299966 45 10 -0.017190397
-1.5290319 -0.2460063 -0.24528927 44 3 -0.017188093
-1.5013163 -0.24127835 0.18670385 54 11 -0.01718579
-1.5346783 -0.24636526 -0.19084741 44 4 -0.017183486
-1.9621625 -0.31463897 0.31474617 2 12 -0.017181182
-1.5206903 -0.24384752 -0.13474278 60 5 -0.017178878
-2.03741 -0.32634044 0.40108052 4 13 -0.017176574
-1.5205479 -0.24327995 -0.080702052 49 6 -0.01717427
-2.0263097 -0.32383707 0.47374693 36 14 -0.017171966
-1.5382853 -0.24556756 -0.027190849 63 7 -0.017169662
-2.0107684 -0.32063311 0.54559058 11 15 -0.017167358
-1.5264961 -0.24150011 -0.41411048 42 0 -0.017146621
-1.5208925 -0.24034189 0.026876707 48 8 -0.017144317
-1.5341512 -0.24216233 -0.35857198 38 1 -0.017142013
-1.5151772 -0.23889633 0.080388032 45 9 -0.01713971
-1.5456201 -0.24369621 -0.30414957 45 2 -0.017137406
-1.5312061 -0.24114971 0.13561434 46 10 -0.017135102
-1.5376868 -0.24189535 -0.24654076 44 3 -0.017132798
-1.5060714 -0.23665254 0.18719132 54 11 -0.017130494
-1.5433733 -0.2422379 -0.19182236 43 4 -0.01712819
-1.9144605 -0.30013901 0.30692446 43 12 -0.017125886
-1.5451524 -0.24224083 -0.13683452 58 5 -0.017123582
-2.0870275 -0.32681996 0.41062099 2 13 -0.017121278
-1.5253345 -0.23858841 -0.080911398 49 6 -0.017118974
-2.0120246 -0.31435534 0.47014773 65 14 -0.01711667
-1.5628425 -0.24389645 -0.027609706 53 7 -0.017114365
-2.0156927 -0.31420773 0.54662579 48 15 -0.017112061
-1.5502397 -0.23971306 -0.42032215 42 0 -0.017091326
-1.5316035 -0.23655728 0.027051231 46 8 -0.017089022
-1.5503949 -0.23918259 -0.3621712 38 1 -0.017086718
-1.5238976 -0.23482293 0.080806725 45 9 -0.017084414
-1.5464612 -0.23829983 -0.30414957 43 2 -0.01708211
-1.555669 -0.23944035 0.13770607 49 10 -0.017079806
-1.561951 -0.24012822 -0.25029516 41 3 -0.017077502
-1.5265093 -0.23440722 0.18962872 54 11 -0.017075198
-1.552058 -0.23805277 -0.1927973 43 4 -0.017072894
-1.5538663 -0.23805258 -0.13753176 57 5 -0.017068285
-2.1327908 -0.32636297 0.41939822 4 13 -0.017065981
-1.5478755 -0.23658186 -0.082062788 46 6 -0.017063677
-2.0034776 -0.3058596 0.46789822 72 14 -0.017061373
-1.567638 -0.23904249 -0.027679518 53 7 -0.017059069
-2.0263267 -0.30862415 0.54921407 68 15 -0.017056765
-1.5529772 -0.23458837 -0.42083979 41 0 -0.01703603
-1.5541704 -0.2344912 0.027435182 48 8 -0.017033726
-1.572417 -0.23696393 -0.36712012 35 1 -0.017031422
-1.5405083 -0.23187995 0.081644095 45 9 -0.017029118
-1.5666976 -0.23582201 -0.30796573 43 2 -0.017026814
-1.5564952 -0.23400854 0.13770607 49 10 -0.01702451
-1.5823145 -0.23760828 -0.25342387 40 3 -0.017022206
-1.5528388 -0.2329046 0.1927973 55 11 -0.017019901
-1.5725114 -0.23557462 -0.19523472 41 4 -0.017017597
-1.8657147 -0.27916631 0.29878986 69 12 -0.017015293
-1.5625695 -0.23380679 -0.13822901 58 5 -0.017012989
-2.1611009 -0.32297871 0.42474085 5 13 -0.017010685
-1.5704211 -0.23442087 -0.083214179 48 6 -0.017008381
-2.0083878 -0.29943946 0.46879801 72 14 -0.017006077
-1.5704406 -0.23386344 -0.027714422 52 7 -0.017003773
-2.0025508 -0.29785427 0.54248476 70 15 -0.017001469
-1.5633425 -0.23057537 -0.42342797 42 0 -0.016980734
-1.5609144 -0.2299393 0.027539898 47 8 -0.01697843
-1.5886585 -0.23374304 -0.37071934 36 1 -0.016976126
-1.5669969 -0.23027615 0.083004832 44 9 -0.016973821
-1.581108 -0.23234983 -0.31063706 42 2 -0.016971517
-1.5592738 -0.22886358 0.13788037 48 10 -0.016969213
-1.5753164 -0.23093702 -0.25217238 40 3 -0.016966909
-1.5673915 -0.22949585 0.19450349 54 11 -0.016964605
-1.5910019 -0.23266964 -0.19742836 40 4 -0.016962301
-1.575205 -0.23007832 -0.13927487 55 5 -0.016957693
-2.1291893 -0.31061515 0.41825336 8 13 -0.016955389
-1.5909938 -0.23181771 -0.084260903 47 6 -0.016953086
-2.0132775 -0.29298779 0.4696978 74 14 -0.016950782
-1.6029099 -0.23298223 -0.028272899 47 7 -0.016948478
-2.0035782 -0.29086265 0.54248476 69 15 -0.016946174
-1.5889957 -0.22869489 -0.43015727 41 0 -0.016925437
-1.5676457 -0.22534283 0.027644612 45 8 -0.016923133
-1.5971807 -0.22930351 -0.37251896 36 1 -0.016920829
-1.5855845 -0.22735663 0.083946884 45 9 -0.016918525
-1.5935696 -0.2285016 -0.31292677 42 2 -0.016916221
-1.5797859 -0.22624382 0.13962351 48 10 -0.016913917
-1.5898012 -0.22739458 -0.25436246 39 3 -0.016911613
-1.5681829 -0.22402358 0.19450349 51 11 -0.016909309
-1.6055607 -0.22907725 -0.19913453 43 4 -0.016907007
-2.0983815 -0.29901752 0.33570841 2 12 -0.016904702
-1.607558 -0.2290756 -0.14206386 48 5 -0.016902398
-2.114711 -0.30096841 0.41520041 2 13 -0.016900094
-1.5957481 -0.22682439 -0.084470242 47 6 -0.01689779
-2.0104294 -0.28541049 0.46879801 75 14 -0.016895486
-1.6155927 -0.22907031 -0.028482327 52 7 -0.016893182
-2.0084069 -0.28440827 0.54352003 73 15 -0.016890878
-1.6012628 -0.22475798 -0.43326309 35 0 -0.016870141
-1.588226 -0.22264545 0.02799366 45 8 -0.016867837
-1.6076208 -0.22507824 -0.37476847 33 1 -0.016865533
-1.5883465 -0.22209705 0.084051557 44 9 -0.016863229
-1.6099123 -0.22511257 -0.31597972 39 2 -0.016860925
-1.6022717 -0.22375873 0.14154093 46 10 -0.016858622
-1.6140624 -0.22511853 -0.2581169 35 3 -0.016856318
-1.5827183 -0.22046529 0.19620967 48 11 -0.016854014
-1.6122491 -0.22429158 -0.19986574 39 4 -0.01685171
-2.1131084 -0.2935943 0.33789849 2 12 -0.016849406
-1.6122946 -0.22401147 -0.14241248 41 5 -0.016847102
-2.8722069 -0.39855215 0.56364983 97 13 -0.016844798
-1.6103785 -0.22317195 -0.08520294 43 6 -0.016842494
-1.9998312 -0.27678844 0.46609858 72 14 -0.01684019
-1.6322294 -0.2256199 -0.028761568 48 7 -0.016837886
-2.0132148 -0.27792421 0.54455531 73 15 -0.016835582
-1.621178 -0.2217856 -0.43843949 37 0 -0.016814845
-1.6147503 -0.22061919 0.028447423 47 8 -0.016812542
-1.6219126 -0.22130942 -0.37791777 32 1 -0.016810238
-1.5970279 -0.21763 0.084470242 44 9 -0.016807934
-1.6204146 -0.22081695 -0.31788781 38 2 -0.01680563
-1.6227849 -0.22085148 0.14328404 46 10 -0.016803326
-1.6363697 -0.22240943 -0.26155844 40 3 -0.016801022
-1.6051158 -0.21787623 0.19889079 51 11 -0.016798718
-1.6248248 -0.22026272 -0.20132817 38 4 -0.016796414
-2.1082478 -0.28542128 0.33695987 1 12 -0.01679411
-1.624913 -0.21998587 -0.14345835 46 5 -0.016791806
-2.8619072 -0.3869448 0.56136012 82 13 -0.016789502
-1.6348993 -0.22075637 -0.086459011 42 6 -0.016787197
-1.9930602 -0.26876429 0.46429899 74 14 -0.016784893
-1.6349889 -0.22018743 -0.028796472 54 7 -0.016782589
-2.0141728 -0.27089503 0.54455531 71 15 -0.016780285
-1.6257721 -0.21663557 -0.43947476 35 0 -0.01675955
-1.6293861 -0.21682774 0.028691756 45 8 -0.016757246
-1.6419928 -0.21821372 -0.38241678 31 1 -0.016754942
-1.615597 -0.21441889 0.085412286 43 9 -0.016752638
-1.6328526 -0.21670903 -0.32017753 33 2 -0.016750334
-1.6255209 -0.21544729 0.14345835 42 10 -0.01674803
-1.6508442 -0.21851048 -0.26374856 37 3 -0.016745726
-1.6275142 -0.21513346 0.20157191 48 11 -0.016743422
-1.6492 -0.21770716 -0.20425305 39 4 -0.016741117
-2.0896471 -0.27547854 0.33383119 1 12 -0.016738813
-1.6375228 -0.21587491 -0.14450422 45 5 -0.016736509
-2.8651872 -0.37720871 0.56174171 88 13 -0.016734205
-1.655462 -0.21765201 -0.087505728 40 6 -0.016731901
-2.0017149 -0.26282024 0.46609858 74 14 -0.016729597
-1.6476438 -0.21603869 -0.0290059 49 7 -0.016727293
-1.9997818 -0.26185644 0.54041415 70 15 -0.016724989
-1.6475923 -0.21369247 -0.44516876 33 0 -0.016704254
-1.6360824 -0.21190931 0.028796472 44 8 -0.01670195
-1.6582056 -0.21448094 -0.38601601 28 1 -0.016699646
-1.6440297 -0.21264735 0.086877696 41 9 -0.016697342
-1.6511229 -0.21327144 -0.32361206 32 2 -0.016695037
-1.6361433 -0.21104626 0.14432991 44 10 -0.016692733
-1.663352 -0.21426079 -0.26562575 37 3 -0.016690429
-1.6518818 -0.21249022 0.20449677 43 11 -0.016688125
-1.669639 -0.21447822 -0.20669043 40 4 -0.016685821
-2.1062233 -0.27056092 0.33633414 1 12 -0.016683517
-1.6461713 -0.21117118 -0.14520147 45 5 -0.016681213
-2.8606441 -0.36645725 0.56059688 93 13 -0.016678909
-1.6562117 -0.211872 -0.087505728 41 6 -0.016676605
-2.0064862 -0.25632468 0.46699843 72 14 -0.016674303
-1.6721542 -0.21361442 -0.029424759 55 7 -0.016671998
-2.0006392 -0.25522342 0.54041415 69 15 -0.016669694
-1.6636614 -0.20987429 -0.44930989 31 0 -0.016648958
-1.6506637 -0.20823461 0.029040804 45 8 -0.016646653
-1.6627746 -0.20946801 -0.3869158 28 1 -0.016644349
-1.6705233 -0.21014759 0.088238433 44 9 -0.016642045
-1.6752325 -0.210443 -0.32819149 31 2 -0.016639741
-1.6605927 -0.20830996 0.14642164 41 10 -0.016637437
-1.6718934 -0.20972757 -0.26687723 37 3 -0.016635133
-1.6604561 -0.2079981 0.20547174 43 11 -0.016632829
-1.6959478 -0.21214335 -0.20985903 41 4 -0.016630525
-2.8480895 -0.35575876 0.45459861 10 12 -0.016628221
-1.666669 -0.20789011 -0.14694458 41 5 -0.016625918
-2.855999 -0.35623989 0.559452 102 13 -0.016623614
-1.6687969 -0.20785977 -0.08813376 41 6 -0.01662131
-2.0073252 -0.24966946 0.46699843 72 14 -0.016619006
-1.6808274 -0.20876248 -0.029564377 49 7 -0.016616702
-2.001518 -0.24823827 0.54041415 69 15 -0.016614398
-1.6873577 -0.20718138 -0.45552155 31 0 -0.016593661
-1.6632897 -0.20393194 0.029250234 43 8 -0.016591357
-1.684773 -0.20626752 -0.39186475 26 1 -0.016589053
-1.6752117 -0.20479976 0.088447772 44 9 -0.016586749
-1.6915112 -0.20679243 -0.33124444 32 2 -0.016584445
-1.6751183 -0.20449206 0.14764182 38 10 -0.016582141
-1.6961457 -0.20675817 -0.27063167 37 3 -0.016579838
-1.6670835 -0.20292026 0.20620294 42 11 -0.016577534
-1.6947073 -0.20598294 -0.20961528 37 4 -0.01657523
-2.845392 -0.34533814 0.45397288 3 12 -0.016572926
-1.6871637 -0.20446807 -0.14868769 43 5 -0.016570622
-2.8572252 -0.34626833 0.559452 102 13 -0.016568318
-1.681409 -0.20347293 -0.088761792 40 6 -0.016566014
-1.9965765 -0.24125883 0.46429899 75 14 -0.01656371
-1.7133106 -0.20672667 -0.030122854 45 7 -0.016561406
-2.0042903 -0.24148118 0.54093182 68 15 -0.016559102
-1.7034522 -0.20282312 -0.45966265 31 0 -0.016538365
-1.6937765 -0.20167108 0.029773805 42 8 -0.016536061
-1.7087041 -0.20314559 -0.39726356 26 1 -0.016533758
-1.6818663 -0.19965763 0.088761792 41 9 -0.016531454
-1.7059051 -0.2022094 -0.33391577 33 2 -0.01652915
-1.6916852 -0.20022407 0.14903632 36 10 -0.016526846
-1.7204328 -0.20332251 -0.27438608 36 3 -0.016524542
-1.6914383 -0.19989593 0.20912781 37 11 -0.016522238
-1.7072444 -0.20146181 -0.21107772 39 4 -0.016519934
-2.825 -0.33286098 0.4505313 1 12 -0.01651763
-1.7155695 -0.20183666 -0.15112805 43 5 -0.016515326
-2.858475 -0.3357937 0.559452 102 13 -0.016513022
-1.7059474 -0.20010096 -0.090017848 43 6 -0.016510718
-1.9897052 -0.23303261 0.46249935 77 14 -0.016508413
-1.7219663 -0.20167525 -0.030262474 45 7 -0.016506109
-2.0032022 -0.23425899 0.54041415 71 15 -0.016503805
-1.7175834 -0.1984272 -0.4632861 25 0 -0.01648307
-1.7064233 -0.19683656 0.029983234 40 8 -0.016480766
-1.7287967 -0.19911161 -0.4017626 31 1 -0.016478462
-1.7063627 -0.19652781 0.090017848 40 9 -0.016476158
-1.7241541 -0.19827159 -0.33735034 31 2 -0.016473854
-1.7002914 -0.19522722 0.14973356 36 10 -0.01647155
-1.7407571 -0.19956569 -0.27751476 35 3 -0.016469246
-1.7158262 -0.19640374 0.21205269 38 11 -0.016466942
-1.7394927 -0.19911274 -0.21497753 35 4 -0.016464638
-1.7162635 -0.19584733 -0.15112805 43 5 -0.016460029
-2.8635311 -0.32625812 0.56021523 102 13 -0.016457725
-1.7344179 -0.19730532 -0.091483258 40 6 -0.016455421
-1.9982121 -0.22731423 0.46429899 89 14 -0.016453117
-1.7246466 -0.19588926 -0.030297378 44 7 -0.016450813
-1.99441 -0.22617659 0.537826 80 15 -0.016448509
-1.7374301 -0.19488417 -0.4684625 28 0 -0.016427774
-1.717003 -0.19228949 0.030157758 37 8 -0.01642547
-1.7526875 -0.19597611 -0.40716141 31 1 -0.016423166
-1.7328086 -0.19375338 0.091378585 38 9 -0.016420862
-1.7443135 -0.19473156 -0.3411665 32 2 -0.016418558
-1.7147903 -0.19113225 0.15095374 37 10 -0.016416254
-1.7571154 -0.19553982 -0.28001773 36 3 -0.016413949
-1.7342247 -0.19268562 0.21424633 39 11 -0.016411645
-1.7598729 -0.19553533 -0.21741492 34 4 -0.016409341
-2.858614 -0.31710881 0.45553723 9 12 -0.016407037
-1.7367065 -0.19234811 -0.15287116 40 5 -0.016404733
-2.8528891 -0.31546575 0.55792552 102 13 -0.016402429
-1.7509443 -0.19330597 -0.092320636 38 6 -0.016400125
-2.0105767 -0.22196963 0.46699843 74 14 -0.016397821
-1.7531137 -0.19323623 -0.030786045 44 7 -0.016395517
-1.995149 -0.21956156 0.537826 80 15 -0.016393214
-1.7591925 -0.19142021 -0.47415653 30 0 -0.016372478
-1.7255832 -0.18745844 0.030297378 36 8 -0.016370174
-1.7649519 -0.19142359 -0.40986085 29 1 -0.016367869
-1.7493596 -0.18942359 0.092215963 36 9 -0.016365565
-1.7644681 -0.19105957 -0.34498268 32 2 -0.016363261
-1.7352232 -0.18758608 0.15269686 37 10 -0.016360957
-1.773466 -0.19140762 -0.28252068 32 3 -0.016358653
-1.7486696 -0.18842265 0.2159525 38 11 -0.016356349
-1.7723871 -0.19066493 -0.21887736 30 4 -0.016354045
-1.7591256 -0.1889282 -0.1547886 37 5 -0.016349437
-2.8480635 -0.30537614 0.5567807 96 13 -0.016347134
-1.7575334 -0.18813625 -0.092634656 36 6 -0.01634483
-2.0190902 -0.21577883 0.46879801 52 14 -0.016342526
-1.7776387 -0.18966088 -0.031204903 38 7 -0.016340222
-1.9978245 -0.21280044 0.53834367 73 15 -0.016337918
-1.7886684 -0.18831274 -0.48192108 28 0 -0.016317181
-1.7540694 -0.18436018 0.030786045 35 8 -0.016314877
-1.777238 -0.18648173 -0.41256022 31 1 -0.016312573
-1.7579557 -0.18414871 0.092634656 33 9 -0.016310269
-1.7826972 -0.18674043 -0.34841725 30 2 -0.016307965
-1.7576647 -0.1838077 0.15461428 36 10 -0.016305661
-1.7898409 -0.18685675 -0.28502363 32 3 -0.016303357
-1.7572144 -0.18314014 0.21692745 36 11 -0.016301055
-1.7809395 -0.18529907 -0.21985231 30 4 -0.01629875
-2.8470044 -0.29571629 0.45334715 100 12 -0.016296446
-1.7795918 -0.1848449 -0.15653172 38 5 -0.016294142
-2.8510647 -0.29563442 0.55716228 99 13 -0.016291838
-1.7780459 -0.18405704 -0.093681373 36 6 -0.016289534
-2.0159543 -0.20832889 0.46789822 43 14 -0.01628723
-1.8021595 -0.18591702 -0.031623758 36 7 -0.016284926
-2.0139287 -0.20740913 0.54248476 37 15 -0.016282622
-1.8066121 -0.18382753 -0.48657984 27 0 -0.016261885
-1.7745969 -0.18025701 0.031135093 36 8 -0.016259581
-1.8030826 -0.18283297 -0.41840896 27 1 -0.016257277
-1.7724974 -0.17941871 0.093367353 35 9 -0.016254973
-1.7950896 -0.18138906 -0.35070693 29 2 -0.01625267
-1.7682072 -0.17867266 0.15548584 35 10 -0.016250366
-1.8062055 -0.18219429 -0.28752658 29 3 -0.016248062
-1.7835193 -0.17959106 0.22009605 39 11 -0.016245758
-1.8072523 -0.18166225 -0.22302091 31 4 -0.016243454
-2.8362262 -0.28459316 0.45146993 100 12 -0.01624115
-1.8119767 -0.1814983 -0.1593207 31 5 -0.016238846
-2.8462687 -0.2845974 0.5560174 96 13 -0.016236542
-1.7985823 -0.17952214 -0.09472809 33 6 -0.016234238
-2.0302429 -0.20264491 0.47104752 33 14 -0.016231934
-1.8087672 -0.18022037 -0.031728476 36 7 -0.01622963
-2.0684667 -0.20573151 0.55697864 6 15 -0.016227325
-1.8130417 -0.17777069 -0.48813272 24 0 -0.01620659
-1.7991279 -0.176089 0.03155395 37 8 -0.016204286
-1.8231356 -0.17811751 -0.42290798 24 1 -0.016201982
-1.8009728 -0.17563494 0.094832763 35 9 -0.016199678
-1.8172367 -0.17690086 -0.35490477 28 2 -0.016197374
-1.7926464 -0.1745071 0.15757757 37 10 -0.01619507
-1.8245561 -0.17729196 -0.29034239 32 3 -0.016192766
-1.8138028 -0.17592753 0.22375213 38 11 -0.016190462
-1.8217369 -0.17637616 -0.22472709 29 4 -0.016188158
-2.8254528 -0.27305579 0.44959271 100 12 -0.016185854
-1.8126297 -0.17485583 -0.1593207 32 5 -0.01618355
-2.8433843 -0.27378699 0.55525422 91 13 -0.016181245
-1.8210973 -0.17503111 -0.09587948 31 6 -0.016178941
-2.0367913 -0.19576211 0.47239724 11 14 -0.016176637
-1.8253399 -0.17511739 -0.032007713 36 7 -0.016174333
-2.080745 -0.19925368 0.5600844 9 15 -0.016172029
-1.8309908 -0.1727571 -0.49279147 23 0 -0.016151294
-1.805734 -0.17005615 0.031658668 33 8 -0.01614899
-1.843178 -0.17325836 -0.427407 24 1 -0.016146686
-1.8274553 -0.17145824 0.096193492 33 9 -0.016144382
-1.8354352 -0.17220695 -0.35833931 26 2 -0.016142078
-1.8051763 -0.16905013 0.15862344 35 10 -0.016139774
-1.8468286 -0.17262565 -0.29378396 31 3 -0.01613747
-1.8322241 -0.17093799 0.22594579 35 11 -0.016135165
-1.8539957 -0.17264281 -0.22862691 29 4 -0.016132861
-2.8303685 -0.26306373 0.45021844 100 12 -0.016130557
-1.8330675 -0.17037131 -0.16106381 29 5 -0.016128253
-2.8325934 -0.2627719 0.55296451 93 13 -0.016125949
-1.8415847 -0.1705146 -0.096926205 30 6 -0.016123645
-2.7321839 -0.25249535 0.63346219 43 14 -0.016121341
-1.8438907 -0.17007902 -0.032321859 36 7 -0.016119037
-2.0853088 -0.1919802 0.56111974 14 15 -0.016116733
-1.8469743 -0.16776268 -0.4969326 21 0 -0.016095998
-1.834198 -0.1662799 0.032147333 36 8 -0.016093694
-1.8554165 -0.16787654 -0.4301064 22 1 -0.01609139
-1.8419669 -0.16633554 0.096926205 35 9 -0.016089085
-1.8536228 -0.16738811 -0.36177388 23 2 -0.016086781
-1.8375049 -0.16560976 0.16141243 35 10 -0.016084477
-1.8690617 -0.16812462 -0.29722553 32 3 -0.016082173
-1.8407182 -0.16525124 0.22692074 32 11 -0.016079869
-1.8743589 -0.16794205 -0.2310643 30 4 -0.016077565
-2.8352048 -0.25353411 0.4508442 100 12 -0.016075261
-1.8574648 -0.16610111 -0.16315554 30 5 -0.016072957
-2.831538 -0.25270811 0.55258286 99 13 -0.016070653
-1.8580837 -0.16550276 -0.097763576 29 6 -0.016068351
-2.8184564 -0.25054902 0.65325785 68 14 -0.016066046
-1.8723594 -0.16611561 -0.032810524 33 7 -0.016063742
-2.615155 -0.2315564 0.70347023 85 15 -0.016061438
-1.8687184 -0.1631633 -0.5026266 19 0 -0.016040701
-1.8606651 -0.16213293 0.032601096 34 8 -0.016038397
-1.8676397 -0.16241184 -0.43280584 22 1 -0.016036093
-1.8584545 -0.16128673 0.097763576 35 9 -0.016033789
-1.8776665 -0.16295405 -0.36635327 24 2 -0.016031485
-1.8519664 -0.16039757 0.16263261 30 10 -0.016029181
-1.8873496 -0.16313024 -0.30004135 28 3 -0.016026877
-1.8511724 -0.1596783 0.22813943 33 11 -0.016024573
-1.8828448 -0.16207878 -0.23203924 29 4 -0.016022269
-2.8360724 -0.24363579 0.4508442 100 12 -0.016019966
-1.8778839 -0.1613216 -0.16489866 31 5 -0.016017662
-2.8304467 -0.24265556 0.55220127 96 13 -0.016015358
-1.8785502 -0.16071831 -0.0988103 29 6 -0.016013054
-2.8212554 -0.24087496 0.65370774 93 14 -0.01601075
-1.8968375 -0.16161641 -0.033229381 32 7 -0.016008446
-2.8161376 -0.23944791 0.75730455 76 15 -0.016006142
-1.8866025 -0.15809105 -0.50728536 19 0 -0.015985405
-1.8771616 -0.15696961 0.032880332 31 8 -0.015983101
-1.891499 -0.15783654 -0.43820465 22 1 -0.015980797
-1.8749292 -0.15612438 0.098600946 31 9 -0.015978493
-1.8958323 -0.15786497 -0.36978784 25 2 -0.015976191
-1.8763416 -0.15591182 0.16472435 25 10 -0.015973885
-1.9154682 -0.15882684 -0.30442151 28 3 -0.015971582
-1.8774369 -0.15534347 0.23130804 29 11 -0.015969278
-1.899226 -0.15681216 -0.23398916 29 4 -0.015966974
-2.8231244 -0.23259972 0.44865409 100 12 -0.01596467
-1.8982922 -0.15640198 -0.16664177 29 5 -0.015962366
-2.8391032 -0.23341669 0.55372775 93 13 -0.015960062
-1.8950242 -0.15546633 -0.099647671 31 6 -0.015957758
-2.8104255 -0.23007208 0.65100831 94 14 -0.015955454
-1.9133345 -0.15629619 -0.033508621 32 7 -0.01595315
-2.8246582 -0.23024403 0.75937515 97 15 -0.015950846
-1.9024947 -0.15340541 -0.51142645 17 0 -0.015927315
-1.897578 -0.15267566 0.033229381 27 8 -0.015925011
-1.9230654 -0.15438807 -0.4454031 21 1 -0.015922707
-1.9012918 -0.15230654 0.099961683 30 9 -0.015920402
-1.9139316 -0.15331908 -0.37322241 23 2 -0.015918098
-1.8887385 -0.15096919 0.16577022 30 10 -0.015915794
-1.9356489 -0.15437837 -0.30755019 27 3 -0.01591349
-1.9016616 -0.15133417 0.23423289 26 11 -0.015911186
-1.9353287 -0.15367351 -0.23837645 27 4 -0.015908882
-2.8139951 -0.22294857 0.44708973 100 12 -0.015906578
-1.91469 -0.1513622 -0.16803627 27 5 -0.015904274
-2.8378651 -0.22434206 0.5533461 99 13 -0.015901972
-1.9353248 -0.15265357 -0.10174111 30 6 -0.015899668
-2.8227911 -0.22215831 0.65370774 97 14 -0.015897363
-1.9277711 -0.1513807 -0.033752955 29 7 -0.015895059
-2.8138118 -0.22046411 0.75626928 94 15 -0.015892755
-1.9300104 -0.14850631 -0.51867342 18 0 -0.015872018
-1.9120561 -0.14712478 0.033473715 25 8 -0.015869714
-1.9488519 -0.14961395 -0.4512518 20 1 -0.01586741
-1.9217262 -0.14719415 0.10100841 27 9 -0.015865106
-1.943844 -0.14854702 -0.37894669 23 2 -0.015862802
-1.9151052 -0.14601465 0.16803627 31 10 -0.015860498
-1.959838 -0.14908123 -0.31130463 27 3 -0.015858194
-1.9219722 -0.14620085 0.23667029 26 11 -0.015855892
-1.953668 -0.14826849 -0.2405701 26 4 -0.015853588
-2.816726 -0.21327429 0.44740263 100 12 -0.015851283
-1.9311006 -0.14587836 -0.16943076 26 5 -0.015848979
-2.8269224 -0.21305329 0.55105644 99 13 -0.015846675
-1.9557877 -0.14705671 -0.10278783 28 6 -0.015844371
-2.8196995 -0.21151985 0.65280795 92 14 -0.015842067
-1.9621872 -0.14719354 -0.034346335 30 7 -0.015839763
-2.8068583 -0.21006325 0.75419873 92 15 -0.015837459
-1.953637 -0.14346617 -0.52488506 18 0 -0.015816722
-1.9345204 -0.1417229 0.03385767 24 8 -0.015814418
-1.9649355 -0.14360636 -0.45485103 23 1 -0.015812114
-1.9461564 -0.14189245 0.10226447 23 9 -0.015809812
-1.9600151 -0.14290287 -0.38199964 23 2 -0.015807508
-1.9374617 -0.1409186 0.16995369 28 10 -0.015805203
-1.9701973 -0.1429539 -0.31286895 25 3 -0.015802899
-1.9343746 -0.1400153 0.23813272 29 11 -0.015800595
-1.9819174 -0.14310889 -0.24398245 24 4 -0.015798291
-2.8371916 -0.2043682 0.4505313 100 12 -0.015795987
-1.9633938 -0.14142692 -0.17221974 25 5 -0.015793683
-2.8178577 -0.20248121 0.54914832 91 13 -0.015791379
-1.9642576 -0.1408 -0.10320652 30 6 -0.015789075
-2.8165336 -0.20139724 0.65190816 92 14 -0.015786771
-1.9926331 -0.1421349 -0.034869909 27 7 -0.015784467
-2.8037555 -0.19950061 0.75316346 100 15 -0.015782163
-1.9888146 -0.13907145 -0.53420252 19 0 -0.015761428
-1.9569467 -0.13649984 0.034241624 26 8 -0.015759123
-1.9790331 -0.13769381 -0.45800033 22 1 -0.015756819
-1.9526172 -0.13551301 0.10257848 23 9 -0.015754515
-1.9937972 -0.13837093 -0.38848713 22 2 -0.015752211
-1.9657686 -0.13608101 0.17239405 30 10 -0.015749907
-1.9943326 -0.13770862 -0.31662342 23 3 -0.015747603
-1.9546555 -0.13462618 0.2405701 26 11 -0.015745299
-1.9923071 -0.13687006 -0.24520114 23 4 -0.015742995
