# .PCD v0.7 - Point Cloud Data file format
VERSION 0.7
FIELDS x y z intensity ring time
SIZE 4 4 4 4 2 4
TYPE F F F F U F
COUNT 1 1 1 1 1 1
WIDTH 949
HEIGHT 1
VIEWPOINT 0 0 0 1 0 0 0
POINTS 949
DATA ascii
-3.5021946 1.2594869 -0.32561383 72 5 -0.047237877
-16.555542 5.957098 3.4200609 33 13 -0.047235571
-3.497159 1.2590547 -0.19479445 67 6 -0.047233269
-12.822918 4.6190624 3.1466155 55 14 -0.047230963
-3.4878163 1.2570665 -0.064713523 78 7 -0.04722866
-10.427664 3.7603581 2.9702075 41 15 -0.047226354
-2.8464513 1.0304006 -0.81113893 6 0 -0.04720562
-3.4613953 1.2536904 0.06425976 74 8 -0.047203314
-3.2209122 1.1672254 -0.79092795 3 1 -0.047201011
-3.458837 1.2534468 0.19280569 79 9 -0.047198705
-3.5233932 1.2775369 -0.72850877 71 2 -0.047196403
-3.4387293 1.2475189 0.32003587 1 10 -0.047194101
-3.5168474 1.2765526 -0.59257382 61 3 -0.047191795
-16.578079 6.0208206 2.1656184 2 11 -0.047189493
-3.5280988 1.2820314 -0.46090987 70 4 -0.047187187
-16.82637 6.1143231 2.8355315 18 12 -0.047184885
-3.4940317 1.2703426 -0.32526523 70 5 -0.047182579
-16.519888 6.0094786 3.4170077 33 13 -0.047180276
-3.5002501 1.2739869 -0.19521314 67 6 -0.04717797
-12.81404 4.6664624 3.1484149 55 14 -0.047175668
-3.4873862 1.2699943 -0.064783335 76 7 -0.047173362
-10.407877 3.7922695 2.9681368 50 15 -0.04717106
-2.8373947 1.0383387 -0.80958605 6 0 -0.047150325
-3.4534631 1.2637876 0.064189956 74 8 -0.047148019
-3.2097039 1.1752198 -0.7891283 3 1 -0.047145717
-3.4581912 1.2668868 0.19301502 79 9 -0.047143411
-3.5262856 1.2925309 -0.73003525 71 2 -0.047141109
-3.4493186 1.2650021 0.32143039 1 10 -0.047138803
-3.5088856 1.2868477 -0.59194809 61 3 -0.0471365
-3.5238283 1.2937233 -0.46090987 73 4 -0.047131892
-16.821613 6.1791515 2.8383472 5 12 -0.047129586
-3.5007968 1.2866546 -0.32631108 72 5 -0.047127284
-16.492498 6.0615191 3.4154813 13 13 -0.047124978
-3.488508 1.2828299 -0.19479445 66 6 -0.047122676
-12.820442 4.7170048 3.1538138 38 14 -0.04712037
-3.4848089 1.2828499 -0.064818241 75 7 -0.047118068
-10.3982 3.8299143 2.969172 60 15 -0.047115762
-2.8321238 1.0470723 -0.80906838 6 0 -0.047095027
-3.4565325 1.27861 0.064329572 74 8 -0.047092725
-3.1854787 1.1789762 -0.78417933 3 1 -0.047090419
-3.450002 1.2775635 0.19280569 79 9 -0.047088116
-3.5201387 1.3035357 -0.7296536 70 2 -0.04708581
-3.4338946 1.2722812 0.3203845 1 10 -0.047083508
-3.5154855 1.303208 -0.59382528 61 3 -0.047081202
-3.4674051 1.2860727 0.4540852 1 11 -0.0470789
-3.5081244 1.3018731 -0.45944747 73 4 -0.047076594
-3.496511 1.2982566 -0.32631108 71 5 -0.047071986
-3.4858809 1.2956953 -0.19489913 68 6 -0.047067378
-3.4915543 1.2991904 -0.065027662 75 7 -0.04706277
-2.8411191 1.0616848 -0.81269181 6 0 -0.047039732
-3.4595404 1.2934691 0.064469188 72 8 -0.047037426
-3.1849945 1.1914542 -0.78507918 3 1 -0.047035124
-3.4455216 1.2895977 0.19280569 81 9 -0.047032818
-3.5100513 1.3137499 -0.72850877 71 2 -0.047030516
-3.4443595 1.289849 0.32177898 1 10 -0.04702821
-3.5146146 1.3168577 -0.59445107 60 3 -0.047025908
-3.4443069 1.2912012 0.45164782 20 11 -0.047023602
-3.5035589 1.31411 -0.45944747 70 4 -0.0470213
-3.4270012 1.2860771 0.57974619 17 12 -0.047018994
-3.4994192 1.313254 -0.32700834 71 5 -0.047016691
-3.4461825 1.2939626 0.71553379 15 13 -0.047014385
-3.4869461 1.3099619 -0.19521314 67 6 -0.047012083
-3.4312017 1.2897032 0.84626585 8 14 -0.047009781
-3.479511 1.3085557 -0.064888045 75 7 -0.047007475
-3.4317565 1.2912793 0.98247713 4 15 -0.047005173
-2.833781 1.0702314 -0.81165653 6 0 -0.046984434
-3.4606164 1.3076578 0.064573906 70 8 -0.046982132
-3.2118042 1.2142794 -0.79272753 3 1 -0.046979826
-3.442867 1.3023245 0.19291034 75 9 -0.046977524
-3.5164614 1.3301629 -0.73079848 71 2 -0.046975218
-3.4286559 1.2976329 0.32073313 1 10 -0.046972916
-3.5136914 1.3305162 -0.5950768 61 3 -0.04697061
-3.4342103 1.3011056 0.45091662 50 11 -0.046968307
-3.5063751 1.3291464 -0.4604224 72 4 -0.046966001
-3.4058681 1.2917273 0.5769304 50 12 -0.046963699
-3.4836364 1.3212222 -0.32596248 71 5 -0.046961397
-3.4251246 1.2997147 0.71209919 32 13 -0.046959091
-3.4898207 1.3249612 -0.19563182 66 6 -0.046956789
-3.397531 1.2906014 0.83906746 34 14 -0.046954483
-3.4674456 1.3178511 -0.064748429 72 7 -0.046952181
-3.4019482 1.2936375 0.97523022 34 15 -0.046949875
-2.8083696 1.0718507 -0.8054449 6 0 -0.04692914
-3.4541626 1.3190155 0.064539 74 8 -0.046926834
-3.1838808 1.2164418 -0.78687876 3 1 -0.046924531
-3.4457624 1.3171871 0.19332905 75 9 -0.046922226
-3.5062954 1.3403265 -0.7296536 70 2 -0.046919923
-3.4315495 1.3124396 0.32143039 66 10 -0.046917621
-3.5090253 1.3427742 -0.5950768 61 3 -0.046915315
-3.4407706 1.3173441 0.45237905 75 11 -0.046913013
-3.4998603 1.3406677 -0.4601787 73 4 -0.046910707
-3.4160948 1.3092639 0.57943332 72 12 -0.046908405
-3.4790034 1.3333745 -0.32596248 71 5 -0.046906099
-3.4150679 1.309554 0.71095431 56 13 -0.046903796
-3.4926336 1.3399968 -0.19605052 66 6 -0.046901491
-3.398463 1.3045474 0.84041709 52 14 -0.046899188
-3.4702909 1.3328146 -0.064888045 73 7 -0.046896882
-3.3829856 1.2999612 0.97108907 45 15 -0.04689458
-2.819031 1.0872077 -0.80958605 6 0 -0.046873841
-3.4420745 1.3281853 0.064399377 71 8 -0.046871539
-3.1887045 1.2310582 -0.7891283 3 1 -0.046869237
-3.4411438 1.3292072 0.19332905 72 9 -0.046866931
-3.5162466 1.358217 -0.73270655 70 2 -0.046864629
-3.4362392 1.328001 0.32230192 67 10 -0.046862323
-3.4969471 1.3521652 -0.59382528 61 3 -0.046860021
-3.4231918 1.324333 0.45067286 71 11 -0.046857715
-3.5081182 1.3578916 -0.46188486 70 4 -0.046855412
-3.4207139 1.3247474 0.58099771 67 12 -0.046853106
-3.4817591 1.3483884 -0.32665971 71 5 -0.046850804
-3.410476 1.3214668 0.71095431 61 13 -0.046848498
-3.4767616 1.3478488 -0.19542249 65 6 -0.046846196
-3.4047899 1.3206307 0.84311652 64 14 -0.04684389
-3.4768031 1.3492609 -0.065097481 72 7 -0.046841588
-3.3910334 1.3166568 0.97471261 61 15 -0.046839282
-2.8242188 1.1005486 -0.8121742 6 0 -0.046818547
-3.43928 1.3409196 0.064434282 70 8 -0.046816245
-3.1862037 1.2428898 -0.7895782 3 1 -0.046813939
-3.4402044 1.3426625 0.19353838 72 9 -0.046811637
-3.515142 1.3719096 -0.73346978 70 2 -0.046809331
-3.4297266 1.3392638 0.32212761 66 10 -0.046807028
-3.4995654 1.367239 -0.5950768 61 3 -0.046804722
-3.422246 1.3377187 0.45116034 71 11 -0.04680242
-3.4959614 1.3672376 -0.46090987 73 4 -0.046800114
-3.41239 1.3352402 0.58037198 67 12 -0.046797812
-3.484453 1.363438 -0.32735696 72 5 -0.046795506
-3.4149833 1.3369415 0.71286243 65 13 -0.046793204
-3.4757547 1.3614336 -0.19563182 67 6 -0.046790898
-3.4019737 1.3332188 0.84356648 67 14 -0.046788596
-3.4720724 1.3613882 -0.065097481 73 7 -0.04678629
-3.3990057 1.3334244 0.97833604 68 15 -0.046783987
-2.8257523 1.1125233 -0.81372708 6 0 -0.046763252
-3.4513235 1.3595129 0.064748429 74 8 -0.046760947
-3.1800327 1.2532889 -0.7891283 3 1 -0.046758644
-3.4373546 1.3553956 0.19364306 73 9 -0.046756338
-3.503026 1.3812908 -0.73194337 67 2 -0.046754036
-3.4361508 1.3556149 0.32317349 66 10 -0.04675173
-3.5057967 1.3837974 -0.59695399 61 3 -0.046749428
-3.4230943 1.3518449 0.45189157 70 11 -0.046747122
-3.4837832 1.3765148 -0.45993495 73 4 -0.04674482
-3.4058714 1.3464167 0.58005905 68 12 -0.046742514
-3.4907899 1.3799868 -0.32840282 70 5 -0.046740212
-3.4175982 1.3517431 0.71438891 63 13 -0.046737906
-3.4728386 1.374293 -0.1957365 68 6 -0.046735603
-3.3828042 1.3393461 0.83996725 67 14 -0.046733297
-3.4598622 1.3705549 -0.064957857 72 7 -0.046730995
-3.4015138 1.3481282 0.98040658 66 15 -0.046728693
-2.8092859 1.1173831 -0.81010365 6 0 -0.046707954
-3.4446993 1.3708119 0.064713523 86 8 -0.046705652
-3.1665862 1.2607775 -0.78687876 3 1 -0.046703346
-3.4381683 1.3696042 0.19395708 78 9 -0.046701044
-3.494535 1.392058 -0.73118013 70 2 -0.046698738
-3.4221442 1.3639121 0.32230192 63 10 -0.046696436
-3.4972751 1.3945632 -0.59632826 60 3 -0.04669413
-3.4238858 1.3659923 0.45262277 74 11 -0.046691827
-3.4863315 1.3916099 -0.46090987 72 4 -0.046689522
-3.3974819 1.356832 0.57943332 68 12 -0.046687219
-3.4711492 1.386252 -0.32700834 71 5 -0.046684913
-3.4128587 1.3636646 0.71438891 63 13 -0.046682611
-3.4735842 1.3886305 -0.19605052 66 6 -0.046680309
-3.3889644 1.3554893 0.84266669 68 14 -0.046678003
-3.4550567 1.3826238 -0.064957857 70 7 -0.046675701
-3.3914075 1.3578386 0.97885364 71 15 -0.046673395
-2.7999911 1.1250213 -0.80855072 5 0 -0.04665266
-3.4269054 1.3776069 0.064469188 57 8 -0.046650354
-3.1693978 1.274732 -0.78867841 3 1 -0.046648052
-3.431514 1.380851 0.19385241 67 9 -0.046645746
-3.5005829 1.4086444 -0.73346978 70 2 -0.046643443
-3.4173625 1.3758494 0.32230192 67 10 -0.046641137
-3.4887207 1.4052873 -0.59570253 61 3 -0.046638835
-3.4227793 1.3794188 0.45311025 71 11 -0.046636533
-3.4961812 1.4097098 -0.46285981 69 4 -0.046634227
-3.3963885 1.3701621 0.58005905 66 12 -0.046631925
-3.4662886 1.3983611 -0.32700834 71 5 -0.046629619
-3.4007957 1.3726294 0.71286243 63 13 -0.046627317
-3.4761236 1.4037386 -0.1964692 66 6 -0.046625011
-3.3878257 1.3687707 0.84356648 68 14 -0.046622708
-3.4576256 1.3976727 -0.065097481 70 7 -0.046620402
-3.3794832 1.3667715 0.9767831 69 15 -0.0466181
-2.7996271 1.1362413 -0.80958605 6 0 -0.046597362
-3.3757563 1.3707523 0.063596569 57 8 -0.046595059
-3.157707 1.2828537 -0.78687876 3 1 -0.046592757
-3.3767161 1.3725152 0.19102626 30 9 -0.046590451
-3.497463 1.4215945 -0.73385143 66 2 -0.046588149
-3.4217668 1.3915226 0.32317349 66 10 -0.046585843
-3.4874539 1.4189448 -0.59632826 60 3 -0.046583541
-3.4087505 1.387616 0.45189157 67 11 -0.046581235
-3.47837 1.4166641 -0.46115363 67 4 -0.046578933
-3.3970733 1.3842449 0.58099771 67 12 -0.046576627
-3.4724574 1.4149626 -0.32805422 68 5 -0.046574324
-3.3996196 1.3859745 0.71362567 62 13 -0.046572018
-3.4601057 1.411339 -0.19584116 66 6 -0.046569716
-3.3938532 1.3850052 0.84626585 70 14 -0.04656741
-3.4638336 1.414269 -0.065306902 70 7 -0.046565108
-3.381845 1.381483 0.97885364 69 15 -0.046562802
-2.7956436 1.1460071 -0.80958605 5 0 -0.046542067
-3.4246047 1.4045327 0.064608812 48 8 -0.046539765
-3.1441953 1.2901695 -0.78462929 3 1 -0.046537459
-3.4180949 1.4032569 0.19364306 36 9 -0.046535157
-3.4979279 1.4360312 -0.73499632 70 2 -0.046532851
-3.4205747 1.4049726 0.32352212 61 10 -0.046530548
-3.4897878 1.434113 -0.59757972 58 3 -0.046528243
-3.4057219 1.4002614 0.45213532 68 11 -0.04652594
-3.4734037 1.4287972 -0.46115363 67 4 -0.046523634
-3.3977005 1.39835 0.5819363 68 12 -0.046521332
-3.4674969 1.4270751 -0.32805422 71 5 -0.046519026
-3.4020224 1.400823 0.71515214 62 13 -0.046516724
-3.4570055 1.4241686 -0.19594584 68 6 -0.046514418
-3.3817911 1.3938732 0.84446627 68 14 -0.046512116
-3.4588757 1.4263514 -0.065306902 70 7 -0.04650981
-3.3895032 1.3984362 0.98247713 66 15 -0.046507508
-2.7969813 1.1579751 -0.81113893 5 0 -0.046486773
-3.4326134 1.4218351 0.064853139 64 8 -0.046484467
-3.1360722 1.2996449 -0.78372949 2 1 -0.046482164
-3.4205558 1.4182388 0.19406174 75 9 -0.046479858
-3.482013 1.4437202 -0.73270655 67 2 -0.046477556
-3.4230111 1.4199578 0.32421938 66 10 -0.04647525
-3.4920588 1.4493148 -0.59883118 58 3 -0.046472948
-3.4026468 1.4129024 0.45237905 70 11 -0.046470642
-3.4647286 1.4393899 -0.46066615 67 4 -0.04646834
-3.3891504 1.4086853 0.58131051 66 12 -0.046466034
-3.4698534 1.4422292 -0.32875144 67 5 -0.046463732
-3.4043629 1.4157052 0.71667862 67 13 -0.046461426
-3.4538572 1.4369944 -0.19605052 65 6 -0.046459123
-3.376905 1.4056695 0.84446627 70 14 -0.046456818
-3.4427998 1.4338038 -0.065097481 70 7 -0.046454515
-3.3881674 1.4117453 0.9835124 68 15 -0.046452209
-2.7964866 1.1692225 -0.8121742 5 0 -0.046447277
-3.4276295 1.4338086 0.064853139 64 8 -0.046444975
-3.1638746 1.3241255 -0.79182774 3 1 -0.046442669
-3.4195187 1.4311161 0.19427109 66 9 -0.046440367
-3.47333 1.4543502 -0.73194337 47 2 -0.046438061
-3.4070075 1.4272786 0.32317349 66 10 -0.046435758
-3.483335 1.4599677 -0.59820545 43 3 -0.046433453
-3.4123394 1.4309126 0.45432895 70 11 -0.04643115
-3.4743271 1.4576193 -0.46261609 57 4 -0.046428844
-3.3844602 1.4199165 0.58131051 66 12 -0.046426542
-3.4647982 1.4543318 -0.32875144 64 5 -0.046424236
-3.4066408 1.4306208 0.71820509 68 13 -0.046421934
-3.4580266 1.4529103 -0.19657388 60 6 -0.046419628
-3.379163 1.4204701 0.84626585 67 14 -0.046417326
-3.4398692 1.4459885 -0.06513238 57 7 -0.04641502
-3.371002 1.4177308 0.97988898 69 15 -0.046412718
-2.7870488 1.1767225 -0.81062132 6 0 -0.046391983
-3.4191716 1.4436116 0.064783335 55 8 -0.046389677
-3.1307437 1.3224773 -0.78462929 3 1 -0.046387374
-3.4181819 1.4445989 0.19448043 61 9 -0.046385068
-3.4935474 1.4771698 -0.73728597 36 2 -0.046382766
-3.398335 1.4376094 0.32282487 61 10 -0.04638046
-3.4966671 1.4792072 -0.60133415 32 3 -0.046378158
-3.4075754 1.4422206 0.45432895 70 11 -0.046375852
-3.4840982 1.475325 -0.46456599 49 4 -0.04637355
-3.3831217 1.4332623 0.5819363 63 12 -0.046371244
-3.4505281 1.4625306 -0.32787988 55 5 -0.046368942
-3.3910325 1.4373128 0.71591538 67 13 -0.046366636
-3.4550281 1.4651493 -0.19667853 48 6 -0.046364333
-3.3851986 1.4362333 0.84896529 67 14 -0.046362028
-3.449527 1.4642372 -0.06541162 51 7 -0.046359725
-3.3713672 1.4317547 0.98144192 68 15 -0.046357419
-2.7937946 1.1905023 -0.81372708 6 0 -0.046336684
-3.4104328 1.4539689 0.064713523 45 8 -0.046334382
-3.1350708 1.3372204 -0.78687876 3 1 -0.046332076
-3.425977 1.4620101 0.19521314 49 9 -0.046329774
-3.4796014 1.4848939 -0.73537791 55 2 -0.046327468
-3.4008784 1.4520003 0.32352212 44 10 -0.046325166
-3.4660501 1.4805405 -0.59695399 53 3 -0.04632286
-3.3988698 1.4525464 0.45384148 49 11 -0.046320558
-3.4734516 1.4851358 -0.46383476 55 4 -0.046318252
-3.379914 1.4458399 0.58224916 53 12 -0.046315949
-3.4584825 1.4794494 -0.32910007 35 5 -0.046313643
-3.3805802 1.4468238 0.71477056 46 13 -0.046311341
-3.4425492 1.4740553 -0.19625986 38 6 -0.046309035
-3.3873291 1.4511114 0.85076487 48 14 -0.046306733
-3.4517469 1.4794205 -0.065551244 47 7 -0.046304431
-3.3752267 1.4473203 0.98403007 53 15 -0.046302125
-2.794946 1.2025372 -0.81528002 5 0 -0.04628139
-3.4181941 1.4713993 0.064957857 42 8 -0.046279084
-3.1303835 1.3481566 -0.78687876 3 1 -0.046276782
-3.4153507 1.4715885 0.19489913 46 9 -0.046274476
-3.4816093 1.5001377 -0.73690438 62 2 -0.046272174
-3.4159153 1.4725387 0.32543954 42 10 -0.046269868
-3.457233 1.4910666 -0.59632826 56 3 -0.046267565
-3.3919561 1.4636145 0.45359772 28 11 -0.046265259
-3.4609561 1.4941043 -0.46285981 64 4 -0.046262957
-3.3911672 1.4646795 0.58506501 33 12 -0.046260655
-3.4496384 1.4899337 -0.32875144 63 5 -0.046258349
-3.4025426 1.470296 0.72049481 33 13 -0.046256047
-3.4465492 1.490026 -0.19678321 61 6 -0.046253741
-3.3911865 1.4667948 0.85301441 33 14 -0.046251439
-3.4373858 1.4874887 -0.065376714 63 7 -0.046249133
-3.3825638 1.4644661 0.98765355 35 15 -0.04624683
-2.7854156 1.2099769 -0.81372708 6 0 -0.046226092
-3.4167049 1.4849162 0.065027662 71 8 -0.046223789
-3.1256588 1.3590748 -0.78687876 3 1 -0.046221483
-3.4028668 1.4803145 0.19448043 66 9 -0.046219181
-3.4691505 1.5091492 -0.73537791 62 2 -0.046216875
-3.4125812 1.4852487 0.32561383 66 10 -0.046214573
-3.4628739 1.5078564 -0.59820545 57 3 -0.046212271
-3.3995657 1.4809957 0.45530388 71 11 -0.046209965
-3.4520798 1.5045909 -0.46237233 66 4 -0.046207663
-3.3860343 1.4765071 0.58506501 67 12 -0.046205357
-3.4462433 1.5027617 -0.32892576 61 5 -0.046203054
-3.3775949 1.4735287 0.71629703 56 13 -0.046200749
-3.439496 1.5012494 -0.19667853 65 6 -0.046198446
-3.346756 1.4614663 0.84311652 49 14 -0.04619614
-3.4285076 1.4978772 -0.065306902 70 7 -0.046193838
-3.3614993 1.4693018 0.98299474 47 15 -0.046191532
-2.7652524 1.2127097 -0.80906838 5 0 -0.046170797
-3.415163 1.4984407 0.065097481 66 8 -0.046168491
-3.1369553 1.3770268 -0.79092795 2 1 -0.046166189
-3.4049935 1.4953963 0.19489913 67 9 -0.046163887
-3.4638612 1.5212495 -0.73537791 62 2 -0.046161581
-3.4073758 1.4971519 0.32561383 66 10 -0.046159279
-3.4684398 1.5247048 -0.6000827 57 3 -0.046156973
-3.3998265 1.4952509 0.45603511 71 11 -0.04615467
-3.4522581 1.5190295 -0.46310353 69 4 -0.046152364
-3.366396 1.4819505 0.58256203 61 12 -0.046150062
-3.4355061 1.5123742 -0.32840282 63 5 -0.046147756
-3.3832111 1.4900578 0.71858674 63 13 -0.046145454
-3.4452009 1.5180787 -0.19730657 65 6 -0.046143148
-3.3558996 1.4794279 0.84671575 60 14 -0.046140846
-3.4269168 1.5114508 -0.065376714 69 7 -0.04613854
-3.3528152 1.479467 0.98195946 58 15 -0.046136238
-2.7645354 1.2239183 -0.81010365 6 0 -0.046115503
-3.4044266 1.5079234 0.064992763 67 8 -0.046113197
-3.1339109 1.3887581 -0.79137778 2 1 -0.046110895
-3.4070566 1.51051 0.1953178 70 9 -0.046108589
-3.4585302 1.5333308 -0.73537791 62 2 -0.046106286
-3.3875589 1.5025742 0.32421938 57 10 -0.04610398
-3.4576795 1.534399 -0.59914404 52 3 -0.046101678
-3.3945866 1.5071095 0.45603511 66 11 -0.046099372
-3.4614482 1.5375175 -0.46505347 69 4 -0.04609707
-3.3702283 1.4977036 0.58412635 64 12 -0.046094764
-3.4411302 1.5292118 -0.3294487 67 5 -0.046092462
-3.3797827 1.5026568 0.71896833 67 13 -0.046090156
-3.4435306 1.531718 -0.19751592 65 6 -0.046087854
-3.3702996 1.4998487 0.85166472 66 14 -0.046085548
-3.4289274 1.5266572 -0.065516338 69 7 -0.046083245
-3.3529248 1.4935189 0.9835124 66 15 -0.046080939
-2.7690647 1.2375028 -0.81269181 6 0 -0.046060205
-3.4009678 1.5206141 0.065027662 100 8 -0.046057902
-3.1023612 1.3877523 -0.78462929 3 1 -0.046055596
-3.4017627 1.5223947 0.1953178 73 9 -0.046053294
-3.4621162 1.5494047 -0.73728597 65 2 -0.046050988
-3.3895669 1.5176466 0.3249166 61 10 -0.046048686
-3.4468944 1.5440357 -0.59820545 57 3 -0.04604638
-3.3893049 1.5189496 0.45603511 71 11 -0.046044078
-3.4596825 1.5512152 -0.46554092 72 4 -0.046041772
-3.3775966 1.5151174 0.58631647 61 12 -0.04603947
-3.443043 1.5444753 -0.33014596 68 5 -0.046037164
-3.367353 1.5112293 0.71744186 67 13 -0.046034861
-3.4345191 1.5420929 -0.19730657 65 6 -0.046032555
-3.3721535 1.5147991 0.85346431 66 14 -0.046030253
-3.4308736 1.5418953 -0.065655954 67 7 -0.046027951
-3.3476908 1.5052139 0.9835124 66 15 -0.046025645
-2.7576842 1.2439836 -0.81062132 5 0 -0.04600491
-3.4047527 1.5365887 0.065202191 41 8 -0.046002604
-3.1330194 1.4146127 -0.79362732 3 1 -0.046000302
-3.3964279 1.5342598 0.1953178 67 9 -0.045997996
-3.4620545 1.563905 -0.73843086 62 2 -0.045995694
-3.4005892 1.5368532 0.32648543 63 10 -0.045993388
-3.4468834 1.5585008 -0.59914404 55 3 -0.045991085
-3.374939 1.5266807 0.45481643 64 11 -0.04598878
-3.4506304 1.5616448 -0.46505347 67 4 -0.045986477
-3.3686879 1.5252696 0.58569074 66 12 -0.045984171
-3.4485207 1.5614161 -0.33119181 67 5 -0.045981869
-3.3781521 1.5302652 0.7208764 67 13 -0.045979567
-3.4291151 1.5540723 -0.19730657 63 6 -0.045977261
-3.3597465 1.5233413 0.85166472 66 14 -0.045974959
-3.4254704 1.553862 -0.065655954 69 7 -0.045972653
-3.360008 1.5248741 0.98868877 65 15 -0.045970351
-2.77794 1.2648088 -0.81786817 4 0 -0.045949612
-3.341135 1.5219382 0.064085238 26 8 -0.04594731
-3.1227427 1.4231161 -0.79227757 3 1 -0.045945004
-3.3456199 1.5253912 0.19270101 24 9 -0.045942701
-3.4565747 1.5759797 -0.73843086 61 2 -0.045940395
-3.4024549 1.5520216 0.32718265 69 10 -0.045938093
-3.4540017 1.5762639 -0.60133415 58 3 -0.045935787
-3.3822303 1.5442227 0.45652261 71 11 -0.045933485
-3.4379351 1.5703819 -0.46407849 69 4 -0.045931183
-3.3579531 1.534556 0.58475208 64 12 -0.045928877
-3.4466734 1.5751004 -0.33154044 67 5 -0.045926575
-3.3781462 1.5444969 0.72202128 68 13 -0.045924269
-3.4236696 1.5660328 -0.19730657 65 6 -0.045921966
-3.3632686 1.5391144 0.8539142 64 14 -0.04591966
-3.4200256 1.5658097 -0.065655954 66 7 -0.045917358
-3.3652031 1.5414205 0.99179465 63 15 -0.045915052
-2.7559543 1.2664315 -0.81269181 6 0 -0.045894317
-3.3957589 1.5611569 0.065237097 37 8 -0.045892011
-3.1124451 1.4315642 -0.79092795 2 1 -0.045889709
-3.378377 1.5545934 0.19489913 28 9 -0.045887403
-3.4439185 1.584753 -0.73690438 61 2 -0.045885101
-3.3843474 1.5580577 0.32596248 61 10 -0.045882799
-3.4556556 1.5916159 -0.60258561 58 3 -0.045880493
-3.3948481 1.5643272 0.45896 71 11 -0.045878191
-3.4432487 1.5873594 -0.46554092 67 4 -0.045875885
-3.3561635 1.5479228 0.58537781 67 12 -0.045873582
-3.4339173 1.5837843 -0.33084321 67 5 -0.045871276
-3.3816478 1.5603915 0.72392935 66 13 -0.045868974
-3.4308755 1.5838341 -0.19803928 62 6 -0.045866668
-3.3614137 1.5524793 0.85481399 64 14 -0.045864366
-3.4145393 1.5777376 -0.065655954 66 7 -0.04586206
-3.3457737 1.5466729 0.98765355 66 15 -0.045859758
-2.7655373 1.282546 -0.81683296 5 0 -0.045839023
-3.3957312 1.5755252 0.065341808 70 8 -0.045836717
-3.1144993 1.445702 -0.79272753 2 1 -0.045834415
-3.3964787 1.5773129 0.19625986 70 9 -0.045832109
-3.4472687 1.6008997 -0.73881245 63 2 -0.045829806
-3.3843088 1.5723803 0.32648543 63 10 -0.045827501
-3.4357483 1.5970078 -0.6000827 58 3 -0.045825198
-3.3875666 1.5753317 0.45871624 67 11 -0.045822892
-3.4484859 1.6043934 -0.46700338 72 4 -0.04582059
-3.3525312 1.5604616 0.58569074 63 12 -0.045818284
-3.4247558 1.5940793 -0.33049458 70 5 -0.045815982
-3.3637216 1.5663856 0.72125804 67 13 -0.045813676
-3.4271364 1.5966438 -0.19814396 63 6 -0.045811374
-3.3595068 1.5658492 0.85571378 69 14 -0.045809068
-3.4198849 1.5947185 -0.065865383 66 7 -0.045806766
-3.3403542 1.5583426 0.98765355 65 15 -0.04580446
-2.7610433 1.2921919 -0.81683296 6 0 -0.045783725
-3.3920217 1.5882168 0.065376714 71 8 -0.045781422
-3.1217868 1.4623513 -0.7958768 3 1 -0.045779116
-3.3948467 1.5902618 0.1964692 69 9 -0.045776814
-3.4505477 1.6170896 -0.74072057 62 2 -0.045774508
-3.3842115 1.5867208 0.32700834 67 10 -0.045772206
-3.4373062 1.6123466 -0.60133415 57 3 -0.0457699
-3.3730614 1.5829303 0.45749757 68 11 -0.045767598
-3.4500523 1.6197948 -0.46797833 69 4 -0.045765292
-3.367007 1.5808052 0.58913231 67 12 -0.04576299
-3.4263837 1.6094123 -0.33119181 67 5 -0.045760684
-3.3564568 1.5772828 0.7208764 66 13 -0.045758381
-3.4179275 1.6068968 -0.1979346 63 6 -0.045756076
-3.357547 1.5792261 0.85661358 69 14 -0.045753773
-3.4181967 1.6077528 -0.065935194 66 7 -0.045751467
-3.34216 1.5727012 0.98972404 63 15 -0.045749165
-2.7530222 1.300172 -0.81579769 6 0 -0.04572843
-3.3867362 1.5994567 0.065376714 59 8 -0.045726124
-3.0940146 1.4618733 -0.7900281 3 1 -0.045723822
-3.3784409 1.5969805 0.19584116 66 9 -0.045721516
-3.4537563 1.6333203 -0.74262863 63 2 -0.045719214
-3.3804531 1.5993764 0.32718265 69 10 -0.045716908
-3.4355118 1.6254261 -0.60195988 57 3 -0.045714606
-3.3606169 1.5907102 0.45652261 66 11 -0.0457123
-3.4338973 1.6261293 -0.46651587 69 4 -0.045709997
-3.357898 1.5908571 0.58850652 67 12 -0.045707691
-3.4351478 1.6281905 -0.33258632 66 5 -0.045705389
-3.3654003 1.5951316 0.72392935 66 13 -0.045703083
-3.4125798 1.6182222 -0.1979346 63 6 -0.045700781
-3.3487709 1.5886803 0.85571378 70 14 -0.045698479
-3.4197903 1.6231046 -0.066074811 64 7 -0.045696173
-3.3436308 1.5876719 0.99179465 63 15 -0.045693871
-2.7521837 1.3109558 -0.81683296 6 0 -0.045673132
-3.3865478 1.6138495 0.065481432 64 8 -0.04567083
-3.0888934 1.4726638 -0.7900281 3 1 -0.045668524
-3.3746486 1.6096245 0.19594584 61 9 -0.045666222
-3.439461 1.6405385 -0.74072057 61 2 -0.045663916
-3.3715346 1.6088617 0.32683402 45 10 -0.045661613
-3.4369478 1.6408117 -0.60321134 57 3 -0.045659307
-3.3586266 1.6041416 0.45701009 63 11 -0.045657005
-3.4282 1.6381059 -0.46651587 72 4 -0.045654699
-3.3451955 1.5991609 0.58725506 56 12 -0.045652397
-3.4297299 1.6395723 -0.33258632 67 5 -0.045650095
-3.3704388 1.611951 0.72621906 59 13 -0.045647789
-3.4141173 1.6335729 -0.19835329 63 6 -0.045645487
-3.3432045 1.6003609 0.85571378 70 14 -0.045643181
-3.4032824 1.6298488 -0.065865383 66 7 -0.045640878
-3.3432951 1.601838 0.99334759 60 15 -0.045638572
-2.7423673 1.3180443 -0.81528002 5 0 -0.045617837
-3.3917074 1.6308596 0.06569086 64 8 -0.045615532
-3.0995386 1.4910409 -0.79407722 2 1 -0.045613229
-3.3762078 1.624859 0.19636452 64 9 -0.045610923
-3.4354825 1.653386 -0.74110222 63 2 -0.045608621
-3.4418771 1.6579434 -0.60508859 58 3 -0.045604013
-3.3583715 1.6184411 0.45774129 22 11 -0.045601711
-3.4296136 1.6535112 -0.46749085 70 4 -0.045599405
-3.3360348 1.6091119 0.58662933 24 12 -0.045597102
-3.4168074 1.648072 -0.33188906 67 5 -0.045594797
-3.363023 1.622853 0.72583747 30 13 -0.045592494
-3.4209845 1.6515589 -0.199086 61 6 -0.045590188
-3.3411076 1.6137155 0.85661358 43 14 -0.045587886
-3.4047744 1.6451987 -0.066004999 66 7 -0.04558558
-3.3359437 1.6126578 0.99282992 45 15 -0.045583278
-2.7394884 1.3284512 -0.81579769 5 0 -0.045562539
-3.3716009 1.6357063 0.06541162 57 8 -0.045560237
-3.0855494 1.4975969 -0.79182774 3 1 -0.045557935
-3.3705153 1.6366343 0.19636452 61 9 -0.045555629
-3.4402862 1.6705133 -0.74339187 67 2 -0.045553327
-3.4325154 1.6682208 -0.6044628 56 3 -0.045548718
-16.33683 7.9433122 2.2304528 17 11 -0.045546412
-3.4273911 1.6672095 -0.46797833 67 4 -0.04554411
-16.28076 7.9230762 2.8677568 15 12 -0.045541804
-3.4110339 1.6599889 -0.33188906 67 5 -0.045539502
-16.2642 7.918529 3.5162284 8 13 -0.045537196
-3.4116075 1.6617413 -0.19887665 61 6 -0.045534894
-3.3990109 1.6570736 -0.066004999 64 7 -0.045530286
-3.3389759 1.6285269 0.99541807 11 15 -0.04552798
-2.7226872 1.332063 -0.8121742 4 0 -0.045507245
-3.3730547 1.6509829 0.065551244 60 8 -0.045504943
-3.0838032 1.5100724 -0.79272753 2 1 -0.045502637
-3.3827181 1.6571757 0.19741124 61 9 -0.045500334
-3.4344344 1.6825112 -0.74339187 63 2 -0.045498028
-3.4231238 1.6784531 -0.60383707 57 3 -0.04549342
-16.317917 8.0046577 2.2316716 17 11 -0.045491118
-3.4286788 1.6826615 -0.46895328 69 4 -0.045488812
-16.268961 7.9876943 2.8705728 18 12 -0.04548651
-3.4123726 1.6753981 -0.33258632 66 5 -0.045484204
-16.245274 7.979578 3.5181365 8 13 -0.045481902
-3.4075785 1.6745207 -0.19898133 63 6 -0.045479596
-3.402178 1.6733414 -0.066179529 63 7 -0.045474987
-2.7197533 1.3424138 -0.81269181 5 0 -0.04545195
-3.3672709 1.662747 0.065551244 57 8 -0.045449644
-3.0907438 1.5268689 -0.7958768 2 1 -0.045447342
-3.3625889 1.6618942 0.19657388 60 9 -0.045445036
-3.4373407 1.6988388 -0.74529999 62 2 -0.045442734
-3.4243269 1.6938946 -0.60508859 61 3 -0.045438126
-16.377054 8.1047173 2.2436149 2 11 -0.04543582
-3.4192262 1.6928581 -0.46846578 69 4 -0.045433518
-16.295856 8.0716105 2.8802717 2 12 -0.045431212
-3.4172161 1.6926044 -0.33363217 63 5 -0.045428909
-16.289442 8.0719795 3.5337827 2 13 -0.045426603
-3.3963444 1.6837441 -0.19866732 62 6 -0.045424301
-3.4106467 1.6923176 -0.066458762 61 7 -0.045419693
-2.7340732 1.3613721 -0.81838584 6 0 -0.045396652
-3.3775556 1.6825148 0.065865383 61 8 -0.04539435
-3.0836508 1.5367793 -0.79542696 2 1 -0.045392044
-3.3621287 1.676296 0.19688788 58 9 -0.045389742
-3.4296324 1.709952 -0.74491841 63 2 -0.045387436
-3.4254632 1.7093655 -0.60634005 56 3 -0.045382828
-3.4132967 1.7047824 -0.46846578 69 4 -0.045378219
-3.4148514 1.7063037 -0.3339808 64 5 -0.045373611
-3.3940194 1.6973752 -0.19887665 61 6 -0.045369007
-3.3922012 1.6979474 -0.066214427 64 7 -0.045364399
-2.7172205 1.3648371 -0.81476241 3 0 -0.045341358
-3.3770225 1.6969882 0.0659701 57 8 -0.045339052
-3.0974193 1.5571629 -0.80037582 2 1 -0.045336749
-3.3562574 1.6880211 0.19688788 57 9 -0.045334443
-3.4253969 1.7227947 -0.74529999 62 2 -0.045332141
-3.4300621 1.7266424 -0.6082173 56 3 -0.045327533
-3.4179618 1.7220459 -0.46992823 67 4 -0.045322925
-3.408874 1.7182143 -0.3339808 64 5 -0.045318317
-3.4023392 1.716409 -0.19971403 58 6 -0.045313708
-3.3862541 1.7097774 -0.066214427 64 7 -0.0453091
-2.7176094 1.376933 -0.81631529 5 0 -0.045286059
-3.3585927 1.7024372 0.065725766 59 8 -0.045283757
-3.0780611 1.5609137 -0.79677659 3 1 -0.045281455
-3.3628128 1.7060519 0.1976206 64 9 -0.045279149
-3.4246144 1.7374058 -0.74644482 65 2 -0.045276847
-3.4169688 1.7350268 -0.60696578 57 3 -0.045272239
-3.4154687 1.7357659 -0.47041571 69 4 -0.04526763
-3.3993037 1.7282963 -0.33363217 66 5 -0.045263022
-3.4034467 1.7318989 -0.20013271 58 6 -0.045258414
-3.3891742 1.7261248 -0.066388957 61 7 -0.045253806
-2.7041852 1.3820151 -0.81372708 5 0 -0.045230765
-3.3633125 1.7196126 0.065935194 59 8 -0.045228463
-3.0621841 1.5663242 -0.79407722 2 1 -0.045226157
-3.360393 1.7195997 0.19782993 60 9 -0.045223854
-3.4202769 1.7502439 -0.74682647 62 2 -0.045221549
-3.4108915 1.7469438 -0.60696578 56 3 -0.04521694
-3.3902609 1.7371244 0.46773461 1 11 -0.045214638
-3.4164555 1.7512989 -0.47139066 69 4 -0.045212332
-3.3994303 1.7433209 0.60508859 1 12 -0.04521003
-3.4038875 1.7456067 -0.33467805 64 5 -0.045207724
-3.3867197 1.7382959 -0.19950469 61 6 -0.045203116
-3.3938005 1.7434282 -0.066598386 61 7 -0.045198508
-2.7130823 1.3985268 -0.81786817 5 0 -0.04517547
-3.3608437 1.7331754 0.066004999 59 8 -0.045173164
-3.0532341 1.5752168 -0.79317743 2 1 -0.045170862
-3.3525953 1.7304024 0.19772527 60 9 -0.045168556
-3.4246144 1.7675741 -0.74911612 62 2 -0.045166254
-3.4153032 1.7642792 -0.60884303 56 3 -0.045161646
-3.3506699 1.7316318 0.46310353 28 11 -0.04515934
-3.4103215 1.763214 -0.47139066 72 4 -0.045157038
-3.3441963 1.7297657 0.59632826 27 12 -0.045154732
-3.4048522 1.7611394 -0.33537531 64 5 -0.045152429
-3.337323 1.7269486 0.73041683 16 13 -0.045150124
-3.3841786 1.7519437 -0.19971403 61 6 -0.045147821
-3.336278 1.7278844 0.86741126 12 14 -0.045145515
-3.3912449 1.757104 -0.06666819 60 7 -0.045143213
-3.3170574 1.7193985 1.0011121 3 15 -0.045140907
-2.7116115 1.4097717 -0.81890345 6 0 -0.045060158
-3.3636441 1.7495103 0.066179529 60 8 -0.045057856
-3.0598183 1.5921611 -0.79632676 2 1 -0.04505555
-3.3465343 1.7420955 0.19772527 64 9 -0.045053247
-3.4166818 1.7786119 -0.74873453 63 2 -0.045050941
-3.3522086 1.745793 0.33066887 3 10 -0.045048639
-3.4161315 1.7798402 -0.61009449 57 3 -0.045046333
-3.346365 1.7442348 0.46334729 53 11 -0.045044031
-3.4006255 1.7732719 -0.47090316 70 4 -0.045041725
-3.3293815 1.7368594 0.59476393 49 12 -0.045039423
-3.40575 1.7766992 -0.33607253 63 5 -0.045037117
-3.3173504 1.7313209 0.72736394 33 13 -0.045034815
-3.3851242 1.7674437 -0.20013271 58 6 -0.045032509
-3.3043163 1.7259871 0.86066276 37 14 -0.045030206
-3.3780022 1.7652258 -0.066528574 60 7 -0.0450279
-3.3144591 1.7327569 1.0021474 29 15 -0.045025598
-2.6998303 1.41564 -0.81683296 5 0 -0.045004863
-3.3610585 1.763098 0.066249333 60 8 -0.045002557
-3.0507905 1.6010218 -0.79542696 2 1 -0.045000255
-3.3475065 1.7574801 0.19814396 61 9 -0.044997949
-3.4121907 1.7914401 -0.74911612 61 2 -0.044995647
-3.3460948 1.757483 0.33066887 58 10 -0.044993341
-3.4186406 1.796349 -0.61165881 55 3 -0.044991039
-3.352556 1.7623711 0.46505347 66 11 -0.044988733
-3.4014432 1.7888268 -0.47187814 70 4 -0.044986431
-3.3302906 1.7521505 0.59601539 68 12 -0.044984125
-3.3924742 1.7848668 -0.33537531 63 5 -0.044981822
-3.3303969 1.7529486 0.73156172 61 13 -0.044979516
-3.3860035 1.7829708 -0.20055141 58 6 -0.044977214
-3.3051682 1.741143 0.86246234 52 14 -0.044974908
-3.3753579 1.7788712 -0.066598386 60 7 -0.044972606
-3.2981374 1.7389092 0.99904156 43 15 -0.0449703
-2.6965806 1.4259582 -0.81735063 6 0 -0.044949565
-3.3531163 1.7738845 0.066214427 61 8 -0.044947263
-3.0227921 1.599811 -0.7895782 2 1 -0.044944957
-3.3522513 1.774177 0.19877198 64 9 -0.044942655
-3.4128571 1.8070139 -0.75064266 61 2 -0.044940349
-3.3487425 1.7738155 0.33154044 67 10 -0.044938046
-3.4053679 1.8045717 -0.61040735 55 3 -0.044935741
-3.3428764 1.7722026 0.46456599 67 11 -0.044933438
-3.3951776 1.8006901 -0.47187814 67 4 -0.044931132
-3.3157363 1.758557 0.59445107 63 12 -0.04492883
-3.3791831 1.7929626 -0.33467805 64 5 -0.044926524
-3.313854 1.7590398 0.72927201 57 13 -0.044924222
-3.3850505 1.7975904 -0.20086543 57 6 -0.044921916
-3.3111169 1.7590698 0.86561167 66 14 -0.044919614
-3.3765037 1.7938073 -0.066738002 59 7 -0.044917312
-3.290647 1.7489302 0.99852395 61 15 -0.044915006
-2.6949959 1.4371804 -0.81838584 5 0 -0.044894271
-3.3436863 1.7831123 0.066144623 61 8 -0.044891965
-3.0209091 1.6116607 -0.79047799 2 1 -0.044889662
-3.3513243 1.7886883 0.199086 58 9 -0.044887356
-3.4047966 1.8179914 -0.75026101 57 2 -0.044885054
-3.3355005 1.78174 0.33084321 63 10 -0.044882748
-3.4011073 1.8167853 -0.61072022 56 3 -0.044880446
-3.3299778 1.7795359 0.46359101 67 11 -0.04487814
-3.3979411 1.8166177 -0.47309685 66 4 -0.044875838
-3.3130612 1.7719835 0.5950768 66 12 -0.044873536
-3.3834445 1.8103864 -0.33572391 63 5 -0.04487123
-3.3045402 1.7681668 0.72850877 55 13 -0.044868927
-3.3702669 1.804092 -0.20034206 58 6 -0.044866621
-3.3121369 1.7737201 0.86741126 69 14 -0.044864319
-3.3807979 1.8112488 -0.06694743 59 7 -0.044862013
-3.2981434 1.7677077 1.002665 61 15 -0.044859711
-2.6834085 1.4424506 -0.81631529 5 0 -0.044838972
-3.3444862 1.7985616 0.066284239 59 8 -0.04483667
-3.0564528 1.6443539 -0.80127567 3 1 -0.044834364
-3.3362668 1.795643 0.19856264 64 9 -0.044832062
-3.4125793 1.8367158 -0.75331396 57 2 -0.044829756
-3.3418539 1.7994024 0.33206338 66 10 -0.044827454
-3.3999622 1.8314558 -0.61165881 52 3 -0.044825152
-3.3150082 1.7864403 0.46237233 66 11 -0.044822846
-3.3933265 1.8294108 -0.47334057 67 4 -0.044820543
-3.3138108 1.7872878 0.59632826 63 12 -0.044818237
-3.3844366 1.8253795 -0.33642116 61 5 -0.044815935
-3.3052592 1.7834203 0.73003525 60 13 -0.044813629
-3.3674638 1.8177439 -0.20055141 58 6 -0.044811327
-3.2973521 1.7806411 0.86516178 66 14 -0.044809021
-3.3709364 1.8211372 -0.066877626 63 7 -0.044806719
-3.2970512 1.7819654 1.0042179 63 15 -0.044804413
-2.6885474 1.4573326 -0.81942111 6 0 -0.044783678
-3.3487349 1.8159447 0.066493668 59 8 -0.044781372
-3.0284264 1.6429325 -0.79542696 2 1 -0.04477907
-3.3299782 1.8072778 0.19856264 64 9 -0.044776767
-3.4044216 1.8476803 -0.75293231 56 2 -0.044774462
-3.3390541 1.8129581 0.332412 69 10 -0.044772159
-3.4039636 1.8489703 -0.61353606 52 3 -0.044769853
-3.3244503 1.8065315 0.46456599 67 11 -0.044767551
-3.3851759 1.8402957 -0.47309685 64 4 -0.044765245
-3.304081 1.7969568 0.59570253 61 12 -0.044762943
-3.3850455 1.8409902 -0.33711842 63 5 -0.044760637
-3.3128099 1.8024534 0.7330882 60 13 -0.044758335
-3.3698692 1.8342618 -0.20107476 55 6 -0.044756029
-3.2911167 1.7921395 0.86516178 64 14 -0.044753727
-3.3645585 1.8328937 -0.066877626 58 7 -0.044751421
-3.2958999 1.7962369 1.0057708 61 15 -0.044749118
-2.6817491 1.4657813 -0.81890345 4 0 -0.044728383
-3.3458848 1.8295417 0.06656348 59 8 -0.044726077
-3.0448987 1.6656518 -0.80127567 2 1 -0.044723775
-3.3344803 1.8240618 0.19919068 60 9 -0.044721469
-3.3893402 1.8548404 -0.75102425 52 2 -0.044719167
-3.3239672 1.8198185 0.33154044 63 10 -0.044716861
-3.3974888 1.8608412 -0.61353606 55 3 -0.044714559
-3.3250866 1.8219414 0.46554092 64 11 -0.044712253
-3.3891759 1.8578262 -0.47455928 64 4 -0.044709951
-3.2963717 1.8069543 0.59538966 64 12 -0.044707645
-3.3751044 1.850879 -0.33676979 63 5 -0.044705343
-3.3185461 1.8206172 0.7357595 61 13 -0.044703037
-3.3669479 1.8479348 -0.20128411 55 6 -0.044700734
-3.2916737 1.8073684 0.86696136 64 14 -0.044698428
-3.3584623 1.8440403 -0.066877626 58 7 -0.044696126
-3.2899251 1.8071567 1.0057708 60 15 -0.04469382
-2.6664646 1.4695395 -0.81579769 5 0 -0.044673085
-3.3397994 1.8406272 0.06656348 59 8 -0.044670783
-3.0547171 1.684208 -0.80532479 2 1 -0.044668477
-3.3368375 1.8405128 0.19971403 58 9 -0.044666175
-3.3931584 1.8723512 -0.75331396 52 2 -0.044663869
-3.3245721 1.8352621 0.33223769 67 10 -0.044661567
-3.3912992 1.8720975 -0.61353606 55 3 -0.044659261
-3.3294539 1.8387142 0.46700338 67 11 -0.044656958
-3.3829963 1.8690552 -0.47455928 66 4 -0.044654652
-3.2986887 1.8232276 0.59695399 66 12 -0.04465235
-3.3721101 1.8645781 -0.33711842 63 5 -0.044650044
-3.3021817 1.8259119 0.73346978 63 13 -0.044647742
-3.3747828 1.8668242 -0.20212148 55 6 -0.044645436
-3.3010077 1.8267665 0.87101048 67 14 -0.044643134
-3.3590024 1.8596274 -0.067017242 57 7 -0.044640832
-3.2819073 1.817693 1.0052532 65 15 -0.044638526
-2.6565106 1.4755591 -0.81424475 4 0 -0.044617791
-3.3298578 1.8503315 0.066493668 59 8 -0.044615485
-3.0300839 1.6844448 -0.80037582 3 1 -0.044613183
-3.3321376 1.8531207 0.1998187 60 9 -0.044610877
-3.3955097 1.8883643 -0.75522202 47 2 -0.044608574
-3.3184676 1.8462769 0.33223769 63 10 -0.044606268
-3.388196 1.8858446 -0.61416179 52 3 -0.044603966
-3.3160772 1.8464628 0.46602839 64 11 -0.04460166
-3.3937933 1.8905128 -0.47699666 66 4 -0.044599358
-3.2940297 1.8356919 0.59726685 64 12 -0.044597052
-3.3659091 1.8757488 -0.33711842 63 5 -0.04459475
-3.2975032 1.8383828 0.73385143 57 13 -0.044592448
-3.35778 1.8727559 -0.20149344 55 6 -0.044590142
-3.2895055 1.8354294 0.86966079 64 14 -0.044587839
-3.3594754 1.8752391 -0.067156859 59 7 -0.044585533
-3.282289 1.8329055 1.0073237 65 15 -0.044583231
-2.6648276 1.4923754 -0.81838584 4 0 -0.044562493
-3.3303573 1.8658525 0.066633284 59 8 -0.04456019
-3.015686 1.6902477 -0.79812634 2 1 -0.044557884
-3.3221643 1.8627872 0.19960935 60 9 -0.044555582
-3.3974593 1.9050063 -0.75713015 42 2 -0.044553276
-3.3241665 1.8646715 0.33345786 66 10 -0.044550974
-3.3884833 1.901527 -0.61541325 52 3 -0.044548668
-3.3078809 1.8570554 0.46578467 66 11 -0.044546366
-3.3767891 1.8965148 -0.47553423 64 4 -0.044544064
-3.301379 1.854921 0.59976977 64 12 -0.044541758
-3.3697624 1.8933431 -0.33816427 63 5 -0.044539455
-3.2927773 1.8508443 0.73423308 60 13 -0.044537149
-3.3512223 1.8844653 -0.20149344 55 6 -0.044534847
-3.2830784 1.8469008 0.86966079 64 14 -0.044532541
-3.3563943 1.8889161 -0.067226671 58 7 -0.044530239
-3.2826045 1.8481429 1.0093943 63 15 -0.044527933
-2.6646488 1.5045171 -0.81993878 6 0 -0.044507198
-3.3290472 1.8804168 0.066738002 60 8 -0.044504892
-3.0148571 1.7036409 -0.79947603 2 1 -0.04450259
-3.3191195 1.8763374 0.1998187 60 9 -0.044500284
-3.3839531 1.9129887 -0.75560367 41 2 -0.044497982
-3.3228402 1.8792062 0.3339808 63 10 -0.044495679
-3.3887017 1.9172354 -0.61666471 52 3 -0.044493373
-3.3013783 1.8685907 0.46578467 63 11 -0.044491071
-3.3666937 1.9063343 -0.47504675 66 4 -0.044488765
-3.2897274 1.8635128 0.59883118 66 12 -0.044486463
-3.369734 1.9096105 -0.33886153 63 5 -0.044484157
-3.2965448 1.8681346 0.73652273 60 13 -0.044481855
-3.3480992 1.8981211 -0.20170279 56 6 -0.044479549
-3.2732213 1.8564271 0.868761 66 14 -0.044477247
-3.346302 1.898647 -0.067156859 60 7 -0.044474941
-3.2828534 1.8634046 1.0114648 65 15 -0.044472639
-2.6440079 1.5056696 -0.81528002 6 0 -0.044451904
-3.3328893 1.8979633 0.06694743 57 8 -0.044449598
-2.9936531 1.7054722 -0.79542696 2 1 -0.044447295
-3.3160203 1.8898901 0.20002805 60 9 -0.044444989
-3.3803296 1.9273243 -0.75636691 32 2 -0.044442687
-3.3124683 1.8893988 0.33363217 63 10 -0.044440381
-3.3850837 1.9315999 -0.61729044 51 3 -0.044438079
-3.310353 1.888957 0.46797833 64 11 -0.044435773
-3.366914 1.922012 -0.47602168 64 4 -0.044433471
-3.2780566 1.8720461 0.59789258 60 12 -0.044431165
-3.3595881 1.919384 -0.3385129 63 5 -0.044428863
-3.2930844 1.8821529 0.73728597 60 13 -0.044426557
-3.3584576 1.9202944 -0.20274951 55 6 -0.044424254
-3.2765448 1.8742163 0.87146038 63 14 -0.044421948
-3.3431261 1.9123013 -0.067226671 57 7 -0.044419646
-3.274652 1.8738931 1.0109472 61 15 -0.04441734
-2.6504636 1.5216225 -0.81890345 4 0 -0.044396605
-3.3241763 1.9091704 0.066912524 59 8 -0.044394303
-3.0025892 1.7251704 -0.79947603 2 1 -0.044391997
-3.3159969 1.9060131 0.20044672 61 9 -0.044389695
-3.3769855 1.941069 -0.75713015 32 2 -0.044387389
-3.2989447 1.8969767 0.33293492 63 10 -0.044385087
-3.3817451 1.9453745 -0.61791623 55 3 -0.044382781
-3.303407 1.9010783 0.46797833 64 11 -0.044380479
-3.3701696 1.9402814 -0.47748414 66 4 -0.044378173
-3.2831554 1.8909495 0.6000827 61 12 -0.04437587
-3.3528671 1.9311004 -0.3385129 61 5 -0.044373564
-3.2830925 1.8916763 0.73652273 60 13 -0.044371262
-3.3517344 1.9320052 -0.20274951 52 6 -0.044368956
-3.2801113 1.891484 0.87415981 66 14 -0.044366654
-3.3430226 1.9285394 -0.067366287 59 7 -0.044364348
-3.2660892 1.8849165 1.0104296 63 15 -0.044362046
-2.6434641 1.5298976 -0.81838584 5 0 -0.044341311
-3.3123002 1.9177566 0.066807814 57 8 -0.044339005
-2.9813719 1.7268513 -0.79542696 2 1 -0.044336703
-3.3162363 1.9215813 0.20086543 61 9 -0.044334397
-3.3820803 1.9597343 -0.75980145 26 2 -0.044332094
-3.302645 1.9144758 0.3339808 63 10 -0.044329789
-3.368098 1.9532042 -0.61666471 51 3 -0.044327486
-3.2916002 1.9096086 0.4672471 66 11 -0.04432518
-3.3668098 1.9540268 -0.47797161 63 4 -0.044322878
-3.2850761 1.9073576 0.60164702 64 12 -0.044320572
-3.352998 1.9467939 -0.33921015 61 5 -0.04431827
-3.2730744 1.9011521 0.7357595 56 13 -0.044315964
-3.3415163 1.9416864 -0.20254017 51 6 -0.044313662
-3.2718041 1.9019431 0.87370992 67 14 -0.04431136
-3.3466427 1.9462279 -0.067575715 58 7 -0.044309054
-3.2644987 1.8992211 1.0119824 61 15 -0.044306751
-2.6431136 1.5420363 -0.81993878 4 0 -0.044286013
-3.3124945 1.9333383 0.06694743 57 8 -0.04428371
-2.9820576 1.7411774 -0.79722655 2 1 -0.044281404
-3.3077838 1.9321381 0.20076075 57 9 -0.044279102
-3.3836949 1.9764791 -0.76170951 23 2 -0.044276796
-3.3011029 1.9290086 0.33450374 61 10 -0.044274494
-3.3714921 1.9709297 -0.61854196 51 3 -0.044272188
-3.2917688 1.9250956 0.46822205 66 11 -0.044269886
-3.3599682 1.9657681 -0.47797161 64 4 -0.04426758
-3.2886279 1.9247996 0.60352427 64 12 -0.044265278
-3.3564997 1.9645241 -0.34025604 63 5 -0.044262975
-3.281666 1.9214935 0.7391941 61 13 -0.044260669
-3.3347178 1.9533393 -0.20254017 56 6 -0.044258367
-3.2651455 1.9133513 0.87370992 67 14 -0.044256061
-3.3432786 1.9599206 -0.067645527 57 7 -0.044253759
-3.2661812 1.9154912 1.0145707 63 15 -0.044251453
-2.6410456 1.5532113 -0.82097405 6 0 -0.044230718
-3.3195133 1.9530022 0.067226671 60 8 -0.044228412
-2.9658849 1.7456454 -0.79452711 2 1 -0.04422611
-3.3044615 1.9456996 0.20097008 58 9 -0.044223804
-3.3683164 1.9832979 -0.75980145 15 2 -0.044221502
-3.3132327 1.951643 0.33642116 63 10 -0.0442192
-3.3713992 1.9866983 -0.61979342 55 3 -0.044216894
-3.295289 1.9426229 0.46968448 66 11 -0.044214591
-3.3565059 1.9795005 -0.47845906 66 4 -0.044212285
-3.2801874 1.9352634 0.60321134 66 12 -0.044209983
-3.3530533 1.9782534 -0.34060463 63 5 -0.044207677
-3.2800105 1.935931 0.74033892 57 13 -0.044205375
-3.3416381 1.9730911 -0.20337754 56 6 -0.044203069
-3.2534132 1.9217639 0.87236023 66 14 -0.044200767
-3.32953 1.9675107 -0.067505911 58 7 -0.044198461
-3.2661276 1.9308124 1.0166413 66 15 -0.044196159
-2.6256368 1.55651 -0.81786817 5 0 -0.04417542
-3.3161156 1.9666177 0.067296483 57 8 -0.044173118
-2.9664774 1.7599649 -0.79632676 2 1 -0.044170815
-3.303144 1.959704 0.20128411 60 9 -0.04416851
-3.3579962 1.9930394 -0.75903821 12 2 -0.044166207
-3.2978344 1.9581105 0.33554959 61 10 -0.044163901
-3.3712373 2.0024898 -0.62104493 51 3 -0.044161599
-3.3004336 1.9612124 0.47139066 64 11 -0.044159293
-3.356401 1.9952625 -0.47943404 66 4 -0.044156991
-3.2703559 1.9441117 0.60258561 63 12 -0.044154685
-3.3427029 1.9879091 -0.34025604 63 5 -0.044152383
-3.2816691 1.9523876 0.74224705 61 13 -0.044150077
-3.3450279 1.9908725 -0.20400558 55 6 -0.044147775
-3.2584059 1.9400874 0.8755095 67 14 -0.044145469
-3.3264241 1.9805863 -0.067575715 60 7 -0.044143166
-3.2597067 1.9416327 1.0166413 66 15 -0.04414086
-2.6268206 1.5696301 -0.81993878 4 0 -0.044120125
-3.3061428 1.9755524 0.067226671 57 8 -0.044117823
-2.9706607 1.775792 -0.79902619 2 1 -0.044115517
-3.3031402 1.975322 0.20170279 60 9 -0.044113215
-3.3560731 2.0077729 -0.7601831 11 2 -0.044110909
-3.2892694 1.9685872 0.33537531 60 10 -0.044108607
-3.3611879 2.0116293 -0.62041914 52 3 -0.044106301
-3.2939124 1.9721456 0.47139066 64 11 -0.044103999
-3.3565776 2.010462 -0.480409 66 4 -0.044101693
-3.2686331 1.9585615 0.60352427 64 12 -0.044099391
-3.3323255 1.9975164 -0.33990738 60 5 -0.044097085
-3.266757 1.9582124 0.74033892 57 13 -0.044094782
-3.3384078 2.0019543 -0.20400558 56 6 -0.044092476
-3.2636521 1.9578998 0.87865883 66 14 -0.044090174
-3.329778 1.9983599 -0.067785151 57 7 -0.044087868
-3.2495968 1.9510107 1.015606 63 15 -0.044085566
-2.6282215 1.5823175 -0.82200933 5 0 -0.044064831
-3.3026526 1.9891443 0.067296483 55 8 -0.044062525
-2.9560983 1.7811214 -0.79677659 2 1 -0.044060223
-3.3030667 1.9909652 0.20212148 61 9 -0.044057917
-3.3662109 2.0290263 -0.76399928 9 2 -0.044055615
-3.2895482 1.9835993 0.33607253 60 10 -0.044053309
-3.3609121 2.0274308 -0.62167066 52 3 -0.044051006
-3.2802091 1.9795295 0.47041571 64 11 -0.0440487
-3.3563373 2.0262702 -0.48138395 66 4 -0.044046398
-3.2753041 1.9781282 0.60602719 64 12 -0.044044092
-3.338975 2.017379 -0.34130189 61 5 -0.04404179
-3.2632627 1.9716343 0.74110222 57 13 -0.044039484
-3.3211432 2.0073965 -0.20337754 55 6 -0.044037182
-3.2584658 1.9702878 0.87910873 67 14 -0.044034876
-3.3296261 2.0141108 -0.067924768 58 7 -0.044032574
-3.2526832 1.9683431 1.0187118 65 15 -0.044030271
-2.6257071 1.5939447 -0.8230446 4 0 -0.044009533
-3.302527 2.0048106 0.067436099 57 8 -0.044007231
-2.9731824 1.805591 -0.80307525 2 1 -0.044004925
-3.2960966 2.0024829 0.20212148 61 9 -0.044002622
-3.363785 2.0444086 -0.76514411 8 2 -0.044000316
-3.2924707 2.0018528 0.33711842 57 10 -0.043998014
-3.3534582 2.0397363 -0.62167066 52 3 -0.043995708
-3.2749753 1.9919994 0.47065943 63 11 -0.043993406
-3.3458524 2.0359092 -0.48089647 66 4 -0.0439911
-3.2751281 1.9936585 0.60727865 64 12 -0.043988798
-3.3421228 2.0352395 -0.34234774 63 5 -0.043986492
-3.2711043 1.9927735 0.74453676 61 13 -0.04398419
-3.3205855 2.0237134 -0.20379624 56 6 -0.043981887
-3.249558 1.9812038 0.87865883 66 14 -0.043979581
-3.3259897 2.0278029 -0.067994572 57 7 -0.043977279
-3.2490919 1.9816965 1.0197471 63 15 -0.043974973
-2.608592 1.5960429 -0.81942111 5 0 -0.043954238
-3.3019786 2.0210783 0.067575715 55 8 -0.043951932
-2.9416156 1.8012116 -0.79632676 2 1 -0.04394963
-3.2890873 2.0139756 0.20212148 60 9 -0.043947324
-3.3616505 2.0592144 -0.766289 8 2 -0.043945022
-3.2888601 2.0154161 0.33746704 57 10 -0.043942716
-3.3597908 2.0596881 -0.62417358 50 3 -0.043940414
-3.2794983 2.0112531 0.47236562 59 11 -0.043938112
-3.3417516 2.050236 -0.48138395 63 4 -0.043935806
-3.2563627 1.9978479 0.60508859 66 12 -0.043933503
-3.3417907 2.0510614 -0.343045 63 5 -0.043931197
-3.2691476 2.0072615 0.74568158 60 13 -0.043928895
-3.3203084 2.0394735 -0.20421492 53 6 -0.043926589
-3.2426229 1.9925342 0.87865883 66 14 -0.043924287
-3.3154843 2.0373061 -0.067924768 55 7 -0.043921981
-3.2520285 1.9990968 1.0228529 63 15 -0.043919679
-2.5931387 1.5990551 -0.81631529 5 0 -0.04389894
-3.2952588 2.0320163 0.067575715 57 8 -0.043896638
-2.9488947 1.8191417 -0.79992598 2 1 -0.043894336
-3.2871358 2.0285914 0.20243551 58 9 -0.04389203
-3.3678057 2.0791879 -0.76934189 8 2 -0.043889727
-3.2851954 2.0289774 0.33781564 57 10 -0.043887421
-3.3613453 2.0760083 -0.62573791 48 3 -0.043885119
-3.2744992 2.0231607 0.47260937 63 11 -0.043882813
-3.3416886 2.0654812 -0.4823589 64 4 -0.043880511
-3.2527297 2.0112798 0.60571432 63 12 -0.043878205
-3.3244443 2.0564253 -0.34199914 60 5 -0.043875903
-3.2624731 2.0180914 0.74568158 60 13 -0.043873597
-3.3237174 2.0567789 -0.20484295 53 6 -0.043871295
-3.247596 2.0104566 0.8818081 67 14 -0.043868989
-3.3117523 2.0509727 -0.067994572 58 7 -0.043866687
-3.2384615 2.0063667 1.0207824 63 15 -0.043864381
-2.6058726 1.6188592 -0.82200933 5 0 -0.043843646
-3.2915423 2.0456173 0.067645527 57 8 -0.043841343
-2.9441814 1.8304532 -0.80037582 2 1 -0.043839037
-3.2905676 2.0458078 0.20306353 58 9 -0.043836735
-3.3542244 2.0861962 -0.76781541 8 2 -0.043834429
-3.2733738 2.0367029 0.3372927 55 10 -0.043832127
-3.3490469 2.0845978 -0.62479931 50 3 -0.043829821
-3.2741575 2.0387759 0.47358429 63 11 -0.043827519
-3.3445685 2.0834301 -0.48382133 61 4 -0.043825213
-3.2594557 2.030411 0.6082173 63 12 -0.043822911
-3.3176067 2.0674386 -0.34199914 61 5 -0.043820605
-3.2554085 2.0294683 0.74568158 60 13 -0.043818302
-3.3266861 2.0747089 -0.20547098 53 6 -0.043815996
-3.2504785 2.0279696 0.88450754 67 14 -0.043813694
-3.3083262 2.0640607 -0.068064384 60 7 -0.043811388
-3.2416232 2.023232 1.0238881 63 15 -0.043809086
-2.6018438 1.6289703 -0.82252699 3 0 -0.043788351
-3.288131 2.0586431 0.067715339 53 8 -0.043786045
-2.9298375 1.8350344 -0.79812634 2 1 -0.043783743
-3.2935612 2.0636444 0.20369156 54 9 -0.043781437
