# This PCD file was generated using the MATLAB® pcwrite function
# from Computer Vision Toolbox®.
# .PCD v.7 - Point Cloud Data file format
VERSION .7
FIELDS x y z intensity
SIZE 4 4 4 4
TYPE F F F F
COUNT 1 1 1 1
WIDTH 1240
HEIGHT 1
VIEWPOINT 0 0 0 1 0 0 0
POINTS 1240
DATA ascii
-11.712842 3.632450 -0.642686 7.000000
-3.821017 1.185725 0.923649 18.000000
-9.637115 2.990558 -0.176130 45.000000
-3.796921 1.178976 1.065299 26.000000
-7.112633 2.219424 0.130055 57.000000
-10.089594 3.150287 -2.440269 2.000000
-5.635276 1.760589 0.309410 45.000000
-11.025593 3.446759 -2.245440 1.000000
-4.791856 1.498921 0.439265 53.000000
-3.965110 1.241070 0.510145 31.000000
-11.313110 3.543144 -1.455608 6.000000
-3.779394 1.184390 0.627302 60.000000
-11.600601 3.637630 -1.063649 9.000000
-6.228769 1.953171 1.268880 6.000000
-11.967523 3.754981 -0.657340 7.000000
-3.833797 1.203643 0.927698 16.000000
-9.746807 3.061940 -0.178329 39.000000
-3.763296 1.182952 1.057017 12.000000
-7.080054 2.236409 0.129602 55.000000
-5.646235 1.785669 0.310352 30.000000
-11.051539 3.495142 -2.253073 1.000000
-4.784959 1.514202 0.439091 63.000000
-3.992924 1.265096 0.514289 17.000000
-11.488009 3.642004 -1.479738 4.000000
-3.760173 1.192797 0.624799 31.000000
-11.594172 3.677887 -1.064172 3.000000
-6.236884 1.979654 1.271933 4.000000
-11.950536 3.795524 -0.657130 7.000000
-3.833287 1.218199 0.928598 16.000000
-9.789419 3.112909 -0.179306 39.000000
-3.748098 1.192567 1.053911 9.000000
-7.131250 2.279987 0.130684 57.000000
-5.784533 1.851644 0.318307 37.000000
-4.775850 1.529681 0.438742 63.000000
-4.107571 1.317215 0.529644 38.000000
-11.556504 3.708162 -1.490219 6.000000
-3.767271 1.209538 0.626676 16.000000
-11.824080 3.796296 -1.086483 6.000000
-3.747681 1.203970 0.765144 4.000000
-11.960032 3.844551 -0.658386 7.000000
-3.834576 1.233362 0.929948 12.000000
-9.900321 3.186270 -0.181540 39.000000
-3.742074 1.205051 1.053394 8.000000
-7.224085 2.337492 0.132534 57.000000
-5.800835 1.879211 0.319563 50.000000
-11.232316 3.638767 -2.295051 1.000000
-4.761005 1.543269 0.437870 60.000000
-4.123717 1.338286 0.532325 56.000000
-11.526498 3.742959 -1.488025 6.000000
-3.778056 1.227565 0.629180 14.000000
-11.814546 3.838778 -1.086832 6.000000
-3.739721 1.215831 0.764381 31.000000
-12.121274 3.943116 -0.668016 7.000000
-5.614731 1.827587 1.363203 3.000000
-9.949983 3.240626 -0.182657 35.000000
-3.763559 1.226487 1.060640 8.000000
-7.219683 2.363940 0.132603 55.000000
-5.782853 1.895714 0.318935 58.000000
-11.208353 3.674281 -2.292761 1.000000
-4.759375 1.561121 0.438219 60.000000
-4.119021 1.352671 0.532325 52.000000
-11.730239 3.854438 -1.516055 4.000000
-3.779377 1.242596 0.630118 14.000000
-11.801073 3.879996 -1.086832 3.000000
-3.737320 1.229490 0.764763 54.000000
-12.133995 3.994148 -0.669482 7.000000
-10.062060 3.316020 -0.184926 42.000000
-3.825303 1.261396 1.079275 19.000000
-7.218979 2.391644 0.132743 57.000000
-5.766722 1.912744 0.318412 60.000000
-4.725532 1.568312 0.435604 61.000000
-4.118042 1.368293 0.532813 53.000000
-11.782643 3.917280 -1.524586 7.000000
-3.773142 1.255157 0.629805 14.000000
-12.063478 4.012982 -1.112282 6.000000
-3.731142 1.241908 0.764381 67.000000
-12.298102 4.095803 -0.679321 7.000000
-3.804811 1.267904 0.925899 9.000000
-10.082672 3.361878 -0.185519 42.000000
-3.813547 1.272295 1.077205 5.000000
-7.305389 2.448602 0.134488 57.000000
-5.760010 1.932864 0.318412 52.000000
-11.506287 3.861120 -2.359163 1.000000
-4.716252 1.583529 0.435256 52.000000
-11.047924 3.711597 -1.845927 48.000000
-4.100069 1.378233 0.531107 58.000000
-11.753846 3.953321 -1.522636 7.000000
-3.770611 1.268950 0.630118 11.000000
-12.041842 4.052526 -1.111584 6.000000
-3.710039 1.249287 0.760946 66.000000
-12.389724 4.174415 -0.685182 7.000000
-3.805902 1.283046 0.927248 10.000000
-10.188353 3.436680 -0.187683 39.000000
-5.075726 1.713103 1.435410 3.000000
-7.364974 2.497204 0.135745 60.000000
-5.781597 1.962587 0.319982 28.000000
-11.492739 3.901258 -2.359163 1.000000
-4.742766 1.610875 0.438219 28.000000
-11.027420 3.747596 -1.844675 14.000000
-4.093354 1.391897 0.530863 51.000000
-11.967369 4.071692 -1.552128 4.000000
-3.782988 1.287834 0.632934 3.000000
-12.057798 4.104811 -1.114373 3.000000
-3.696363 1.259064 0.759038 68.000000
-12.378858 4.218927 -0.685392 7.000000
-10.240642 3.494179 -0.188870 42.000000
-5.067887 1.730185 1.434893 4.000000
-7.356212 2.522898 0.135745 57.000000
-5.906941 2.028158 0.327309 43.000000
-11.386209 3.909474 -2.340082 1.000000
-4.876552 1.675324 0.451118 42.000000
-10.993722 3.779003 -1.841234 17.000000
-4.069699 1.399720 0.528426 55.000000
-11.986870 4.125069 -1.556515 7.000000
-7.190858 2.476012 1.204545 2.000000
-12.276994 4.227309 -1.135988 9.000000
-3.684521 1.269401 0.757512 57.000000
-12.567983 4.332409 -0.696696 7.000000
-5.631720 1.942456 1.375351 3.000000
-10.339911 3.568391 -0.190929 42.000000
-5.094685 1.759216 1.444210 4.000000
-7.383257 2.561010 0.136408 54.000000
-10.751524 3.731457 -2.627428 3.000000
-5.913033 2.053352 0.328042 54.000000
-10.977459 3.812017 -2.258797 1.000000
-4.893260 1.700182 0.453210 56.000000
-4.072288 1.416526 0.529400 52.000000
-11.964898 4.164279 -1.555540 2.000000
-3.816811 1.329154 0.640130 4.000000
-12.262163 4.270136 -1.135988 6.000000
-3.674506 1.280317 0.756367 34.000000
-12.567870 4.381517 -0.697534 7.000000
-5.626746 1.962744 1.375801 3.000000
-10.393471 3.627526 -0.192151 43.000000
-5.099457 1.780810 1.447316 4.000000
-7.502585 2.631779 0.138782 54.000000
-10.731078 3.766383 -2.625629 6.000000
-5.890755 2.068684 0.327204 54.000000
-10.947416 3.844456 -2.255363 13.000000
-4.868497 1.710649 0.451467 57.000000
-4.057955 1.427438 0.528182 50.000000
-12.195588 4.292351 -1.587470 5.000000
-3.754389 1.322129 0.630431 13.000000
-12.435110 4.379092 -1.153419 3.000000
-3.679273 1.296397 0.758275 17.000000
-12.601475 4.442623 -0.700255 7.000000
-3.679189 1.297812 0.900704 3.000000
-10.473144 3.696398 -0.193861 43.000000
-5.104139 1.802459 1.450422 4.000000
-7.499007 2.659957 0.138886 60.000000
-10.688481 3.793387 -2.618430 6.000000
-5.883862 2.088207 0.327204 56.000000
-10.933928 3.882649 -2.255363 1.000000
-4.856864 1.725632 0.450944 55.000000
-4.064169 1.445587 0.529644 28.000000
-12.193622 4.339555 -1.589176 7.000000
-3.731374 1.327948 0.627302 14.000000
-12.461042 4.437173 -1.157254 6.000000
-3.695068 1.316481 0.762473 16.000000
-12.830458 4.573767 -0.713862 7.000000
-3.680143 1.312611 0.902054 30.000000
-10.534286 3.757306 -0.195223 40.000000
-5.098134 1.819375 1.450422 4.000000
-7.480733 2.681437 0.138712 54.000000
-10.668507 3.826180 -2.616631 9.000000
-5.870897 2.106710 0.326890 41.000000
-11.977231 4.300266 -2.473648 2.000000
-4.848936 1.741900 0.450770 50.000000
-4.128473 1.483899 0.538663 28.000000
-12.223994 4.396090 -1.595026 2.000000
-3.797346 1.366380 0.639191 14.000000
-12.479218 4.492795 -1.160392 3.000000
-3.690682 1.328727 0.762473 15.000000
-12.822737 4.618998 -0.714281 7.000000
-3.675770 1.324808 0.902054 55.000000
-10.633972 3.834756 -0.197317 37.000000
-5.109924 1.843716 1.455598 4.000000
-7.516449 2.723883 0.139549 34.000000
-10.728368 3.889967 -2.634627 9.000000
-5.963016 2.163292 0.332438 22.000000
-11.870627 4.306484 -2.454567 2.000000
-4.841260 1.757290 0.450595 55.000000
-4.205360 1.528133 0.549387 44.000000
-12.438046 4.522162 -1.625006 7.000000
-3.801836 1.383003 0.640756 60.000000
-12.703914 4.621333 -1.182703 6.000000
-3.693401 1.344288 0.763999 15.000000
-13.054258 4.753942 -0.728098 7.000000
-3.647321 1.328957 0.896205 56.000000
-10.695672 3.899249 -0.198713 40.000000
-4.154272 1.515316 1.184874 1.000000
-7.634575 2.796879 0.141923 39.000000
-10.791570 3.955561 -2.653523 20.000000
-6.034184 2.212975 0.336834 45.000000
-4.836967 1.774866 0.450770 37.000000
-4.203726 1.544172 0.549874 55.000000
-12.394237 4.555278 -1.621350 7.000000
-3.735803 1.373768 0.630431 73.000000
-12.717623 4.676655 -1.185492 6.000000
-3.688686 1.357172 0.763999 13.000000
-13.045083 4.802238 -0.728517 7.000000
-3.631687 1.337640 0.893506 55.000000
-10.798327 3.979432 -0.200877 43.000000
-5.125929 1.890037 1.463881 4.000000
-7.636018 2.827679 0.142132 39.000000
-10.861754 4.024354 -2.674218 6.000000
-6.024550 2.233331 0.336730 54.000000
-4.907331 1.820146 0.457916 26.000000
-4.216920 1.565745 0.552312 56.000000
-12.629472 4.691839 -1.654255 5.000000
-3.629146 1.348947 0.613223 61.000000
-12.906651 4.797378 -1.204667 6.000000
-3.709688 1.379620 0.769342 6.000000
-13.177990 4.903466 -0.736890 7.000000
-3.623343 1.348949 0.892606 55.000000
-10.840590 4.038039 -0.201924 43.000000
-5.117490 1.907245 1.463363 9.000000
-7.614864 2.850109 0.141923 33.000000
-10.913341 4.086844 -2.690415 3.000000
-6.003625 2.249442 0.335997 47.000000
-4.975571 1.865241 0.464889 44.000000
-4.200278 1.576271 0.550849 59.000000
-12.666911 4.756135 -1.661323 2.000000
-3.615170 1.358132 0.611659 69.000000
-12.915939 4.852208 -1.207107 6.000000
-6.380575 2.398299 1.324978 4.000000
-13.269219 4.990216 -0.742961 7.000000
-3.622260 1.362961 0.893506 55.000000
-10.968658 4.129402 -0.204577 43.000000
-5.121648 1.929183 1.466469 6.000000
-7.739534 2.927614 0.144436 31.000000
-10.957330 4.146987 -2.704811 3.000000
-5.996133 2.269338 0.335997 43.000000
-4.969030 1.882597 0.464889 48.000000
-11.830818 4.484657 -2.003926 15.000000
-4.183614 1.586699 0.549387 57.000000
-3.608799 1.369413 0.611346 67.000000
-12.925000 4.907164 -1.209547 3.000000
-6.385011 2.425439 1.327649 6.000000
-13.330133 5.066303 -0.747358 7.000000
-3.612016 1.373519 0.892156 35.000000
-11.029670 4.194183 -0.205973 43.000000
-5.124250 1.949592 1.469057 3.000000
-7.761541 2.965394 0.145030 37.000000
-6.032947 2.307377 0.338509 28.000000
-4.968010 1.902068 0.465412 52.000000
-11.814036 4.523159 -2.003613 17.000000
-4.165353 1.595593 0.547681 50.000000
-3.594775 1.378465 0.609782 66.000000
-13.147757 5.044317 -1.232034 10.000000
-6.395262 2.453630 1.331465 2.000000
-13.522095 5.190644 -0.759081 7.000000
-3.603803 1.384092 0.891256 15.000000
-11.134426 4.278564 -0.208207 47.000000
-3.604549 1.385822 1.034759 11.000000
-7.767930 2.998953 0.145344 31.000000
-6.131046 2.369461 0.344475 40.000000
-11.785957 4.554911 -2.456094 4.000000
-4.961676 1.918532 0.465412 50.000000
-11.805545 4.567221 -2.004864 2.000000
-4.154204 1.607973 0.546950 50.000000
-3.577048 1.386009 0.607592 67.000000
-13.143072 5.095222 -1.233254 3.000000
-4.028959 1.561921 0.839941 1.000000
-13.481547 5.229146 -0.757825 7.000000
-3.608033 1.400188 0.893506 16.000000
-11.208901 4.352148 -0.209883 42.000000
-3.592487 1.395598 1.032688 37.000000
-7.880371 3.074013 0.147647 39.000000
-6.139481 2.397388 0.345417 50.000000
-11.747238 4.589508 -2.451514 4.000000
-4.936055 1.929450 0.463669 44.000000
-4.144868 1.621019 0.546462 46.000000
-3.568509 1.397046 0.606966 67.000000
-13.362665 5.234081 -1.255566 6.000000
-6.428723 2.519389 1.342151 6.000000
-13.704020 5.373302 -0.771432 7.000000
-3.610134 1.416250 0.895305 15.000000
-11.288580 4.428492 -0.211663 45.000000
-3.585795 1.407424 1.032170 53.000000
-7.898817 3.114611 0.148206 65.000000
-6.123222 2.416940 0.344999 45.000000
-11.725670 4.628321 -2.450369 12.000000
-4.927436 1.945938 0.463494 37.000000
-4.149976 1.640578 0.547925 33.000000
-3.563365 1.410116 0.606966 40.000000
-13.340608 5.279227 -1.255217 6.000000
-6.430842 2.546149 1.344440 9.000000
-13.722315 5.435820 -0.773526 7.000000
-3.617850 1.433869 0.898454 15.000000
-11.417268 4.527329 -0.214385 45.000000
-3.568043 1.415570 1.028547 57.000000
-7.876750 3.137726 0.147996 58.000000
-6.112893 2.437559 0.344894 42.000000
-4.968728 1.982322 0.468026 24.000000
-4.210591 1.681558 0.556699 19.000000
-3.571261 1.427679 0.609156 18.000000
-13.562605 5.421906 -1.277877 7.000000
-6.432852 2.572957 1.346730 6.000000
-13.933189 5.575700 -0.786505 7.000000
-3.620059 1.449386 0.900254 15.000000
-11.477502 4.597646 -0.215816 45.000000
-3.561287 1.427298 1.028029 58.000000
-7.969636 3.207004 0.149951 40.000000
-6.135840 2.471570 0.346673 28.000000
-12.714689 5.121588 -2.664457 2.000000
-5.083744 2.048806 0.479531 38.000000
-4.285696 1.728924 0.567424 38.000000
-12.749417 5.145920 -1.688134 2.000000
-3.575414 1.443834 0.610720 13.000000
-13.562071 5.476676 -1.279621 7.000000
-6.451135 2.606428 1.352454 4.000000
-13.961787 5.643760 -0.789226 7.000000
-3.614978 1.462013 0.900254 10.000000
-11.589288 4.689436 -0.218225 45.000000
-3.554492 1.438995 1.027512 56.000000
-8.036200 3.266430 0.151417 43.000000
-6.245575 2.541145 0.353372 35.000000
-5.083942 2.069544 0.480228 48.000000
-4.301695 1.752862 0.570349 52.000000
-3.572180 1.457053 0.611033 13.000000
-13.815903 5.635355 -1.305419 7.000000
-3.540918 1.445021 0.743392 2.000000
-14.152795 5.778528 -0.801159 7.000000
-5.744013 2.346428 1.432488 1.000000
-11.693170 4.779035 -0.220494 43.000000
-3.544083 1.449200 1.025959 52.000000
-8.033998 3.298259 0.151592 40.000000
-6.244504 2.564878 0.353791 42.000000
-5.067474 2.083490 0.479357 52.000000
-4.291878 1.766356 0.569861 53.000000
-12.682886 5.219740 -1.683991 33.000000
-3.570982 1.470394 0.611659 13.000000
-13.796149 5.683544 -1.305419 7.000000
-3.541297 1.459617 0.744537 30.000000
-14.106688 5.817236 -0.799693 7.000000
-5.747010 2.369919 1.435188 3.000000
-11.765986 4.854393 -0.222169 43.000000
-3.524972 1.455048 1.021818 23.000000
-8.135704 3.371583 0.153721 42.000000
-6.235965 2.585570 0.353791 40.000000
-5.056857 2.098756 0.479008 56.000000
-12.637272 5.247454 -2.167243 11.000000
-4.287831 1.781340 0.570105 59.000000
-3.617161 1.503457 0.620419 18.000000
-14.012702 5.827186 -1.327731 7.000000
-3.525562 1.466828 0.742247 60.000000
-14.345465 5.971439 -0.814348 7.000000
-5.757110 2.396453 1.439687 5.000000
-11.880890 4.947969 -0.224647 39.000000
-3.525477 1.468958 1.023371 16.000000
-8.153995 3.410890 0.154279 45.000000
-6.232428 2.609638 0.354105 39.000000
-5.049869 2.115514 0.479008 56.000000
-12.616158 5.287802 -2.166618 11.000000
-4.261763 1.787105 0.567424 55.000000
-3.653784 1.533658 0.627615 40.000000
-13.988602 5.874521 -1.327382 7.000000
-3.493271 1.467718 0.736523 61.000000
-5.763081 2.422578 1.443286 5.000000
-11.987047 5.041352 -0.226986 39.000000
-3.550599 1.493993 1.032170 17.000000
-8.163543 3.450093 0.154698 39.000000
-6.259611 2.648025 0.356199 29.000000
-12.569129 5.319752 -2.653008 6.000000
-5.042081 2.134008 0.479008 50.000000
-12.653080 5.357887 -2.176316 2.000000
-4.251529 1.801164 0.566936 55.000000
-3.668143 1.555523 0.631057 60.000000
-14.238431 6.040918 -1.353180 7.000000
-3.496903 1.484347 0.738431 63.000000
-14.570767 6.187924 -0.829630 7.000000
-5.764926 2.448253 1.445985 3.000000
-12.124929 5.151719 -0.229953 45.000000
-3.546878 1.507752 1.032688 16.000000
-8.279579 3.534955 0.157141 36.000000
-6.354548 2.715690 0.362165 39.000000
-12.546873 5.362051 -2.652245 20.000000
-5.045218 2.157172 0.480054 30.000000
-4.243073 1.815954 0.566692 56.000000
-3.662417 1.568957 0.631057 65.000000
-14.224581 6.093725 -1.353877 7.000000
-3.486287 1.494225 0.737286 61.000000
-5.763077 2.472440 1.447785 7.000000
-12.199682 5.236352 -0.231733 45.000000
-3.557304 1.527603 1.037347 16.000000
-8.300242 3.578083 0.157770 45.000000
-6.359700 2.744183 0.363002 40.000000
-12.504646 5.395701 -2.647284 20.000000
-5.171190 2.232417 0.492779 38.000000
-4.234887 1.829966 0.566449 50.000000
-3.631535 1.570753 0.626676 65.000000
-14.466551 6.257238 -1.378978 7.000000
-3.482852 1.507164 0.737668 63.000000
-14.787479 6.402174 -0.844493 7.000000
-5.791964 2.508807 1.457233 7.000000
-12.320774 5.339336 -0.234386 41.000000
-3.546632 1.537705 1.035794 16.000000
-8.350045 3.634168 0.158957 41.000000
-6.346903 2.763663 0.362793 40.000000
-12.485736 5.439318 -2.647284 18.000000
-5.179803 2.257620 0.494347 56.000000
-4.243029 1.851088 0.568399 26.000000
-13.539543 5.909654 -1.813903 78.000000
-3.626306 1.582787 0.626676 65.000000
-14.459228 6.314077 -1.380373 3.000000
-3.473972 1.517740 0.736904 57.000000
-14.984648 6.549747 -0.857054 7.000000
-5.795670 2.534475 1.460382 3.000000
-12.456903 5.447466 -0.237318 41.000000
-3.541514 1.549457 1.035794 13.000000
-8.427661 3.701238 0.160667 45.000000
-6.337217 2.785801 0.362793 37.000000
-12.570906 5.528711 -2.669418 18.000000
-5.171892 2.275686 0.494347 60.000000
-4.360412 1.919535 0.584973 34.000000
-13.519873 5.954518 -1.813903 34.000000
-3.618952 1.594640 0.626364 42.000000
-14.659517 6.462559 -1.401639 7.000000
-3.456345 1.523709 0.734233 35.000000
-15.054214 6.639700 -0.862287 8.000000
-3.478402 1.534883 0.877759 12.000000
-12.573185 5.550676 -0.239901 46.000000
-3.541385 1.564152 1.037347 2.000000
-8.429315 3.737115 0.160946 62.000000
-6.405953 2.842741 0.367294 28.000000
-12.672733 5.623722 -2.694986 15.000000
-5.160675 2.291207 0.493999 59.000000
-13.467516 5.982046 -2.334002 3.000000
-4.397222 1.954092 0.590823 64.000000
-13.475422 5.991194 -1.810735 9.000000
-3.656681 1.626529 0.633873 19.000000
-14.721747 6.548386 -1.409657 3.000000
-3.463561 1.541352 0.736904 17.000000
-15.213407 6.773447 -0.872754 8.000000
-3.451662 1.537500 0.872360 41.000000
-12.674284 5.648254 -0.242204 42.000000
-5.194460 2.315983 1.523927 4.000000
-8.533033 3.818798 0.163180 62.000000
-6.470725 2.898560 0.371585 36.000000
-12.744405 5.708854 -2.714449 2.000000
-5.141737 2.304319 0.492953 56.000000
-13.421318 6.017706 -2.329623 9.000000
-4.381319 1.965366 0.589604 66.000000
-3.762709 1.689449 0.653270 48.000000
-14.898734 6.689505 -1.428831 7.000000
-3.476067 1.561478 0.740721 15.000000
-3.440941 1.547142 0.871010 53.000000
-12.796736 5.756453 -0.244927 46.000000
-5.196915 2.338856 1.527032 4.000000
-8.568855 3.870787 0.164122 52.000000
-6.466026 2.923599 0.371899 37.000000
-12.690410 5.737940 -2.707198 2.000000
-5.130031 2.320611 0.492604 38.000000
-13.393033 6.061258 -2.328371 18.000000
-4.370814 1.979011 0.589116 64.000000
-3.787375 1.716435 0.658589 76.000000
-15.096686 6.841807 -1.450097 4.000000
-3.479536 1.577655 0.742629 15.000000
-15.460405 7.013149 -0.889711 8.000000
-3.431971 1.557533 0.870111 61.000000
-12.927691 5.869701 -0.247824 38.000000
-5.199272 2.361777 1.530138 4.000000
-8.584406 3.913946 0.164681 44.000000
-6.470317 2.952786 0.372737 34.000000
-12.470263 5.690914 -2.664457 2.000000
-5.172647 2.361672 0.497485 27.000000
-4.356658 1.990955 0.588142 63.000000
-3.777768 1.728002 0.657963 81.000000
-15.076336 6.896120 -1.450446 4.000000
-3.479364 1.592242 0.743774 15.000000
-15.686438 7.181811 -0.904156 8.000000
-3.431828 1.571938 0.871460 63.000000
-13.072553 5.990602 -0.251001 44.000000
-5.189240 2.379107 1.529621 8.000000
-8.690586 3.999059 0.166985 49.000000
-6.537977 3.011280 0.377238 27.000000
-12.389694 5.706481 -2.651482 2.000000
-5.292848 2.438915 0.509861 49.000000
-4.346076 2.004488 0.587654 64.000000
-3.769919 1.740351 0.657651 79.000000
-15.323514 7.073968 -1.476593 8.000000
-3.463090 1.599439 0.741484 13.000000
-3.433396 1.587179 0.873260 63.000000
-13.220356 6.114263 -0.254247 44.000000
-4.581287 2.119763 1.352588 3.000000
-8.689269 4.035266 0.167229 49.000000
-6.601684 3.068601 0.381529 33.000000
-12.273563 5.705009 -2.630875 2.000000
-5.293335 2.461578 0.510733 61.000000
-4.328255 2.014620 0.586192 64.000000
-14.329766 6.672948 -1.940891 27.000000
-3.767403 1.755168 0.658276 76.000000
-15.482940 7.213235 -1.494372 4.000000
-3.468163 1.616493 0.743774 9.000000
-15.907435 7.417759 -0.919857 8.000000
-3.401344 1.586796 0.866511 61.000000
-9.728868 4.540778 -0.187404 68.000000
-5.214515 2.434893 1.542044 6.000000
-8.785583 4.117339 0.169358 41.000000
-6.583700 3.088234 0.381110 39.000000
-12.143373 5.696125 -2.607214 2.000000
-5.268477 2.472422 0.509164 61.000000
-4.319399 2.028872 0.585948 57.000000
-14.306386 6.722928 -1.940891 6.000000
-3.748740 1.762424 0.656086 81.000000
-15.529792 7.301142 -1.501345 8.000000
-3.618835 1.702124 0.777356 3.000000
-16.152523 7.600801 -0.935558 8.000000
-3.392259 1.596998 0.865612 46.000000
-9.684011 4.561080 -0.186845 78.000000
-5.211226 2.455550 1.543597 11.000000
-8.827198 4.174481 0.170440 51.000000
-6.576488 3.112907 0.381320 33.000000
-12.034689 5.696485 -2.588133 2.000000
-5.250812 2.486533 0.508292 57.000000
-14.243843 6.748245 -2.496382 27.000000
-4.330228 2.052440 0.588385 31.000000
-3.728287 1.768726 0.653583 74.000000
-15.745423 7.469739 -1.524703 9.000000
-4.003069 1.899941 0.861312 4.000000
-9.665071 4.589311 -0.560727 26.000000
-3.407786 1.618864 0.871010 24.000000
-9.666225 4.593997 -0.186811 81.000000
-3.393395 1.613479 1.006806 2.000000
-8.846863 4.221632 0.171103 42.000000
-6.659300 3.180604 0.386763 22.000000
-11.954498 5.709687 -2.575158 2.000000
-5.236707 2.502270 0.507769 55.000000
-14.211289 6.793665 -2.494817 3.000000
-4.450186 2.128353 0.605691 39.000000
-3.729217 1.785142 0.654835 74.000000
-15.870208 7.596921 -1.539345 4.000000
-3.534267 1.692578 0.761710 13.000000
-9.650794 4.623884 -0.560832 68.000000
-3.410900 1.634962 0.873260 17.000000
-9.637510 4.621656 -0.186566 78.000000
-3.380775 1.621972 1.004736 23.000000
-8.952788 4.310610 0.173442 52.000000
-6.727323 3.241981 0.391368 33.000000
-11.846066 5.708767 -2.556077 2.000000
-5.236914 2.524860 0.508641 33.000000
-14.180371 6.839798 -2.493566 3.000000
-4.473122 2.158540 0.609834 61.000000
-3.721184 1.797288 0.654522 73.000000
-16.015825 7.735455 -1.556079 4.000000
-3.521266 1.701488 0.760183 38.000000
-9.609421 4.645374 -0.559367 61.000000
-3.419208 1.653645 0.876859 16.000000
-9.612319 4.650915 -0.186392 81.000000
-3.378570 1.635448 1.005771 45.000000
-8.998843 4.371542 0.174629 52.000000
-6.709350 3.260780 0.390950 34.000000
-11.769567 5.722612 -2.543866 2.000000
-5.348110 2.601518 0.520320 38.000000
-4.456636 2.169796 0.608616 63.000000
-3.709876 1.807023 0.653583 63.000000
-9.583923 4.670250 -0.932741 54.000000
-3.522364 1.717211 0.761710 71.000000
-9.585966 4.675386 -0.558948 61.000000
-3.409912 1.663861 0.875959 16.000000
-9.596843 4.682765 -0.186392 81.000000
-3.369656 1.644947 1.004736 51.000000
-9.099227 4.457663 0.176863 54.000000
-6.690753 3.280663 0.390531 31.000000
-11.629664 5.704863 -2.517916 2.000000
-5.387288 2.643871 0.525026 56.000000
-4.445853 2.182814 0.608128 64.000000
-15.123515 7.428577 -2.068854 3.000000
-3.680499 1.808637 0.649516 37.000000
-9.560410 4.700160 -0.932043 54.000000
-3.507841 1.724551 0.759801 75.000000
-9.566824 4.705387 -0.558739 66.000000
-3.406124 1.676020 0.876409 16.000000
-9.549939 4.701222 -0.185798 74.000000
-3.360427 1.654992 1.003700 50.000000
-9.133807 4.514206 0.177840 54.000000
-6.775933 3.351817 0.396183 22.000000
-11.519176 5.698133 -2.498072 2.000000
-5.369563 2.657303 0.524155 61.000000
-4.448880 2.203605 0.609591 64.000000
-9.524865 4.719899 -1.305221 29.000000
-3.776813 1.872362 0.667662 27.000000
-9.530491 4.724758 -0.930649 54.000000
-3.505318 1.738529 0.760565 72.000000
-9.537818 4.732539 -0.558006 71.000000
-3.408980 1.692232 0.878659 13.000000
-9.520934 4.728301 -0.185554 74.000000
-3.347709 1.663274 1.001630 50.000000
-9.227157 4.600492 0.179969 55.000000
-6.848186 3.417363 0.401103 34.000000
-11.435974 5.706749 -2.484333 2.000000
-5.354907 2.673360 0.523632 56.000000
-15.095568 7.539532 -2.672527 4.000000
-4.434058 2.215572 0.608616 61.000000
-9.501229 4.749568 -1.304246 47.000000
-3.855059 1.927945 0.682680 66.000000
-9.503249 4.752648 -0.929603 54.000000
-3.436020 1.719131 0.746826 68.000000
-9.524811 4.767591 -0.558215 66.000000
-3.413508 1.709356 0.881358 6.000000
-9.500794 4.759717 -0.185484 71.000000
-3.334975 1.671487 0.999559 51.000000
-9.253920 4.654235 0.180807 55.000000
-6.834430 3.440351 0.400998 34.000000
-11.331810 5.704265 -2.466016 2.000000
-5.329527 2.683969 0.522063 53.000000
-9.448655 4.760444 -1.675726 5.000000
-4.417433 2.226570 0.607397 58.000000
-9.481049 4.780915 -1.303758 49.000000
-3.860651 1.947618 0.684870 78.000000
-9.475927 4.780407 -0.928557 54.000000
-3.352880 1.692193 0.730035 72.000000
-9.483152 4.788205 -0.556750 66.000000
-5.874015 2.967177 1.519319 6.000000
-9.476983 4.789245 -0.185345 74.000000
-3.323948 1.680503 0.998006 48.000000
-9.405249 4.771554 0.184088 47.000000
-6.809914 3.457855 0.400265 30.000000
-11.259315 5.717118 -2.454567 2.000000
-5.332561 2.708873 0.523283 30.000000
-9.456633 4.805929 -1.680106 46.000000
-4.400787 2.237477 0.606178 39.000000
-9.450147 4.806781 -1.301808 51.000000
-3.843265 1.955708 0.682993 80.000000
-9.448527 4.808036 -0.927511 54.000000
-3.315461 1.687854 0.723166 72.000000
-9.452143 4.814027 -0.555913 66.000000
-5.870566 2.991203 1.521119 6.000000
-9.460209 4.822294 -0.185345 74.000000
-3.324946 1.695606 1.000077 28.000000
-9.317328 4.767917 0.182692 52.000000
-6.918684 3.543517 0.407383 23.000000
-11.172889 5.722377 -2.440066 2.000000
-5.447194 2.791070 0.535485 37.000000
-9.438043 4.838006 -1.679794 48.000000
-4.483034 2.299023 0.618609 28.000000
-9.424479 4.835209 -1.300590 51.000000
-3.831143 1.966404 0.682054 78.000000
-9.428144 4.839167 -0.927163 51.000000
-3.307803 1.698520 0.722785 78.000000
-9.435280 4.846995 -0.555913 66.000000
-9.425533 4.846144 -0.184996 81.000000
-3.320724 1.708086 1.000594 16.000000
-9.305961 4.803162 0.182797 57.000000
-6.947086 3.588729 0.409791 31.000000
-9.398113 4.854882 -2.056158 72.000000
-5.476358 2.830191 0.539320 61.000000
-9.414078 4.867293 -1.678542 48.000000
-4.566668 2.362082 0.631283 60.000000
-9.404018 4.866252 -1.300102 51.000000
-3.813730 1.974317 0.680177 78.000000
-9.395270 4.863805 -0.925594 46.000000
-3.305340 1.711862 0.723548 78.000000
-9.414755 4.878062 -0.555703 75.000000
-5.875494 3.045565 1.527868 12.000000
-9.328676 4.837590 -0.183425 35.000000
-3.325031 1.725005 1.003700 16.000000
-9.351218 4.867936 0.184018 52.000000
-6.934517 3.612956 0.409791 31.000000
-9.379368 4.886749 -2.055776 85.000000
-5.459378 2.845607 0.538622 57.000000
-9.376012 4.889165 -1.674788 48.000000
-4.558395 2.378007 0.631283 60.000000
-9.379934 4.895376 -1.299127 54.000000
-3.803313 1.985789 0.679551 73.000000
-9.369404 4.891960 -0.924722 54.000000
-3.292383 1.719754 0.722021 78.000000
-9.390592 4.907195 -0.555285 95.000000
-5.890731 3.079599 1.534616 14.000000
-9.240851 4.833055 -0.182029 45.000000
-3.322413 1.738392 1.004736 13.000000
-9.364267 4.916350 0.184612 76.000000
-6.960759 3.657580 0.412093 22.000000
-9.351825 4.913982 -2.053486 95.000000
-5.442358 2.860938 0.537925 56.000000
-9.355393 4.920023 -1.674162 50.000000
-4.532498 2.384663 0.628846 60.000000
-9.359275 4.926239 -1.298640 54.000000
-3.796359 1.999052 0.679551 73.000000
-9.341695 4.919064 -0.923677 54.000000
-3.260306 1.717510 0.716297 70.000000
-9.359270 4.932495 -0.554447 65.000000
-5.907527 3.114683 1.541814 14.000000
-9.222157 4.864348 -0.181994 45.000000
-3.318033 1.750880 1.005253 13.000000
-9.350585 4.950878 0.184681 76.000000
-9.323290 4.938509 -2.435770 2.000000
-7.059130 3.740773 0.418688 28.000000
-9.331144 4.944758 -2.052723 95.000000
-5.446421 2.887382 0.539320 50.000000
-9.331180 4.948949 -1.672910 50.000000
-4.524147 2.400470 0.628846 58.000000
-9.327997 4.951431 -1.296690 60.000000
-3.798080 2.016925 0.681116 77.000000
-9.322706 4.950711 -0.923502 60.000000
-3.275096 1.739933 0.720876 72.000000
-9.204432 4.892020 -0.546283 33.000000
-5.905221 3.139861 1.544064 6.000000
-9.321642 4.958491 -0.184297 74.000000
-3.330660 1.772435 1.010947 13.000000
-9.326190 4.979720 0.184542 71.000000
-9.350684 4.994899 -2.447467 2.000000
-7.054838 3.770096 0.419211 31.000000
-9.301707 4.970820 -2.050052 80.000000
-5.474965 2.927042 0.543155 30.000000
-9.310364 4.979628 -1.672285 50.000000
-4.513990 2.415310 0.628602 63.000000
-9.300156 4.978341 -1.295227 60.000000
-3.775344 2.021778 0.678300 66.000000
-9.314150 4.987926 -0.924374 54.000000
-3.253428 1.743011 0.717442 48.000000
-9.169695 4.914687 -0.545236 57.000000
-5.909682 3.168743 1.548113 6.000000
-9.313087 4.995726 -0.184472 97.000000
-3.329560 1.786791 1.012500 11.000000
-6.646243 3.577136 -2.022412 1.000000
-9.298186 5.006556 0.184332 71.000000
-9.322899 5.021961 -2.444768 2.000000
-7.048668 3.798490 0.419630 27.000000
-9.280844 5.001398 -2.049289 82.000000
-5.571692 3.003812 0.553788 63.000000
-9.285973 5.008344 -1.671033 48.000000
-4.510772 2.433880 0.629333 57.000000
-9.272239 5.005119 -1.293765 56.000000
-3.761311 2.031189 0.677048 34.000000
-9.210780 4.974020 -0.915833 25.000000
-3.252506 1.757156 0.718587 26.000000
-9.171811 4.957111 -0.546387 42.000000
-5.908870 3.194914 1.550813 4.000000
-9.265693 5.012029 -0.183879 87.000000
-3.314807 1.793805 1.009912 3.000000
-6.633716 3.600314 -2.022412 1.000000
-9.307014 5.053296 0.184856 29.000000
-7.161718 3.891732 0.427166 20.000000
-9.256429 5.030014 -2.047762 78.000000
-5.561173 3.023241 0.553788 69.000000
-9.247609 5.029403 -1.667279 50.000000
-4.505736 2.451508 0.629821 46.000000
-9.261685 5.041251 -1.294740 76.000000
-3.863494 2.103821 0.696759 33.000000
-9.111123 4.961356 -0.907640 37.000000
-3.249800 1.770377 0.719350 16.000000
-9.270197 5.052177 -0.553296 95.000000
-9.249895 5.045301 -0.183913 94.000000
-5.253620 2.866746 1.603643 5.000000
-9.224133 5.047973 -2.817504 2.000000
-9.398067 5.145291 0.187020 14.000000
-9.253428 5.068202 -2.435770 2.000000
-7.188374 3.938783 0.429574 26.000000
-9.231926 5.058523 -2.046236 78.000000
-5.550586 3.042635 0.553788 67.000000
-9.219604 5.055954 -1.665402 50.000000
-4.563285 2.503505 0.639083 32.000000
-9.223150 5.062086 -1.291815 51.000000
-3.927119 2.156274 0.709587 70.000000
-9.095495 4.994089 -0.907814 34.000000
-3.257366 1.789272 0.722403 15.000000
-9.229752 5.072000 -0.551935 80.000000
-3.232665 1.777172 0.851665 13.000000
-9.221715 5.071777 -0.183704 81.000000
-5.260507 2.894378 1.608819 5.000000
-9.513102 5.251513 0.189673 15.000000
-9.235682 5.100470 -2.435770 2.000000
-7.164093 3.958055 0.428946 23.000000
-9.210776 5.088817 -2.045472 78.000000
-5.548651 3.066811 0.554659 63.000000
-9.194983 5.084284 -1.664150 50.000000
-4.625738 2.558814 0.649076 53.000000
-9.068212 5.018317 -1.272560 24.000000
-3.928209 2.174754 0.711151 82.000000
-9.191306 5.088536 -0.919144 54.000000
-3.261406 1.806338 0.724693 15.000000
-9.205002 5.100314 -0.551516 70.000000
-3.236668 1.794115 0.854364 41.000000
-9.273908 5.142725 -0.185100 16.000000
-5.280779 2.929593 1.618137 5.000000
-9.124516 5.076555 -2.797834 2.000000
-9.648472 5.370268 0.192744 30.000000
-9.173553 5.108031 -2.424073 2.000000
-7.250392 4.037174 0.434912 18.000000
-9.179235 5.113294 -2.042420 82.000000
-5.544874 3.090039 0.555356 40.000000
-9.166829 5.110576 -1.662273 50.000000
-4.621979 2.577846 0.649807 61.000000
-9.035038 5.041236 -1.270366 47.000000
-3.902001 2.177181 0.707710 71.000000
-9.189146 5.129326 -0.920713 71.000000
-3.279078 1.831113 0.730035 15.000000
-9.183655 5.130469 -0.551307 63.000000
-3.228685 1.804451 0.853914 78.000000
-9.363283 5.232961 -0.187229 16.000000
-5.284525 2.954631 1.622278 5.000000
-9.653283 5.414952 0.193198 15.000000
-9.200749 5.163217 -2.435770 2.000000
-7.300694 4.098634 0.438785 31.000000
-9.145926 5.136651 -2.038985 63.000000
-5.652169 3.175742 0.567210 46.000000
-9.113666 5.120627 -1.655703 28.000000
-4.627248 2.600940 0.651757 63.000000
-9.033842 5.079926 -1.272560 29.000000
-3.884047 2.184977 0.705832 71.000000
-9.148613 5.148668 -0.918447 69.000000
-3.317472 1.867011 0.739957 28.000000
-9.171813 5.163833 -0.551621 40.000000
-3.198912 1.801759 0.847616 71.000000
-9.468653 5.335310 -0.189708 19.000000
-5.282593 2.977802 1.624866 3.000000
-9.620399 5.440741 0.192919 15.000000
-9.138572 5.170356 -2.424073 2.000000
-7.284604 4.123109 0.438680 28.000000
-9.123714 5.164052 -2.037840 68.000000
-5.660678 3.205265 0.569127 69.000000
-8.980578 5.087176 -1.634740 33.000000
-4.618141 2.617076 0.651757 65.000000
-9.128304 5.175064 -1.288403 76.000000
-3.876396 2.198521 0.705832 73.000000
-9.115891 5.170133 -0.916878 63.000000
-3.343378 1.896988 0.747208 57.000000
-9.268371 5.260889 -0.558529 10.000000
-3.195992 1.814838 0.848515 70.000000
-9.582114 5.443398 -0.192360 16.000000
-5.257050 2.987633 1.620207 5.000000
-6.389675 3.641649 -1.970648 1.000000
-10.329221 5.889295 0.207544 51.000000
-9.079843 5.179051 -2.413275 2.000000
-7.351699 4.195034 0.443600 27.000000
-9.100519 5.192947 -2.036695 61.000000
-5.642533 3.221055 0.568430 69.000000
-8.957619 5.115554 -1.633802 39.000000
-4.591742 2.623332 0.649320 65.000000
-9.110183 5.206898 -1.288403 63.000000
-3.878988 2.217922 0.707710 71.000000
-9.092601 5.198955 -0.916355 51.000000
-3.335032 1.907671 0.746826 66.000000
-9.343558 5.346776 -0.564182 10.000000
-3.193021 1.827920 0.849415 71.000000
-9.696671 5.553333 -0.195048 3.000000
-5.273409 3.021332 1.628489 5.000000
-9.137409 5.249998 -2.823716 2.000000
-10.421291 5.990089 0.209813 52.000000
-9.061709 5.210712 -2.413275 2.000000
-7.406260 4.260508 0.447787 31.000000
-8.966616 5.158114 -2.010745 48.000000
-5.641616 3.246695 0.569476 69.000000
-9.032154 5.200011 -1.650697 41.000000
-4.575675 2.635383 0.648345 61.000000
-9.064431 5.222811 -1.284503 49.000000
-3.866088 2.228489 0.706771 75.000000
-9.169336 5.285385 -0.925943 8.000000
-3.330053 1.920283 0.747208 67.000000
-9.485730 5.472175 -0.573916 11.000000
-3.178182 1.834184 0.847166 67.000000
-5.269522 3.043586 1.630560 3.000000
-6.364094 3.686170 -1.970648 1.000000
-10.533546 6.103626 0.212500 52.000000
-9.019862 5.228630 -2.406976 2.000000
-7.393071 4.287339 0.447891 30.000000
-8.921383 5.173626 -2.004639 72.000000
-5.640590 3.272366 0.570521 58.000000
-9.049826 5.252332 -1.657267 58.000000
-4.583616 2.661306 0.650782 32.000000
-9.040997 5.251427 -1.283772 54.000000
-3.848038 2.236016 0.704894 68.000000
-9.243855 5.371414 -0.935355 8.000000
-3.319935 1.929922 0.746445 61.000000
-9.582251 5.572523 -0.580929 5.000000
-3.171759 1.845267 0.847166 70.000000
-21.657156 12.604766 -0.437392 84.000000
-3.172014 1.846897 0.983512 10.000000
-6.351189 3.708361 -1.970648 1.000000
-10.626139 6.206925 0.214804 47.000000
-9.004920 5.262050 -2.407876 2.000000
-7.469446 4.366539 0.453439 26.000000
-8.898185 5.201762 -2.003495 57.000000
-5.716846 3.343332 0.579411 48.000000
-9.029731 5.282894 -1.656954 60.000000
-4.694224 2.747480 0.667844 39.000000
-9.055159 5.302011 -1.288403 20.000000
-3.835095 2.246440 0.703955 52.000000
-9.350547 5.477162 -0.948080 8.000000
-3.319954 1.945468 0.747971 61.000000
-20.567644 12.057310 -1.249469 37.000000
-3.155213 1.850412 0.844466 52.000000
-21.590607 12.667129 -0.436938 28.000000
-3.158884 1.854047 0.981442 35.000000
-8.998687 5.296401 -2.797834 2.000000
-10.694013 6.296741 0.216619 52.000000
-7.524707 4.434160 0.457730 30.000000
-8.962852 5.281630 -2.022194 14.000000
-5.763497 3.397669 0.585338 81.000000
-8.997622 5.306351 -1.654451 58.000000
-4.720509 2.785032 0.672963 52.000000
-9.152843 5.402200 -1.304977 11.000000
-3.854447 2.275882 0.708961 26.000000
-9.456614 5.583717 -0.960805 8.000000
-3.301310 1.950056 0.745300 44.000000
-21.548517 12.733610 -1.311749 13.000000
-3.158800 1.867365 0.847166 27.000000
-3.160706 1.869981 0.984030 55.000000
-8.980144 5.327780 -2.797834 2.000000
-10.814695 6.418743 0.219516 52.000000
-7.517770 4.465499 0.458254 30.000000
-8.957865 5.320905 -2.025247 8.000000
-5.751601 3.417767 0.585338 79.000000
-8.962065 5.327633 -1.651322 43.000000
-4.698815 2.794391 0.671256 52.000000
-9.249939 5.503134 -1.321551 11.000000
-3.960210 2.357013 0.729923 45.000000
-18.783390 11.179379 -1.912371 15.000000
-3.307978 1.969603 0.748353 30.000000
-21.481634 12.795459 -1.310388 90.000000
-3.170677 1.889352 0.852115 16.000000
-22.466972 13.393000 -0.456555 10.000000
-3.147522 1.877044 0.981959 63.000000
-6.209212 3.713192 -1.938555 1.000000
-10.905483 6.524212 0.221820 52.000000
-7.598099 4.549167 0.464115 27.000000
-8.935869 5.350122 -2.024484 8.000000
-5.739636 3.437823 0.585338 78.000000
-9.043387 5.418788 -1.669782 11.000000
-4.680519 2.805672 0.670038 55.000000
-9.343035 5.602769 -1.337638 11.000000
-3.989225 2.393179 0.736806 82.000000
-18.354710 11.011187 -1.872628 14.000000
-3.403768 2.042765 0.771632 45.000000
-21.441975 12.873450 -1.310702 13.000000
-3.170745 1.904422 0.853914 16.000000
-14.192532 8.527731 -0.289012 78.000000
-3.147574 1.892001 0.984030 63.000000
-6.133340 3.696948 -1.918885 1.000000
-10.980252 6.621099 0.223810 47.000000
-8.910550 5.375185 -2.402477 2.000000
-7.638601 4.609717 0.467569 33.000000
-8.915458 5.380270 -2.024102 8.000000
-5.741246 3.466075 0.586732 69.000000
-9.139400 5.519764 -1.691057 11.000000
-4.677493 2.826100 0.671013 55.000000
-9.452534 5.713389 -1.356162 4.000000
-3.967324 2.398911 0.734303 75.000000
-18.288881 11.058690 -1.869839 21.000000
-3.447011 2.085118 0.783080 69.000000
-21.759159 13.167435 -1.332892 13.000000
-3.164078 1.915480 0.853914 16.000000
-14.154125 8.572042 -0.288837 87.000000
-3.140951 1.902976 0.984030 65.000000
-6.120398 3.718335 -1.918885 1.000000
-11.097200 6.744549 0.226672 47.000000
-8.881742 5.400181 -2.399778 2.000000
-7.642941 4.648809 0.468826 21.000000
-8.913395 5.421561 -2.027918 4.000000
-5.832938 3.549269 0.597365 63.000000
-9.234816 5.621480 -1.712332 12.000000
-4.669295 2.843443 0.671256 50.000000
-15.650819 9.534559 -2.250196 28.000000
-3.953865 2.409662 0.733365 76.000000
-18.236557 11.114173 -1.868445 21.000000
-3.443064 2.099181 0.783843 78.000000
-14.115030 8.609084 -0.866474 8.000000
-3.170681 1.934632 0.857513 16.000000
-14.110461 8.613061 -0.288558 92.000000
-3.124397 1.907887 0.980924 65.000000
-6.107382 3.739675 -1.918885 1.000000
-11.204889 6.863673 0.229360 52.000000
-8.829605 5.410789 -2.390780 2.000000
-7.751798 4.750308 0.476467 28.000000
-9.011581 5.524466 -2.054631 2.000000
-5.857878 3.592524 0.601200 81.000000
-9.326262 5.721861 -1.732981 12.000000
-4.661034 2.860761 0.671500 32.000000
-15.627592 9.595365 -2.251658 20.000000
-3.949220 2.424827 0.733991 76.000000
-18.173882 11.163165 -1.866004 21.000000
-3.432371 2.109131 0.783080 78.000000
-14.081487 8.656214 -0.866265 64.000000
-3.163908 1.945688 0.857513 16.000000
-14.078414 8.657711 -0.288488 97.000000
-3.111471 1.914189 0.978854 65.000000
-8.885794 5.483693 -2.797834 2.000000
-11.311399 6.980608 0.232012 52.000000
-7.758960 4.792029 0.477932 34.000000
-9.175962 5.669400 -2.096609 2.000000
-5.846996 3.613999 0.601375 79.000000
-4.756201 2.940930 0.686612 35.000000
-15.572050 9.632515 -2.248246 24.000000
-3.949130 2.443796 0.735555 75.000000
-18.136501 11.227580 -1.866179 21.000000
-3.415342 2.114301 0.780790 78.000000
-14.052705 8.702859 -0.866265 64.000000
-3.164065 1.960275 0.859313 11.000000
-14.036211 8.699424 -0.288244 90.000000
-3.109696 1.928092 0.980407 55.000000
-11.417714 7.101371 0.234700 52.000000
-7.810010 4.861302 0.482119 28.000000
-9.157111 5.699799 -2.096609 2.000000
-5.834980 3.633367 0.601375 76.000000
-4.791395 2.985862 0.693193 52.000000
-15.516430 9.673165 -2.245077 28.000000
-3.938900 2.456520 0.735242 76.000000
-13.989410 8.724585 -1.442428 60.000000
-3.412938 2.129328 0.781935 79.000000
-13.988354 8.730714 -0.864171 64.000000
-3.177038 1.983693 0.864712 1.000000
-14.012543 8.752604 -0.288384 90.000000
-3.109499 1.943031 0.982477 23.000000
-5.904844 3.699794 -1.867121 1.000000
-11.535181 7.230394 0.237632 47.000000
-7.874206 4.939479 0.487143 36.000000
-9.120527 5.721295 -2.092793 2.000000
-5.893141 3.698194 0.608696 52.000000
-4.779262 3.001513 0.692949 66.000000
-15.492658 9.733602 -2.246540 28.000000
-3.915249 2.460794 0.732426 73.000000
-13.960556 8.774424 -1.442602 80.000000
-3.402161 2.139138 0.781172 75.000000
-13.967935 8.785869 -0.864799 64.000000
-13.959904 8.787619 -0.287930 99.000000
-3.114141 1.961079 0.986101 17.000000
-5.891894 3.720382 -1.867121 1.000000
-11.645123 7.356053 0.240424 47.000000
-7.867046 4.973337 0.487771 36.000000
-9.004253 5.692249 -2.070659 2.000000
-5.974495 3.778378 0.618457 84.000000
-4.772110 3.020301 0.693437 68.000000
-13.890421 8.794737 -2.018644 7.000000
-3.901629 2.471275 0.731488 50.000000
-13.914695 8.813507 -1.441033 76.000000
-3.399647 2.154154 0.782317 78.000000
-13.927063 8.828155 -0.864171 64.000000
-3.222359 2.043394 0.880908 12.000000
-13.920701 8.830940 -0.287755 85.000000
-3.105646 1.970902 0.985583 17.000000
-5.878870 3.740928 -1.867121 1.000000
-11.754327 7.482565 0.243217 47.000000
-7.965865 5.074815 0.494994 37.000000
-8.947900 5.700440 -2.062264 2.000000
-5.947828 3.790644 0.617063 94.000000
-4.761538 3.036940 0.693437 68.000000
-13.868004 8.848509 -2.019863 79.000000
-3.941267 2.515700 0.740561 31.000000
-13.870412 8.853448 -1.439639 76.000000
-3.382179 2.159668 0.780027 78.000000
-13.899529 8.878866 -0.864381 64.000000
-3.213565 2.053581 0.880458 44.000000
-13.881367 8.874088 -0.287581 85.000000
-3.103630 1.984853 0.987136 16.000000
-5.865777 3.761426 -1.867121 1.000000
-11.871204 7.615324 0.246184 54.000000
-7.995162 5.132803 0.497924 40.000000
-8.894905 5.710428 -2.054631 2.000000
-5.941267 3.815688 0.617760 98.000000
-4.744228 3.049249 0.692462 66.000000
-13.837035 8.896861 -2.019863 79.000000
-4.035465 2.595698 0.759959 52.000000
-13.844447 8.905046 -1.440161 80.000000
-3.364714 2.165087 0.777737 72.000000
-13.851657 8.916516 -0.863334 64.000000
-3.214569 2.070060 0.882708 78.000000
-13.850306 8.922490 -0.287581 85.000000
-3.111297 2.005094 0.991795 15.000000
-5.852612 3.781878 -1.867121 1.000000
-11.997372 7.755506 0.249360 48.000000
-7.998998 5.174781 0.499285 32.000000
-8.832061 5.713714 -2.044709 2.000000
-5.951328 3.851559 0.620200 73.000000
-13.812730 8.942697 -2.606198 3.000000
-4.731890 3.064711 0.692218 47.000000
-13.792563 8.936475 -2.017913 79.000000
-4.046272 2.622662 0.763713 78.000000
-13.804918 8.947900 -1.439290 76.000000
-3.357136 2.176819 0.777737 67.000000
-13.793636 8.947427 -0.861659 64.000000
-3.195881 2.073843 0.879559 71.000000
-13.814044 8.967517 -0.287476 90.000000
-3.115620 2.023307 0.995418 13.000000
-5.839375 3.802284 -1.867121 1.000000
-12.122700 7.896662 0.252536 54.000000
-8.095579 5.275427 0.506403 39.000000
-8.749566 5.703768 -2.030208 2.000000
-6.068019 3.957201 0.633797 84.000000
-13.771506 8.984380 -2.604321 3.000000
-4.819244 3.145221 0.706599 35.000000
-13.752883 8.975652 -2.016450 76.000000
-4.032590 2.632826 0.762775 78.000000
-13.771933 8.994946 -1.439116 84.000000
-3.357735 2.193892 0.779646 51.000000
-13.775696 9.004264 -0.862497 64.000000
-3.174305 2.074834 0.875510 71.000000
-13.770842 9.004522 -0.287197 90.000000
-3.121827 2.042088 0.999559 12.000000
-5.826734 3.821627 -1.867121 1.000000
-12.270330 8.050904 0.256166 54.000000
-8.114775 5.326355 0.508706 34.000000
-8.671523 5.693958 -2.016470 2.000000
-6.059859 3.980582 0.634319 91.000000
-13.751538 9.036510 -2.606198 3.000000
-4.873479 3.203712 0.716104 52.000000
-13.716406 9.016847 -2.015475 76.000000
-4.018886 2.642928 0.761836 82.000000
-13.723718 9.028520 -1.437198 76.000000
-3.398000 2.236315 0.790712 36.000000
-13.739085 9.045503 -0.862078 64.000000
-3.164152 2.083206 0.874610 67.000000
-13.729216 9.042439 -0.286952 81.000000
-3.124717 2.058806 1.002665 5.000000
-5.733435 3.787686 -1.841239 1.000000
-12.388706 8.187472 0.259203 54.000000
-8.226070 5.440588 0.516870 42.000000
-13.696119 9.058388 -3.191853 3.000000
-6.036656 3.994060 0.633274 91.000000
-13.688553 9.060258 -2.599941 3.000000
-4.869449 3.224240 0.717079 64.000000
-13.681539 9.062479 -2.014988 76.000000
-4.014575 2.660214 0.762775 76.000000
-13.680415 9.065175 -1.435804 76.000000
-3.475657 2.303977 0.810557 45.000000
-13.702358 9.086596 -0.861659 64.000000
-3.108144 2.061920 0.861113 67.000000
-13.690905 9.085882 -0.286813 85.000000
-5.311196 3.526079 1.708206 6.000000
-5.681583 3.781985 -1.828815 1.000000
-12.494871 8.320441 0.262030 42.000000
-8.230296 5.484775 0.518335 40.000000
-13.644811 9.093077 -3.187274 3.000000
-6.034281 4.022845 0.634494 71.000000
-13.656844 9.107981 -2.599941 3.000000
-4.844954 3.232404 0.715129 64.000000
-13.649818 9.110185 -2.014988 83.000000
-4.003623 2.673113 0.762462 75.000000
-13.652004 9.115084 -1.436152 76.000000
-3.485551 2.328090 0.814754 72.000000
-13.660591 9.127717 -0.861031 64.000000
-3.024782 2.021858 0.839967 59.000000
-13.664091 9.136951 -0.286918 76.000000
-5.311701 3.553190 1.712347 6.000000
-5.658721 3.795337 -1.825710 1.000000
-12.658373 8.493252 0.266079 42.000000
-8.328831 5.592519 0.525767 43.000000
-13.629289 9.151592 -3.191090 3.000000
-6.159130 4.137203 0.649136 90.000000
-13.608573 9.144580 -2.596812 7.000000
-4.833642 3.249295 0.715129 61.000000
-13.599817 9.145588 -2.012307 76.000000
-4.002462 2.692586 0.764026 78.000000
-13.615144 9.159347 -1.435629 68.000000
-3.477403 2.340244 0.814754 75.000000
-13.612080 9.164188 -0.859985 64.000000
-3.004775 2.023695 0.836368 66.000000
-13.837757 9.323148 -0.291246 4.000000
-4.147461 2.795391 1.340165 1.000000
-5.613425 3.793433 -1.815357 1.000000
-12.795971 8.650501 0.269605 48.000000
-13.575814 9.181150 -3.783677 5.000000
-8.329108 5.634991 0.527023 45.000000
-13.584249 9.190314 -3.188037 3.000000
-6.167751 4.174312 0.651576 100.000000
-13.592925 9.203102 -2.599941 3.000000
-4.823914 3.267262 0.715373 56.000000
-13.557949 9.186323 -2.010844 72.000000
-3.971782 2.692132 0.759959 67.000000
-13.581440 9.205699 -1.435455 76.000000
-3.477338 2.357877 0.816663 78.000000
-13.573397 9.207164 -0.859566 64.000000
-2.997693 2.034171 0.836368 70.000000
-14.172426 9.620725 -0.298995 4.000000
-5.318730 3.611891 1.722700 6.000000
-5.600149 3.813006 -1.815357 1.000000
-12.917751 8.798679 0.272816 48.000000
-13.543684 9.228482 -3.783677 5.000000
-8.423259 5.741650 0.534245 43.000000
-13.529374 9.222195 -3.182694 3.000000
-6.136681 4.184591 0.649833 100.000000
-13.550931 9.243814 -2.598064 3.000000
-4.841993 3.304222 0.719760 31.000000
-13.527440 9.234714 -2.011088 72.000000
-3.993355 2.727147 0.765903 37.000000
-13.527866 9.241929 -1.433363 76.000000
-3.467465 2.368893 0.816281 75.000000
-13.556015 9.264631 -0.860508 24.000000
-2.985748 2.041323 0.835018 70.000000
-20.836760 14.251205 -0.440638 9.000000
-5.315656 3.636980 1.725805 6.000000
-5.484194 3.763546 -1.782228 1.000000
-13.058434 8.961392 0.276446 54.000000
-8.462436 5.811723 0.538014 43.000000
-13.498721 9.273942 -3.183457 3.000000
-6.131155 4.213826 0.650879 88.000000
-13.495795 9.278872 -2.593997 7.000000
-4.949841 3.403204 0.737553 49.000000
-13.495124 9.281875 -2.011088 72.000000
-4.096100 2.818330 0.787491 56.000000
-13.485676 9.282316 -1.432317 69.000000
-3.449058 2.374905 0.813991 69.000000
-13.921657 9.589569 -0.885943 8.000000
-2.983060 2.055570 0.836368 67.000000
-20.783594 14.321583 -0.440569 9.000000
-5.306109 3.657706 1.726841 4.000000
-5.493269 3.798048 -1.789475 1.000000
-13.209696 9.136600 0.280355 49.000000
-8.552750 5.919998 0.545131 43.000000
-13.472722 9.325479 -3.184984 3.000000
-6.249089 4.327075 0.664998 100.000000
-13.460079 9.323672 -2.593371 7.000000
-4.950387 3.430368 0.739503 59.000000
-13.457747 9.329016 -2.010601 65.000000
-4.114962 2.853585 0.793123 74.000000
-13.448289 9.329411 -1.431969 69.000000
-3.434294 2.382455 0.812465 69.000000
-20.736975 14.391112 -1.322844 26.000000
-2.985471 2.072638 0.839067 75.000000
-5.276802 3.666107 1.721664 4.000000
-5.400063 3.762933 -1.763593 1.000000
-13.386088 9.327846 0.284788 44.000000
-6.576855 4.584664 -1.850897 1.000000
-8.572989 5.978377 0.547748 54.000000
-13.435234 9.372546 -3.184221 3.000000
-6.256062 4.365911 0.667439 100.000000
-13.403135 9.357115 -2.588991 18.000000
-4.926990 3.439673 0.737797 66.000000
-13.412084 9.366838 -2.008651 70.000000
-4.101737 2.865670 0.792497 74.000000
-13.588746 9.497281 -1.450446 4.000000
-3.427149 2.396150 0.812846 73.000000
-2.966677 2.075747 0.835918 70.000000
-19.936720 13.949472 -0.424722 100.000000
-5.325698 3.727707 1.741852 10.000000
-5.387554 3.780819 -1.763593 1.000000
-13.636587 9.573288 0.290827 53.000000
-6.560811 4.607595 -1.850897 1.000000
-8.638108 6.066463 0.553191 46.000000
-13.400866 9.414790 -3.183457 3.000000
-6.244810 4.388924 0.667787 100.000000
-13.409199 9.427641 -2.596187 3.000000
-4.916577 3.457991 0.738041 70.000000
-13.376058 9.411315 -2.008163 70.000000
-4.082518 2.872436 0.790620 74.000000
-13.941686 9.812929 -1.491583 4.000000
-3.425605 2.412023 0.814373 73.000000
-18.555750 13.070244 -1.189492 11.000000
-2.950219 2.078838 0.833219 61.000000
