# This PCD file was generated using the MATLAB® pcwrite function
# from Computer Vision Toolbox®.
# .PCD v.7 - Point Cloud Data file format
VERSION .7
FIELDS x y z intensity
SIZE 4 4 4 4
TYPE F F F F
COUNT 1 1 1 1
WIDTH 1237
HEIGHT 1
VIEWPOINT 0 0 0 1 0 0 0
POINTS 1237
DATA ascii
-3.682175 1.330022 0.903853 55.000000
-10.658294 3.849834 -0.197806 40.000000
-5.107141 1.845735 1.455081 4.000000
-7.535699 2.735324 0.139933 36.000000
-10.740982 3.900906 -2.638226 13.000000
-5.990040 2.176645 0.334008 31.000000
-11.924817 4.335566 -2.466397 2.000000
-4.836287 1.759308 0.450247 50.000000
-4.206424 1.531013 0.549631 45.000000
-12.420753 4.523240 -1.623056 7.000000
-3.786263 1.379583 0.638253 60.000000
-12.710043 4.633615 -1.183575 9.000000
-3.692697 1.346222 0.763999 15.000000
-13.059273 4.763514 -0.728517 7.000000
-3.646624 1.330867 0.896205 52.000000
-10.697385 3.906220 -0.198783 40.000000
-4.064566 1.485007 1.159509 1.000000
-7.636866 2.802254 0.141993 45.000000
-10.798644 3.964568 -2.655772 16.000000
-6.029275 2.214758 0.336625 50.000000
-4.834167 1.776711 0.450595 33.000000
-4.212233 1.549800 0.551093 55.000000
-12.391850 4.561766 -1.621350 5.000000
-3.716547 1.368896 0.627302 73.000000
-12.688998 4.673672 -1.183052 6.000000
-3.689817 1.359782 0.764381 13.000000
-13.020080 4.800776 -0.727261 7.000000
-3.636471 1.341565 0.894855 53.000000
-10.816878 3.992702 -0.201261 43.000000
-5.114066 1.888705 1.460775 8.000000
-7.627038 2.828895 0.141993 45.000000
-10.876088 4.036141 -2.678267 6.000000
-6.019635 2.235094 0.336520 50.000000
-12.126930 4.502737 -2.514481 2.000000
-4.919451 1.827572 0.459136 27.000000
-4.214240 1.567261 0.552068 57.000000
-12.634456 4.701220 -1.655230 5.000000
-3.613630 1.345333 0.610720 61.000000
-12.926545 4.812477 -1.206758 6.000000
-3.690567 1.374709 0.765526 4.000000
-13.257767 4.941058 -0.741496 7.000000
-3.629940 1.353570 0.894405 55.000000
-10.859083 4.051404 -0.202308 47.000000
-5.118300 1.910600 1.463881 9.000000
-7.618987 2.856205 0.142028 30.000000
-10.905725 4.090504 -2.689065 3.000000
-6.008450 2.253641 0.336311 47.000000
-12.111139 4.545041 -2.514481 2.000000
-4.980190 1.869947 0.465412 46.000000
-4.208744 1.581962 0.552068 56.000000
-12.660702 4.761368 -1.660836 2.000000
-3.605450 1.355918 0.610094 67.000000
-12.924585 4.863180 -1.208153 6.000000
-6.371969 2.398873 1.323451 6.000000
-13.255391 4.992939 -0.742333 7.000000
-3.617899 1.363483 0.892606 52.000000
-10.982188 4.138872 -0.204856 50.000000
-5.117360 1.929606 1.465433 4.000000
-7.740384 2.931022 0.144471 31.000000
-6.000547 2.274601 0.336311 42.000000
-4.975496 1.888026 0.465586 50.000000
-11.836639 4.491590 -2.005177 2.000000
-4.177492 1.586046 0.548656 60.000000
-3.597003 1.367091 0.609469 67.000000
-12.963400 4.929511 -1.213382 3.000000
-6.389669 2.429759 1.328794 6.000000
-13.343296 5.076641 -0.748195 7.000000
-3.620643 1.378246 0.894405 31.000000
-11.044291 4.206363 -0.206287 47.000000
-5.130450 1.955026 1.471128 3.000000
-7.756251 2.968030 0.144960 37.000000
-6.052254 2.318396 0.339660 28.000000
-12.354923 4.732716 -2.571724 2.000000
-4.969208 1.904515 0.465586 48.000000
-11.813512 4.530051 -2.003926 17.000000
-4.162663 1.597063 0.547437 52.000000
-3.597741 1.381763 0.610407 69.000000
-13.158132 5.056203 -1.233254 10.000000
-6.395810 2.457683 1.331847 2.000000
-13.474633 5.180522 -0.756569 7.000000
-3.613991 1.390176 0.893955 13.000000
-11.139649 4.287270 -0.208347 47.000000
-3.609232 1.389792 1.036312 17.000000
-7.771955 3.005183 0.145448 34.000000
-6.133529 2.374113 0.344685 45.000000
-11.777280 4.561013 -2.454949 8.000000
-4.962194 1.922715 0.465586 46.000000
-11.796828 4.573319 -2.003926 2.000000
-4.160765 1.613019 0.547925 52.000000
-3.583688 1.390740 0.608843 67.000000
-13.147831 5.104987 -1.233951 3.000000
-3.993097 1.551226 0.832691 3.000000
-13.492786 5.244345 -0.758662 7.000000
-3.614320 1.405532 0.895305 16.000000
-11.240168 4.371061 -0.210511 42.000000
-3.586355 1.395377 1.031135 36.000000
-7.891261 3.084608 0.147892 39.000000
-6.130785 2.397692 0.344999 47.000000
-11.741178 4.594227 -2.450751 4.000000
-4.940610 1.934213 0.464191 46.000000
-4.160370 1.630431 0.548656 46.000000
-3.571455 1.400356 0.607592 67.000000
-13.378470 5.248352 -1.257309 6.000000
-6.432885 2.524906 1.343295 6.000000
-13.690048 5.376099 -0.770804 7.000000
-3.620274 1.422415 0.898005 16.000000
-11.299289 4.439520 -0.211907 45.000000
-3.586856 1.410008 1.032688 53.000000
-7.895869 3.116634 0.148171 55.000000
-6.124235 2.419812 0.345103 45.000000
-11.725070 4.635180 -2.450751 12.000000
-4.926417 1.948518 0.463494 37.000000
-4.149403 1.642027 0.547925 27.000000
-3.562872 1.411360 0.606966 39.000000
-13.330433 5.283275 -1.254520 6.000000
-6.446378 2.554905 1.347875 6.000000
-13.709278 5.436188 -0.772897 7.000000
-3.626406 1.438725 0.900704 15.000000
-11.424979 4.535006 -0.214560 49.000000
-3.569344 1.417528 1.029065 56.000000
-7.883085 3.143436 0.148136 52.000000
-6.110186 2.438952 0.344789 42.000000
-4.993940 1.994400 0.470467 23.000000
-4.235809 1.693344 0.560112 28.000000
-3.570762 1.428926 0.609156 16.000000
-13.581960 5.437893 -1.279969 7.000000
-6.442889 2.579579 1.349020 9.000000
-13.916411 5.574622 -0.785667 7.000000
-3.623171 1.452100 0.901154 13.000000
-11.511162 4.615789 -0.216480 45.000000
-3.560788 1.428541 1.028029 57.000000
-7.975936 3.212777 0.150091 40.000000
-6.166468 2.486407 0.348453 24.000000
-12.724751 5.133386 -2.667128 2.000000
-5.091908 2.055196 0.480402 39.000000
-4.301659 1.737109 0.569617 45.000000
-12.738416 5.146655 -1.686916 22.000000
-3.576741 1.445822 0.611033 13.000000
-13.562895 5.485270 -1.279969 7.000000
-6.435211 2.603914 1.349401 4.000000
-13.906995 5.630084 -0.786296 7.000000
-3.605181 1.460248 0.898005 8.000000
-11.596918 4.697236 -0.218399 45.000000
-3.557570 1.441687 1.028547 58.000000
-8.032636 3.269883 0.151382 43.000000
-6.248388 2.544832 0.353582 40.000000
-5.092083 2.075967 0.481100 52.000000
-4.302615 1.755864 0.570592 55.000000
-3.578987 1.461286 0.612285 13.000000
-13.812951 5.642587 -1.305419 7.000000
-3.534709 1.444647 0.742247 6.000000
-14.183045 5.799544 -0.803043 7.000000
-5.749998 2.352386 1.434288 1.000000
-11.698901 4.786147 -0.220633 47.000000
-3.547153 1.451901 1.026994 51.000000
-8.030995 3.300302 0.151557 40.000000
-6.243161 2.568147 0.353791 43.000000
-5.071909 2.088418 0.479879 55.000000
-4.293097 1.768610 0.570105 59.000000
-12.676482 5.224867 -1.683503 35.000000
-3.570212 1.472264 0.611659 13.000000
-13.767386 5.680128 -1.302978 7.000000
-3.529899 1.456360 0.742247 33.000000
-14.185888 5.855690 -0.804299 7.000000
-5.740364 2.370697 1.433838 3.000000
-11.793013 4.872774 -0.222728 47.000000
-3.533137 1.460583 1.024406 21.000000
-8.150560 3.382740 0.154035 42.000000
-6.238299 2.590368 0.354000 42.000000
-5.055757 2.101403 0.479008 60.000000
-12.649115 5.260138 -2.169746 2.000000
-4.294229 1.786635 0.571080 60.000000
-3.621845 1.507628 0.621358 22.000000
-14.002292 5.831457 -1.327033 7.000000
-3.517545 1.465653 0.740721 63.000000
-14.331276 5.974338 -0.813720 7.000000
-5.759033 2.401973 1.440587 3.000000
-11.878297 4.954192 -0.224647 43.000000
-3.533622 1.474524 1.025959 16.000000
-8.161430 3.419023 0.154454 49.000000
-6.221851 2.609039 0.353582 37.000000
-5.046555 2.118266 0.478834 55.000000
-12.611567 5.293642 -2.166305 16.000000
-4.266317 1.791642 0.568155 59.000000
-3.658443 1.537869 0.628554 42.000000
-13.992870 5.884934 -1.328079 7.000000
-3.498187 1.471221 0.737668 66.000000
-14.447614 6.079151 -0.821465 7.000000
-5.768996 2.428619 1.445086 3.000000
-12.008364 5.057718 -0.227440 39.000000
-3.542696 1.492851 1.030100 16.000000
-8.175229 3.458395 0.154942 39.000000
-6.286273 2.661893 0.357769 29.000000
-12.579047 5.326539 -2.655298 13.000000
-5.037667 2.134212 0.478659 48.000000
-4.252727 1.803424 0.567180 56.000000
-3.669418 1.557575 0.631370 61.000000
-14.228985 6.042776 -1.352483 7.000000
-3.493030 1.483423 0.737668 66.000000
-14.591746 6.199836 -0.830886 7.000000
-5.760484 2.448740 1.445086 5.000000
-12.136011 5.161432 -0.230197 45.000000
-3.553461 1.512017 1.034759 15.000000
-8.282640 3.537971 0.157211 43.000000
-6.361420 2.719938 0.362584 39.000000
-12.546806 5.367200 -2.652627 22.000000
-5.062781 2.166774 0.481797 28.000000
-4.242757 1.816694 0.566692 56.000000
-3.662143 1.569597 0.631057 65.000000
-14.240767 6.106539 -1.355620 3.000000
-3.491178 1.497764 0.738431 66.000000
-14.858908 6.377747 -0.847424 7.000000
-5.774748 2.479833 1.450934 7.000000
-12.215304 5.245583 -0.232047 45.000000
-3.553487 1.526698 1.036312 17.000000
-8.302667 3.582565 0.157840 45.000000
-6.358741 2.746405 0.363002 42.000000
-12.491946 5.395398 -2.644994 20.000000
-5.185042 2.240544 0.494173 41.000000
-4.236069 1.832233 0.566692 39.000000
-3.632800 1.572805 0.626989 68.000000
-14.459617 6.263228 -1.378630 7.000000
-3.484127 1.509161 0.738049 63.000000
-14.807232 6.416868 -0.845749 7.000000
-5.783936 2.507728 1.455433 9.000000
-12.328082 5.347615 -0.234560 41.000000
-3.547867 1.539712 1.036312 15.000000
-8.354275 3.639478 0.159061 41.000000
-6.345455 2.766986 0.362793 40.000000
-12.495481 5.451350 -2.649956 18.000000
-5.173142 2.257941 0.493824 55.000000
-4.256936 1.858925 0.570349 26.000000
-13.541119 5.915966 -1.814391 62.000000
-3.630907 1.587059 0.627615 66.000000
-14.507034 6.343999 -1.385253 3.000000
-3.465982 1.516411 0.735378 55.000000
-15.017810 6.573609 -0.859147 8.000000
-5.785416 2.533601 1.458133 3.000000
-12.463207 5.457999 -0.237492 45.000000
-3.535394 1.548985 1.034241 12.000000
-8.422708 3.702570 0.160597 52.000000
-6.343557 2.791231 0.363212 37.000000
-12.589707 5.539602 -2.673616 18.000000
-5.164200 2.273378 0.493650 59.000000
-4.367008 1.924260 0.585948 43.000000
-13.512342 5.956834 -1.813172 40.000000
-3.616588 1.595106 0.626051 39.000000
-14.662034 6.466729 -1.401987 7.000000
-3.443239 1.519368 0.731562 35.000000
-15.066516 6.651405 -0.863125 8.000000
-3.479648 1.536885 0.878209 16.000000
-12.578562 5.558300 -0.240040 50.000000
-5.207011 2.301994 1.525479 3.000000
-8.440804 3.745738 0.161190 58.000000
-6.437817 2.859571 0.369178 27.000000
-12.685123 5.634521 -2.698039 18.000000
-5.156233 2.291390 0.493650 57.000000
-13.449180 5.979527 -2.331187 21.000000
-4.391098 1.953206 0.590091 67.000000
-13.486027 6.001544 -1.812441 3.000000
-3.677768 1.637448 0.637627 24.000000
-14.850510 6.611875 -1.422207 3.000000
-3.457642 1.540164 0.735759 17.000000
-15.225636 6.785256 -0.873592 8.000000
-3.451124 1.538705 0.872360 41.000000
-12.710663 5.669785 -0.242938 46.000000
-5.195415 2.318583 1.524444 4.000000
-8.549952 3.829949 0.163529 54.000000
-6.475179 2.903271 0.371899 34.000000
-12.733452 5.709288 -2.712541 2.000000
-5.144568 2.307743 0.493302 56.000000
-13.424623 6.024817 -2.330561 15.000000
-4.377010 1.965270 0.589116 66.000000
-3.781939 1.699670 0.656712 60.000000
-14.892763 6.693071 -1.428483 7.000000
-3.471941 1.561080 0.739957 15.000000
-15.384003 6.920302 -0.884059 8.000000
-3.442178 1.549142 0.871460 56.000000
-12.820253 5.772409 -0.245416 46.000000
-5.204905 2.344639 1.529621 6.000000
-8.563861 3.872131 0.164053 52.000000
-6.470465 2.928325 0.372213 37.000000
-12.704504 5.749652 -2.710633 2.000000
-5.129221 2.322401 0.492604 38.000000
-13.383718 6.062675 -2.327119 18.000000
-4.371931 1.981356 0.589360 67.000000
-3.786776 1.717757 0.658589 73.000000
-15.130588 6.863537 -1.453583 8.000000
-3.477197 1.578058 0.742247 15.000000
-15.467051 7.022674 -0.890235 8.000000
-3.438524 1.561955 0.871910 61.000000
-12.943845 5.882490 -0.248173 42.000000
-5.193172 2.361193 1.528585 4.000000
-8.599410 3.924416 0.164995 48.000000
-6.467470 2.954215 0.372632 34.000000
-12.480777 5.700976 -2.667128 2.000000
-5.208065 2.380041 0.500971 27.000000
-4.363183 1.995779 0.589116 66.000000
-3.775368 1.728498 0.657651 79.000000
-15.106537 6.916312 -1.453583 4.000000
-3.471668 1.590186 0.742247 15.000000
-15.743846 7.214743 -0.907610 8.000000
-3.433051 1.573948 0.871910 67.000000
-13.085003 6.001833 -0.251280 44.000000
-5.197188 2.384946 1.532209 6.000000
-8.696454 4.005438 0.167124 49.000000
-6.564132 3.026106 0.378808 28.000000
-12.335997 5.686973 -2.640415 2.000000
-5.291996 2.440764 0.509861 61.000000
-4.341772 2.004341 0.587167 66.000000
-3.767519 1.740837 0.657338 74.000000
-15.335514 7.085997 -1.477987 8.000000
-3.467878 1.603119 0.742629 12.000000
-15.852713 7.331697 -0.915356 8.000000
-3.434610 1.589195 0.873710 67.000000
-13.220036 6.119716 -0.254282 36.000000
-4.603335 2.131916 1.359318 3.000000
-8.695113 4.041671 0.167369 45.000000
-6.613287 3.076804 0.382262 37.000000
-12.284030 5.715092 -2.633546 2.000000
-5.285251 2.460061 0.510035 64.000000
-4.327551 2.016131 0.586192 66.000000
-14.338233 6.682978 -1.942354 23.000000
-3.761419 1.753978 0.657338 81.000000
-15.520148 7.237164 -1.498207 4.000000
-3.464040 1.616044 0.743010 8.000000
-15.863220 7.403879 -0.917449 8.000000
-3.420213 1.597052 0.871460 63.000000
-9.725470 4.543329 -0.187369 74.000000
-5.204914 2.432622 1.539456 9.000000
-8.800440 4.128047 0.169672 45.000000
-6.588045 3.093078 0.381424 37.000000
-12.114727 5.687848 -2.601490 2.000000
-5.273024 2.476801 0.509687 60.000000
-4.320487 2.031224 0.586192 49.000000
-14.295056 6.723697 -1.939673 10.000000
-3.742762 1.761210 0.655148 76.000000
-15.559690 7.321835 -1.504482 8.000000
-3.872246 1.822965 0.831927 3.000000
-16.133606 7.598779 -0.934616 8.000000
-3.396989 1.600675 0.866961 41.000000
-9.682420 4.564457 -0.186845 81.000000
-5.206875 2.455721 1.542562 9.000000
-8.823933 4.176709 0.170405 51.000000
-6.571793 3.113491 0.381110 33.000000
-12.045121 5.706566 -2.590805 2.000000
-5.249943 2.488367 0.508292 59.000000
-14.239701 6.752370 -2.496068 30.000000
-4.340273 2.059056 0.589848 33.000000
-3.736592 1.774263 0.655148 79.000000
-15.750014 7.478652 -1.525400 9.000000
-3.979353 1.890386 0.856351 4.000000
-9.661664 4.591829 -0.560623 36.000000
-3.393142 1.613359 0.867411 22.000000
-9.651981 4.591358 -0.186566 81.000000
-3.385853 1.611344 1.004736 3.000000
-8.865237 4.234200 0.171487 46.000000
-6.676209 3.191542 0.387809 26.000000
-11.982616 5.728255 -2.581646 2.000000
-5.234035 2.503238 0.507595 56.000000
-14.230300 6.808856 -2.498572 7.000000
-4.454814 2.132478 0.606422 40.000000
-3.726813 1.785589 0.654522 76.000000
-15.953804 7.643779 -1.547712 4.000000
-3.535446 1.694661 0.762091 17.000000
-9.640175 4.622934 -0.560309 63.000000
-3.399788 1.631094 0.870561 17.000000
-9.634092 4.624156 -0.186531 84.000000
-3.369760 1.618134 1.001630 30.000000
-8.960290 4.318076 0.173617 52.000000
-6.732154 3.245757 0.391682 34.000000
-11.828157 5.705225 -2.552643 2.000000
-5.243209 2.530152 0.509338 33.000000
-14.211782 6.861064 -2.499510 3.000000
-4.474156 2.160964 0.610078 60.000000
-3.711978 1.793640 0.652958 71.000000
-9.594960 4.638384 -0.932392 5.000000
-3.517138 1.701007 0.759420 39.000000
-9.606001 4.647858 -0.559262 66.000000
-3.415411 1.652544 0.875959 17.000000
-9.609706 4.651723 -0.186357 81.000000
-3.371330 1.632668 1.003700 46.000000
-9.012467 4.380107 0.174908 52.000000
-6.712373 3.263698 0.391159 34.000000
-11.706777 5.694608 -2.530509 2.000000
-5.367362 2.612041 0.522237 42.000000
-4.454473 2.169705 0.608372 60.000000
-15.169479 7.388819 -2.071779 3.000000
-3.695355 1.800748 0.651080 58.000000
-9.581317 4.671050 -0.932566 57.000000
-3.523829 1.718686 0.762091 71.000000
-9.577971 4.673556 -0.558529 66.000000
-3.404658 1.661298 0.874610 16.000000
-9.588838 4.680931 -0.186252 78.000000
-3.371105 1.646383 1.005253 50.000000
-9.096652 4.458373 0.176828 58.000000
-6.695561 3.284468 0.390845 28.000000
-11.613800 5.697081 -2.514481 2.000000
-5.390866 2.645626 0.525375 56.000000
-4.452599 2.187089 0.609103 64.000000
-15.131123 7.435596 -2.070073 10.000000
-3.690819 1.814508 0.651393 35.000000
-9.556014 4.700070 -0.931695 54.000000
-3.512825 1.727763 0.760946 75.000000
-9.564212 4.706174 -0.558634 66.000000
-3.400586 1.674033 0.875060 15.000000
-9.547323 4.702004 -0.185763 74.000000
-3.361871 1.656432 1.004218 51.000000
-9.147357 4.522893 0.178119 54.000000
-6.805778 3.368060 0.397963 24.000000
-11.550613 5.718706 -2.505322 2.000000
-5.366850 2.658291 0.523980 60.000000
-4.437822 2.199094 0.608128 66.000000
-9.520485 4.719798 -1.304733 42.000000
-3.799492 1.884430 0.671730 30.000000
-9.523487 4.725428 -0.930126 57.000000
-3.499435 1.737135 0.759420 75.000000
-9.532589 4.734088 -0.557797 66.000000
-3.404899 1.691688 0.877759 12.000000
-9.520107 4.729964 -0.185554 74.000000
-3.347419 1.663858 1.001630 52.000000
-9.232710 4.607282 0.180109 55.000000
-6.848779 3.420646 0.401207 35.000000
-11.456815 5.722145 -2.489294 2.000000
-5.346845 2.671665 0.522934 57.000000
-4.431509 2.216232 0.608372 61.000000
-9.501346 4.753772 -1.304490 51.000000
-3.854385 1.929291 0.682680 70.000000
-9.494462 4.752400 -0.928906 51.000000
-3.412600 1.708902 0.741865 68.000000
-9.512433 4.765548 -0.557587 61.000000
-3.405942 1.707056 0.879559 4.000000
-9.499133 4.763031 -0.185484 74.000000
-3.334391 1.672651 0.999559 52.000000
-9.263010 4.662862 0.181016 55.000000
-6.831446 3.441836 0.400893 37.000000
-11.317547 5.702034 -2.463344 2.000000
-5.335706 2.689418 0.522760 52.000000
-9.448757 4.764631 -1.676039 22.000000
-4.413111 2.226322 0.606909 63.000000
-9.484694 4.786909 -1.304490 51.000000
-3.856444 1.947184 0.684244 78.000000
-9.467145 4.780123 -0.927860 54.000000
-3.331262 1.682740 0.725456 67.000000
-9.477914 4.789715 -0.556541 66.000000
-5.878196 2.971865 1.520669 6.000000
-9.478878 4.794357 -0.185414 78.000000
-3.328532 1.684280 0.999559 48.000000
-9.392884 4.769404 0.183879 42.000000
-6.822950 3.467473 0.401103 28.000000
-11.217063 5.700592 -2.445790 2.000000
-5.349375 2.719764 0.525026 28.000000
-9.451434 4.807436 -1.679481 48.000000
-4.400005 2.239014 0.606178 36.000000
-9.446700 4.809179 -1.301565 54.000000
-3.844343 1.957945 0.683306 78.000000
-9.450401 4.813140 -0.927860 54.000000
-3.320119 1.691685 0.724311 81.000000
-9.446902 4.815512 -0.555703 65.000000
-5.867786 2.992365 1.520669 6.000000
-9.456741 4.824689 -0.185310 81.000000
-3.322633 1.695889 0.999559 23.000000
-9.310325 4.768435 0.182587 52.000000
-6.935220 3.555042 0.408430 25.000000
-11.162155 5.721798 -2.438158 2.000000
-5.463949 2.802063 0.537228 42.000000
-9.431081 4.838595 -1.678855 50.000000
-4.496359 2.307839 0.620559 34.000000
-9.422791 4.838498 -1.300590 56.000000
-3.825185 1.965034 0.681116 80.000000
-9.431768 4.845191 -0.927686 57.000000
-3.296733 1.694290 0.720495 78.000000
-9.426483 4.846632 -0.555494 65.000000
-9.427397 4.851266 -0.185065 84.000000
-3.330434 1.714550 1.003700 16.000000
-9.300730 4.804576 0.182727 52.000000
-6.942284 3.589319 0.409581 31.000000
-9.398161 4.859064 -2.056540 72.000000
-5.478909 2.833933 0.539668 61.000000
-9.410625 4.869671 -1.678229 50.000000
-4.564080 2.362763 0.631040 64.000000
-9.402319 4.869534 -1.300102 56.000000
-3.811286 1.974740 0.679864 75.000000
-9.395340 4.868002 -0.925768 54.000000
-3.297771 1.709401 0.722021 81.000000
-9.413054 4.881346 -0.555703 65.000000
-5.883078 3.052104 1.530117 14.000000
-9.303913 4.828870 -0.182971 35.000000
-3.320999 1.724385 1.002665 15.000000
-9.363708 4.878590 0.184297 61.000000
-6.936797 3.617225 0.410000 31.000000
-9.375920 4.889117 -2.055395 87.000000
-5.458386 2.847511 0.538622 56.000000
-9.372554 4.891523 -1.674475 48.000000
-4.555805 2.378680 0.631040 58.000000
-9.381743 4.900490 -1.299615 56.000000
-3.806121 1.988946 0.680177 73.000000
-9.362398 4.892462 -0.924199 57.000000
-3.284824 1.717264 0.720495 78.000000
-9.394186 4.913251 -0.555599 100.000000
-5.889656 3.081655 1.534616 14.000000
-9.235622 4.834424 -0.181959 55.000000
-3.309825 1.733279 1.001112 13.000000
-9.362551 4.919619 0.184612 85.000000
-6.985998 3.673953 0.413663 25.000000
-9.350110 4.917244 -2.053486 97.000000
-5.443122 2.863765 0.538100 55.000000
-9.343185 4.917769 -1.672285 54.000000
-4.538692 2.389943 0.629821 63.000000
-9.364581 4.933206 -1.299615 60.000000
-3.799155 2.002220 0.680177 71.000000
-9.347027 4.926043 -0.924374 54.000000
-3.264917 1.721394 0.717442 78.000000
-9.357548 4.935761 -0.554447 60.000000
-5.902992 3.114928 1.540915 14.000000
-9.232837 4.874104 -0.182238 42.000000
-3.332796 1.760158 1.009912 13.000000
-6.849072 3.627926 -2.076764 1.000000
-9.341786 4.950397 0.184542 80.000000
-9.333619 4.948153 -2.438920 2.000000
-7.061353 3.745108 0.418897 28.000000
-9.329418 4.948015 -2.052723 97.000000
-5.440132 2.886483 0.538797 50.000000
-9.325964 4.950351 -1.672285 58.000000
-4.519802 2.400186 0.628358 61.000000
-9.322762 4.952826 -1.296202 54.000000
-3.786910 2.012687 0.679238 75.000000
-9.326256 4.956767 -0.924025 66.000000
-3.253687 1.730016 0.716297 67.000000
-9.186852 4.886792 -0.545341 33.000000
-5.907566 3.143754 1.544964 6.000000
-9.332266 4.968322 -0.184542 74.000000
-3.331747 1.774505 1.011465 12.000000
-6.836365 3.651813 -2.076764 1.000000
-9.322688 4.982032 0.184507 76.000000
-9.316290 4.980703 -2.438920 2.000000
-7.053520 3.772560 0.419211 31.000000
-9.294778 4.971292 -2.048907 85.000000
-5.500293 2.943053 0.545769 31.000000
-9.294694 4.975418 -1.669782 60.000000
-4.521895 2.421572 0.629821 61.000000
-9.294916 4.979714 -1.294740 54.000000
-3.772897 2.022162 0.677987 59.000000
-9.307139 4.988353 -0.923851 60.000000
-3.252819 1.744146 0.717442 45.000000
-9.166219 4.916943 -0.545131 52.000000
-5.910293 3.171727 1.548563 6.000000
-9.309582 4.998031 -0.184437 91.000000
-3.332340 1.789781 1.013535 11.000000
-6.738537 3.629845 -2.050882 1.000000
-9.298199 5.010750 0.184367 71.000000
-9.254247 4.989151 -2.427222 2.000000
-7.059647 3.807587 0.420362 25.000000
-9.273913 5.001840 -2.048144 87.000000
-5.568891 3.004809 0.553613 57.000000
-9.277269 5.007834 -1.669782 58.000000
-4.508175 2.434512 0.629090 57.000000
-9.279225 5.013071 -1.294984 65.000000
-3.765816 2.035320 0.677987 36.000000
-9.179246 4.961130 -0.912869 25.000000
-3.251892 1.758291 0.718587 19.000000
-9.206972 4.980265 -0.548586 43.000000
-5.914610 3.200686 1.552612 4.000000
-9.267459 5.017169 -0.183948 87.000000
-3.322674 1.799562 1.012500 2.000000
-9.314034 5.061317 0.185030 19.000000
-9.195685 4.999084 -2.416424 2.000000
-7.176150 3.902820 0.428108 25.000000
-9.242599 5.026678 -2.045091 82.000000
-5.556618 3.023278 0.553439 67.000000
-9.242381 5.030743 -1.666653 58.000000
-4.504880 2.453080 0.629821 43.000000
-9.252953 5.040685 -1.293765 69.000000
-3.876635 2.112732 0.699262 36.000000
-9.107639 4.963585 -0.907466 46.000000
-3.266419 1.780909 0.723166 16.000000
-9.271940 5.057325 -0.553505 95.000000
-9.248135 5.048527 -0.183913 97.000000
-5.254314 2.869505 1.604161 5.000000
-9.213900 5.046552 -2.814916 2.000000
-9.429590 5.166831 0.187683 14.000000
-9.263621 5.077990 -2.438920 2.000000
-7.183497 3.939369 0.429364 26.000000
-9.218111 5.055134 -2.043564 82.000000
-5.544283 3.041699 0.553265 66.000000
-9.203985 5.051568 -1.662899 52.000000
-4.578073 2.513695 0.641277 34.000000
-9.233561 5.071998 -1.293521 54.000000
-3.924635 2.156694 0.709274 77.000000
-9.090259 4.995344 -0.907466 31.000000
-3.258462 1.791354 0.722785 16.000000
-9.226230 5.074260 -0.551830 80.000000
-3.240582 1.782997 0.853914 16.000000
-9.219944 5.074996 -0.183704 78.000000
-5.264572 2.899011 1.610372 5.000000
-9.236815 5.101096 -2.827339 2.000000
-9.537522 5.269339 0.190196 15.000000
-9.160561 5.063160 -2.416424 2.000000
-7.166206 3.962490 0.429155 22.000000
-9.212435 5.093934 -2.046236 76.000000
-5.544093 3.066819 0.554311 63.000000
-9.191482 5.086535 -1.663837 63.000000
-4.626581 2.561390 0.649320 53.000000
-9.064723 5.020521 -1.272316 27.000000
-3.920539 2.172295 0.709900 80.000000
-9.199986 5.097536 -0.920190 66.000000
-3.265926 1.810333 0.725837 15.000000
-9.197982 5.100621 -0.551202 73.000000
-3.234338 1.794298 0.853914 45.000000
-9.307081 5.165372 -0.185798 16.000000
-5.276378 2.929560 1.617101 5.000000
-9.218951 5.133310 -2.827339 2.000000
-9.658825 5.380449 0.192989 20.000000
-9.183686 5.117871 -2.427222 2.000000
-7.258744 4.046805 0.435540 21.000000
-9.174021 5.114586 -2.041656 87.000000
-5.550755 3.095857 0.556054 45.000000
-9.165045 5.113776 -1.662273 58.000000
-4.622812 2.580426 0.650051 61.000000
-9.035010 5.045357 -1.270610 47.000000
-3.904309 2.181151 0.708335 78.000000
-9.187354 5.132535 -0.920713 71.000000
-3.281866 1.834172 0.730798 17.000000
-9.176636 5.130749 -0.550993 68.000000
-3.229755 1.806529 0.854364 81.000000
-9.369267 5.242744 -0.187404 16.000000
-5.276234 2.953622 1.620207 3.000000
-9.650447 5.420005 0.193198 20.000000
-9.104603 5.115535 -2.411025 2.000000
-7.298547 4.102456 0.438785 33.000000
-9.140708 5.137920 -2.038222 61.000000
-5.656270 3.180644 0.567733 52.000000
-9.073108 5.104091 -1.648820 26.000000
-4.617237 2.598495 0.650539 61.000000
-9.051939 5.096342 -1.275485 27.000000
-3.893229 2.192827 0.707710 73.000000
-9.148552 5.152840 -0.918622 74.000000
-3.318204 1.869711 0.740339 30.000000
-9.169108 5.168634 -0.551621 30.000000
-3.201363 1.805347 0.848515 70.000000
-9.483274 5.350093 -0.190057 16.000000
-5.267573 2.972973 1.620725 5.000000
-9.098827 5.149966 -2.801457 2.000000
-9.627990 5.451689 0.193128 15.000000
-9.107038 5.158811 -2.416424 2.000000
-7.280706 4.125938 0.438575 27.000000
-9.126135 5.171732 -2.038985 78.000000
-5.662466 3.210194 0.569476 69.000000
-8.976195 5.090903 -1.634428 37.000000
-4.615044 2.618514 0.651514 61.000000
-9.135949 5.185724 -1.289865 81.000000
-3.875245 2.200551 0.705832 78.000000
-9.118382 5.177856 -0.917401 66.000000
-3.347505 1.901647 0.748353 57.000000
-9.288188 5.278569 -0.559890 10.000000
-3.203512 1.821327 0.850765 71.000000
-9.600121 5.460278 -0.192779 20.000000
-5.267239 2.997073 1.623831 5.000000
-9.080796 5.181693 -2.801457 2.000000
-10.355659 5.911556 0.208137 57.000000
-9.072052 5.180905 -2.411925 2.000000
-7.373781 4.212754 0.445065 28.000000
-9.097799 5.197712 -2.036695 68.000000
-5.649495 3.228952 0.569301 72.000000
-8.951510 5.118282 -1.633176 37.000000
-4.593814 2.627707 0.649807 68.000000
-9.105732 5.210681 -1.288159 58.000000
-3.876112 2.218972 0.707397 75.000000
-9.088147 5.202724 -0.916181 37.000000
-3.342551 1.914296 0.748735 66.000000
-9.387548 5.378475 -0.567008 10.000000
-3.192063 1.829592 0.849415 67.000000
-22.211689 12.736201 -0.446921 9.000000
-5.270151 3.023131 1.627972 5.000000
-10.433752 6.004522 0.210127 52.000000
-9.037025 5.202816 -2.407426 2.000000
-7.404028 4.264387 0.447787 33.000000
-8.940096 5.149092 -2.005403 51.000000
-5.643368 3.251637 0.569824 69.000000
-9.055101 5.219537 -1.655390 46.000000
-4.581173 2.641745 0.649320 55.000000
-9.063415 5.228548 -1.284747 54.000000
-3.866632 2.231500 0.707084 71.000000
-9.185550 5.301139 -0.927860 11.000000
-3.325646 1.920063 0.746445 63.000000
-9.493241 5.483134 -0.574544 11.000000
-3.189032 1.842672 0.850315 72.000000
-5.272944 3.049246 1.632113 3.000000
-9.044399 5.244966 -2.801457 2.000000
-10.540728 6.115161 0.212710 52.000000
-9.032291 5.242155 -2.411025 2.000000
-7.387371 4.289203 0.447682 30.000000
-8.913579 5.175339 -2.003495 76.000000
-5.645767 3.279321 0.571219 55.000000
-9.050490 5.259054 -1.657893 54.000000
-4.590802 2.668694 0.652001 34.000000
-9.041677 5.258155 -1.284259 54.000000
-3.851989 2.241011 0.705832 64.000000
-9.272039 5.394290 -0.938493 11.000000
-3.322317 1.933635 0.747208 60.000000
-20.605055 11.997235 -1.249573 24.000000
-3.170793 1.846927 0.847166 63.000000
-21.655737 12.619123 -0.437497 75.000000
-3.176054 1.851476 0.985065 12.000000
-9.026036 5.276502 -2.801457 2.000000
-10.636697 6.220564 0.215083 52.000000
-8.976933 5.252005 -2.401128 2.000000
-7.494738 4.386592 0.455114 27.000000
-8.898849 5.208404 -2.004258 55.000000
-5.746043 3.364445 0.582549 61.000000
-9.025257 5.286622 -1.656641 46.000000
-4.701348 2.754956 0.669063 39.000000
-9.055806 5.308759 -1.288890 15.000000
-3.832215 2.247448 0.703642 47.000000
-9.364864 5.492137 -0.949823 8.000000
-3.312161 1.943233 0.746445 60.000000
-20.564774 12.070100 -1.249678 24.000000
-3.167687 1.859958 0.848065 42.000000
-21.596043 12.685520 -0.437183 18.000000
-3.157913 1.855701 0.981442 37.000000
-9.007564 5.307977 -2.801457 2.000000
-10.714830 6.316556 0.217108 52.000000
-7.524106 4.439114 0.457835 33.000000
-8.966849 5.290312 -2.023721 12.000000
-5.761717 3.400686 0.585338 81.000000
-8.994843 5.311061 -1.654451 48.000000
-4.710504 2.782455 0.671744 52.000000
-9.170520 5.419112 -1.307902 11.000000
-3.863458 2.283931 0.710838 22.000000
-9.486277 5.607932 -0.964117 8.000000
-3.298599 1.950785 0.744918 38.000000
-21.538412 12.742857 -1.311539 16.000000
-3.162853 1.871996 0.848515 24.000000
-3.158064 1.870651 0.983512 55.000000
-8.988980 5.339387 -2.801457 2.000000
-10.816491 6.427469 0.219621 52.000000
-8.913247 5.298613 -2.393929 2.000000
-7.525731 4.475560 0.458882 28.000000
-8.970265 5.334626 -2.028682 6.000000
-5.754948 3.423833 0.585861 81.000000
-8.962669 5.334345 -1.651948 31.000000
-4.700763 2.798881 0.671744 55.000000
-9.257289 5.514071 -1.323014 11.000000
-3.970854 2.366164 0.732113 56.000000
-18.777534 11.189213 -1.912371 15.000000
-3.325496 1.982393 0.752551 30.000000
-21.466354 12.801591 -1.309865 90.000000
-3.173035 1.893009 0.853014 16.000000
-22.446217 13.396567 -0.456276 10.000000
-3.148198 1.879683 0.982477 65.000000
-6.155885 3.685678 -1.922508 1.000000
-10.917505 6.539169 0.222134 52.000000
-7.620495 4.566193 0.465581 31.000000
-8.934749 5.355812 -2.024865 6.000000
-5.739544 3.441852 0.585512 81.000000
-9.049020 5.428604 -1.671346 11.000000
-4.680752 2.809144 0.670281 60.000000
-9.367330 5.624009 -1.341538 9.000000
-3.988389 2.394571 0.736806 75.000000
-18.345524 11.018742 -1.872280 14.000000
-3.419526 2.054658 0.775448 51.000000
-21.467756 12.904225 -1.312691 13.000000
-3.164737 1.903069 0.852565 16.000000
-14.194693 8.535774 -0.289117 87.000000
-3.145258 1.892104 0.983512 65.000000
-6.142982 3.707145 -1.922508 1.000000
-11.008759 6.643528 0.224438 52.000000
-8.903667 5.375275 -2.401128 2.000000
-7.636993 4.612381 0.467569 33.000000
-8.907598 5.381891 -2.022957 14.000000
-5.742840 3.471142 0.587081 68.000000
-9.156068 5.534196 -1.694498 11.000000
-4.673110 2.825677 0.670525 52.000000
-15.692584 9.492538 -2.251902 8.000000
-3.968176 2.401320 0.734616 78.000000
-18.283085 11.068274 -1.869839 21.000000
-3.449641 2.088355 0.783843 72.000000
-21.766521 13.182272 -1.333625 13.000000
-3.170076 1.920622 0.855714 16.000000
-14.152838 8.578020 -0.288872 92.000000
-3.135330 1.901068 0.982477 62.000000
-11.106804 6.755699 0.226916 47.000000
-8.921475 5.428606 -2.411025 2.000000
-7.658379 4.661861 0.469872 22.000000
-8.898087 5.416504 -2.024865 2.000000
-5.855522 3.565814 0.599806 73.000000
-9.261533 5.642173 -1.717651 12.000000
-4.668303 2.845072 0.671256 55.000000
-15.654266 9.544157 -2.251171 24.000000
-3.958084 2.414127 0.734303 80.000000
-18.219070 11.112234 -1.867050 21.000000
-3.454063 2.107541 0.786515 78.000000
-14.113727 8.615054 -0.866579 16.000000
-3.173332 1.937769 0.858413 16.000000
-14.104040 8.615900 -0.288488 100.000000
-3.127027 1.910993 0.981959 66.000000
-6.058307 3.712536 -1.903873 1.000000
-11.221248 6.879080 0.229743 52.000000
-8.922406 5.471940 -2.416424 2.000000
-7.757822 4.759589 0.476990 30.000000
-9.021365 5.534800 -2.057303 2.000000
-5.860020 3.596653 0.601549 82.000000
-9.346150 5.738550 -1.737048 12.000000
-4.670183 2.868623 0.672963 27.000000
-15.622550 9.599779 -2.251415 28.000000
-3.947949 2.426895 0.733991 78.000000
-18.178471 11.174724 -1.866876 29.000000
-3.436651 2.113415 0.784225 78.000000
-14.090374 8.668450 -0.866997 64.000000
-3.176506 1.954963 0.861113 15.000000
-14.070475 8.662984 -0.288418 99.000000
-3.113758 1.917845 0.979889 66.000000
-5.999290 3.705235 -1.889379 1.000000
-11.326456 6.998090 0.232396 52.000000
-7.758149 4.797143 0.478037 33.000000
-9.138916 5.650920 -2.088595 2.000000
-5.849124 3.618135 0.601723 87.000000
-4.773227 2.954914 0.689293 40.000000
-15.575443 9.645893 -2.249465 28.000000
-3.942812 2.442742 0.734616 78.000000
-18.123846 11.232876 -1.865481 21.000000
-3.417572 2.118158 0.781554 75.000000
-14.032870 8.700744 -0.865323 64.000000
-3.171318 1.967067 0.861563 9.000000
-14.038449 8.710993 -0.288384 85.000000
-3.095555 1.921570 0.976265 42.000000
-6.031587 3.755792 -1.903873 1.000000
-11.437758 7.122146 0.235189 52.000000
-7.846450 4.889686 0.484526 33.000000
-9.164791 5.713462 -2.099281 2.000000
-5.839205 3.641657 0.602072 78.000000
-4.793199 2.990471 0.693680 56.000000
-15.516417 9.684442 -2.245809 28.000000
-3.929234 2.453352 0.733678 80.000000
-13.993454 8.740682 -1.443473 72.000000
-3.406455 2.128590 0.780790 75.000000
-13.992415 8.746828 -0.864799 72.000000
-5.972939 3.735204 1.626396 2.000000
-14.001176 8.755699 -0.288244 85.000000
-3.097017 1.937487 0.978854 23.000000
-5.913714 3.711103 -1.870744 1.000000
-11.553842 7.253331 0.238121 52.000000
-7.873309 4.944663 0.487248 39.000000
-9.114870 5.726617 -2.092412 2.000000
-5.929357 3.726691 0.612705 68.000000
-4.783885 3.009077 0.693924 66.000000
-15.480819 9.741243 -2.245809 20.000000
-3.918976 2.466000 0.733365 78.000000
-13.951053 8.782048 -1.442253 80.000000
-3.400666 2.141514 0.781172 72.000000
-13.958421 8.793486 -0.864590 72.000000
-5.974700 3.765383 1.630445 2.000000
-13.962067 8.799191 -0.288069 94.000000
-3.111480 1.961679 0.985583 17.000000
-5.900723 3.731724 -1.870744 1.000000
-11.666621 7.378181 0.240948 47.000000
-7.871190 4.981729 0.488190 39.000000
-9.005253 5.701686 -2.071804 2.000000
-5.971856 3.782548 0.618457 94.000000
-4.772204 3.023862 0.693680 73.000000
-13.904257 8.813698 -2.021325 29.000000
-3.900334 2.473317 0.731488 45.000000
-13.918632 8.829627 -1.442079 92.000000
-3.391887 2.151727 0.780790 75.000000
-13.920751 8.834374 -0.864067 64.000000
-3.221289 2.045080 0.880908 16.000000
-13.912700 8.836082 -0.287685 85.000000
-3.107875 1.974600 0.986618 16.000000
-5.888316 3.751271 -1.870744 1.000000
-11.775702 7.504839 0.243740 52.000000
-7.980046 5.089725 0.496040 40.000000
-8.949880 5.708292 -2.063409 2.000000
-5.949202 3.795901 0.617411 100.000000
-4.763293 3.041569 0.693924 70.000000
-13.863370 8.855769 -2.019863 83.000000
-3.976568 2.541166 0.747444 35.000000
-13.870806 8.863932 -1.440161 84.000000
-3.381048 2.161439 0.780027 75.000000
-13.883099 8.878610 -0.863648 64.000000
-3.210847 2.054213 0.880009 46.000000
-13.878404 8.882434 -0.287616 90.000000
-3.104217 1.987520 0.987654 16.000000
-5.875186 3.771802 -1.870744 1.000000
-11.884041 7.632344 0.246533 48.000000
-7.992474 5.136988 0.497924 40.000000
-8.883657 5.709776 -2.052723 2.000000
-5.935916 3.816643 0.617411 100.000000
-4.742631 3.051733 0.692462 70.000000
-13.834044 8.905178 -2.020106 83.000000
-4.044071 2.604228 0.761836 60.000000
-13.833083 8.907979 -1.439464 80.000000
-3.368531 2.170038 0.778882 72.000000
-13.835232 8.916197 -0.862601 64.000000
-3.210209 2.069631 0.881808 78.000000
-13.842272 8.927573 -0.287511 85.000000
-3.110246 2.006723 0.991795 15.000000
-5.861985 3.792286 -1.870744 1.000000
-12.011776 7.773736 0.249744 54.000000
-8.018080 5.193083 0.500646 35.000000
-8.801055 5.700194 -2.038222 2.000000
-5.976063 3.872010 0.622989 73.000000
-13.839540 8.970342 -2.612143 3.000000
-4.741943 3.074749 0.693924 43.000000
-13.781222 8.939374 -2.016938 83.000000
-4.054840 2.631232 0.765590 88.000000
-13.801904 8.956212 -1.439464 80.000000
-3.357642 2.179645 0.778119 67.000000
-13.797325 8.960087 -0.862183 64.000000
-3.194794 2.075516 0.879559 71.000000
-13.809347 8.974748 -0.287476 90.000000
-3.116180 2.025991 0.995936 13.000000
-5.848711 3.812726 -1.870744 1.000000
-12.150389 7.923762 0.253200 54.000000
-8.101931 5.287627 0.507031 43.000000
-8.725204 5.694399 -2.025247 2.000000
-6.074288 3.965824 0.634668 94.000000
-13.778375 8.999153 -2.606511 3.000000
-4.829229 3.155344 0.708305 43.000000
-13.743287 8.983081 -2.015963 79.000000
-4.022485 2.630235 0.761210 82.000000
-13.767221 9.002154 -1.439116 80.000000
-3.361514 2.198875 0.780790 48.000000
-13.762623 9.006007 -0.861973 64.000000
-3.181008 2.082386 0.877759 71.000000
-13.762878 9.013037 -0.287162 85.000000
-3.122016 2.045326 1.000077 11.000000
-5.754634 3.780087 -1.844862 1.000000
-12.273062 8.064963 0.256341 54.000000
-8.141095 5.351767 0.510590 34.000000
-8.659344 5.694619 -2.014561 2.000000
-6.057078 3.984813 0.634319 99.000000
-13.730378 9.036330 -2.603383 3.000000
-4.879531 3.212573 0.717323 56.000000
-13.708530 9.028815 -2.015475 76.000000
-4.017040 2.645733 0.761836 82.000000
-13.722404 9.041382 -1.437721 80.000000
-3.419387 2.253814 0.796055 36.000000
-13.721095 9.047395 -0.861345 64.000000
-3.155826 2.081673 0.872810 71.000000
-13.721231 9.050917 -0.286918 90.000000
-3.131341 2.066307 1.005253 2.000000
-5.718850 3.785225 -1.837615 1.000000
-12.404663 8.210469 0.259657 54.000000
-8.230596 5.451843 0.517393 43.000000
-13.666932 9.056241 -3.186892 3.000000
-6.034829 4.000426 0.633448 96.000000
-13.673994 9.064350 -2.598377 3.000000
-4.877123 3.234221 0.718542 66.000000
-13.671897 9.069836 -2.014500 76.000000
-4.009426 2.660830 0.762149 84.000000
-13.674158 9.078212 -1.435978 80.000000
-3.482225 2.311834 0.812465 51.000000
-13.694346 9.095057 -0.861555 64.000000
-3.082357 2.047912 0.854364 67.000000
-13.689552 9.098761 -0.286918 85.000000
-5.310342 3.530855 1.708723 6.000000
-5.680548 3.787024 -1.829333 1.000000
-12.510686 8.343588 0.262484 36.000000
-8.239755 5.499391 0.519173 40.000000
-13.653155 9.112411 -3.190708 3.000000
-6.057983 4.044756 0.637283 73.000000
-13.638985 9.109833 -2.597751 3.000000
-4.849298 3.240198 0.716104 66.000000
-13.641807 9.118605 -2.014744 76.000000
-4.005040 2.678104 0.763087 86.000000
-13.645638 9.124611 -1.436152 76.000000
-3.485557 2.331616 0.815136 75.000000
-13.649238 9.133916 -0.860717 72.000000
-3.031466 2.029389 0.842217 60.000000
-13.651063 9.142041 -0.286778 72.000000
-5.297985 3.549369 1.708723 6.000000
-5.676917 3.813291 -1.832439 1.000000
-12.674018 8.516585 0.266533 42.000000
-8.341497 5.609480 0.526814 43.000000
-13.627783 9.164394 -3.192235 3.000000
-6.169466 4.150398 0.650530 100.000000
-13.610377 9.159595 -2.598377 3.000000
-4.831372 3.252670 0.715129 64.000000
-13.601663 9.160625 -2.013525 76.000000
-3.994029 2.690965 0.762775 76.000000
-13.612048 9.171078 -1.435978 80.000000
-3.474141 2.341573 0.814373 75.000000
-13.610648 9.177039 -0.860299 64.000000
-3.006592 2.027972 0.837268 63.000000
-13.904182 9.382017 -0.292782 4.000000
-4.143908 2.797205 1.339647 1.000000
-5.621974 3.804932 -1.818980 1.000000
-12.808143 8.671764 0.269989 54.000000
-13.580695 9.198277 -3.786826 5.000000
-8.339386 5.648311 0.527861 45.000000
-13.579455 9.200895 -3.188419 3.000000
-6.166485 4.179734 0.651751 100.000000
-13.581594 9.209263 -2.599002 3.000000
-4.823274 3.271744 0.715617 54.000000
-13.558104 9.200245 -2.011819 72.000000
-3.973642 2.696430 0.760584 61.000000
-13.573360 9.214059 -1.435281 80.000000
-3.472443 2.358098 0.815899 69.000000
-13.568614 9.217762 -0.859671 64.000000
-2.993048 2.034073 0.835468 66.000000
-14.177312 9.634888 -0.299204 4.000000
-5.313643 3.612503 1.721664 6.000000
-12.946182 8.827976 0.273514 54.000000
-13.550119 9.243259 -3.786826 5.000000
-8.441698 5.760695 0.535606 46.000000
-13.560228 9.257097 -3.191472 3.000000
-6.137050 4.191121 0.650182 100.000000
-13.531404 9.240882 -2.595248 3.000000
-4.861571 3.321314 0.722929 29.000000
-13.527519 9.245155 -2.011819 76.000000
-3.996819 2.732582 0.766842 33.000000
-13.526314 9.251260 -1.433712 72.000000
-3.464604 2.369600 0.815899 75.000000
-13.574240 9.287516 -0.861973 16.000000
-2.992719 2.048390 0.837268 70.000000
-20.840847 14.270021 -0.440883 9.000000
-5.320126 3.644130 1.727876 4.000000
-5.494026 3.773117 -1.785851 1.000000
-13.086702 8.990875 0.277144 54.000000
-8.469267 5.822943 0.538642 45.000000
-13.506805 9.286442 -3.186129 3.000000
-6.142817 4.224997 0.652274 86.000000
-13.487674 9.280223 -2.593058 11.000000
-4.961140 3.414799 0.739503 50.000000
-13.493532 9.291189 -2.011575 76.000000
-4.109265 2.830559 0.790307 58.000000
-13.480814 9.289375 -1.432317 69.000000
-3.454695 2.380565 0.815518 72.000000
-13.969284 9.629567 -0.889188 8.000000
-2.983946 2.057718 0.836818 71.000000
-20.820536 14.363122 -0.441511 9.000000
-5.285113 3.647316 1.720629 4.000000
-5.480160 3.793228 -1.785851 1.000000
-13.241035 9.165111 0.281088 49.000000
-8.575311 5.940039 0.546701 48.000000
-13.501724 9.356012 -3.192998 3.000000
-6.258285 4.338292 0.666219 100.000000
-13.442208 9.321712 -2.590868 11.000000
-4.944297 3.428701 0.738772 64.000000
-13.456121 9.334845 -2.010844 76.000000
-4.109096 2.851644 0.792184 76.000000
-13.454855 9.340918 -1.433015 72.000000
-3.433047 2.384253 0.812465 73.000000
-20.734358 14.405386 -1.323158 13.000000
-2.976385 2.068640 0.836818 70.000000
-5.304073 3.687799 1.730982 6.000000
-5.466886 3.812335 -1.785851 1.000000
-13.415644 9.358880 0.285521 44.000000
-6.585640 4.595914 -1.854047 1.000000
-8.576408 5.987438 0.548167 54.000000
-13.440007 9.382856 -3.186129 3.000000
-6.254538 4.368094 0.667439 100.000000
-13.401487 9.362924 -2.589303 15.000000
-4.923561 3.441115 0.737553 66.000000
-13.413687 9.378411 -2.009626 73.000000
-4.101854 2.868950 0.792810 76.000000
-13.670331 9.561405 -1.459510 4.000000
-3.427920 2.398472 0.813228 73.000000
-18.592813 13.013985 -1.189387 11.000000
-2.965952 2.076782 0.835918 71.000000
-19.932690 13.962205 -0.424792 100.000000
-5.325328 3.731603 1.742370 12.000000
-5.396639 3.791414 -1.767217 1.000000
-13.665930 9.604573 0.291560 53.000000
-8.660011 6.090873 0.554866 46.000000
-13.397540 9.422934 -3.183839 3.000000
-6.237623 4.388754 0.667264 100.000000
-13.428493 9.451716 -2.600880 3.000000
-4.914766 3.460565 0.738041 68.000000
-13.367884 9.416030 -2.007676 66.000000
-4.086970 2.879837 0.791871 80.000000
-13.975635 9.847772 -1.495767 4.000000
-3.429155 2.417209 0.815518 72.000000
-18.530945 13.067302 -1.188340 11.000000
-2.958685 2.087122 0.835918 60.000000
-19.905075 14.046681 -0.425245 9.000000
-5.324893 3.759084 1.746511 10.000000
-5.383372 3.810229 -1.767217 1.000000
-13.862436 9.815150 0.296481 48.000000
-8.689216 6.156861 0.558111 46.000000
-13.338937 9.451483 -3.177733 3.000000
-6.271028 4.445068 0.672494 90.000000
-13.385752 9.491673 -2.599002 3.000000
-4.907514 3.481146 0.738772 50.000000
-13.368928 9.486764 -2.012794 32.000000
-4.064007 2.884937 0.789368 88.000000
-15.913509 11.296602 -1.707381 5.000000
-3.420697 2.429165 0.815518 67.000000
-2.956147 2.100824 0.837268 34.000000
-19.888517 14.139251 -0.425943 36.000000
-5.319612 3.783246 1.749099 6.000000
-5.370039 3.828997 -1.767217 1.000000
-14.070660 10.036503 0.301682 57.000000
-8.786340 6.271863 0.565752 50.000000
-13.321842 9.509394 -3.181550 3.000000
-6.356003 4.538715 0.683301 100.000000
-13.320390 9.515377 -2.592745 3.000000
-4.961551 3.545575 0.748765 29.000000
-13.645792 9.755023 -2.059592 3.000000
-4.055519 2.900255 0.789681 84.000000
-16.766941 11.990674 -1.803427 39.000000
-3.407406 2.437665 0.814373 51.000000
-2.961472 2.120205 0.840867 16.000000
-19.855293 14.220237 -0.426292 81.000000
-5.309514 3.804042 1.750134 8.000000
-5.356641 3.847719 -1.767217 1.000000
-14.275879 10.258258 0.306848 58.000000
-8.821147 6.343306 0.569415 54.000000
-13.269440 9.542084 -3.176970 3.000000
-6.344974 4.564364 0.683824 100.000000
-13.264647 9.545663 -2.588365 3.000000
-5.029696 3.620862 0.760952 54.000000
-14.255996 10.266623 -2.157088 3.000000
-4.051781 2.919012 0.790933 82.000000
-17.623795 12.696655 -1.900344 100.000000
-3.419581 2.464465 0.819334 34.000000
-20.350185 14.671613 -1.314784 13.000000
-2.957214 2.132810 0.841767 16.000000
-19.771479 14.264889 -0.425559 63.000000
-5.316567 3.837250 1.756864 4.000000
-5.302485 3.836948 -1.753758 1.000000
-14.447324 10.458117 0.311316 60.000000
-8.913790 6.457250 0.576847 58.000000
-13.255130 9.602166 -3.181550 3.000000
-6.337068 4.592330 0.684695 100.000000
-5.015419 3.637232 0.760709 61.000000
-16.787720 12.179092 -2.546582 5.000000
-4.043165 2.934299 0.791246 66.000000
-17.569691 12.751081 -1.899298 53.000000
-3.523757 2.558280 0.846429 48.000000
-20.366720 14.791854 -1.319180 78.000000
-2.952904 2.145411 0.842667 15.000000
-19.632601 14.269152 -0.423640 71.000000
-2.918758 2.122158 0.966948 11.000000
-5.251592 3.828123 -1.741335 1.000000
-14.624009 10.664005 0.315923 62.000000
-8.958957 6.537775 0.581243 53.000000
-13.189813 9.625231 -3.173917 3.000000
-6.430428 4.694305 0.696549 96.000000
-5.009104 3.659401 0.761683 59.000000
-4.080739 2.983369 0.800632 46.000000
-18.403259 13.454355 -1.994472 51.000000
-3.529067 2.580995 0.849863 64.000000
-20.318182 14.865222 -1.319390 78.000000
-2.953261 2.161459 0.844916 15.000000
-19.619781 14.364765 -0.424443 53.000000
-2.920684 2.139184 0.970054 37.000000
-5.253769 3.857864 -1.746511 1.000000
-14.812320 10.880725 0.320810 63.000000
-9.043900 6.648264 0.588256 65.000000
-13.168791 9.680513 -3.176970 3.000000
-6.457338 4.748594 0.701255 100.000000
-4.996301 3.676863 0.761683 59.000000
-4.164144 3.066707 0.819091 64.000000
-18.354578 13.517332 -1.994298 25.000000
-3.529520 2.600284 0.852153 73.000000
-20.245272 14.920647 -1.318029 65.000000
-2.958246 2.181006 0.848515 16.000000
-20.189116 14.890136 -0.437881 75.000000
-2.913199 2.149365 0.970054 63.000000
-5.178145 3.830226 -1.725805 1.000000
-14.981611 11.085810 0.325313 48.000000
-9.124970 6.757051 0.595060 57.000000
-6.423112 4.758060 0.699338 100.000000
-9.822560 7.278926 -1.936346 2.000000
-4.988220 3.697828 0.762415 43.000000
-4.166107 3.090639 0.821594 76.000000
-19.179363 14.228271 -2.089298 67.000000
-3.514115 2.607909 0.850627 73.000000
-20.207499 15.001940 -1.318971 78.000000
-2.991291 2.221529 0.860213 23.000000
-20.185171 14.996294 -0.438928 85.000000
-2.882421 2.142236 0.962289 63.000000
-5.158546 3.843663 -1.723735 1.000000
-15.156063 11.296977 0.329955 67.000000
-6.125580 4.567528 -1.764066 1.000000
-9.174970 6.843796 0.599875 70.000000
-6.457564 4.818580 0.704916 90.000000
-5.048447 3.769854 0.773627 33.000000
-4.155293 3.105163 0.821594 76.000000
-20.060045 14.990449 -2.190921 10.000000
-3.500273 2.616634 0.849482 75.000000
-20.147011 15.066405 -1.318448 78.000000
-3.020969 2.259972 0.871010 38.000000
-20.137503 15.070257 -0.439033 85.000000
-2.893483 2.166178 0.968501 68.000000
-5.151279 3.866283 -1.725805 1.000000
-15.361205 11.533516 0.335296 60.000000
-9.253218 6.952562 0.606574 65.000000
-6.560153 4.930874 0.717989 100.000000
-5.106645 3.841151 0.784595 52.000000
-4.141271 3.117273 0.820968 76.000000
-20.028286 15.075962 -2.193187 64.000000
-3.487982 2.626474 0.848719 75.000000
-20.071966 15.119812 -1.316982 65.000000
-3.019286 2.275195 0.872810 59.000000
-20.075191 15.133237 -0.438823 95.000000
-2.876650 2.169285 0.965395 66.000000
-5.082275 3.842300 -1.707170 1.000000
-15.580823 11.783681 0.340985 44.000000
-6.093542 4.610183 -1.764066 1.000000
-9.295781 7.035444 0.610970 56.000000
-7.500056 5.676363 -1.828332 2.000000
-6.544490 4.954947 0.718163 100.000000
-5.096371 3.861349 0.785082 56.000000
-20.025249 15.177964 -3.085245 8.000000
-4.122494 3.125743 0.819404 80.000000
-20.021582 15.180693 -2.198242 87.000000
-3.480357 2.639819 0.849100 78.000000
-20.023834 15.193412 -1.317296 78.000000
-2.977177 2.259800 0.862912 30.000000
-20.011101 15.194751 -0.438579 84.000000
-2.884444 2.190999 0.970571 68.000000
-5.031945 3.831927 -1.694747 1.000000
-15.838652 12.065811 0.347547 73.000000
-6.077414 4.631424 -1.764066 1.000000
-9.387115 7.156243 0.618611 60.000000
-6.522400 4.974138 0.717640 100.000000
-20.013187 15.268051 -3.986889 10.000000
-5.082860 3.879116 0.785082 56.000000
-19.975298 15.250187 -3.085732 8.000000
-4.105279 3.135317 0.818152 80.000000
-19.957388 15.242019 -2.197022 97.000000
-3.474241 2.654336 0.849863 72.000000
-19.970678 15.263216 -1.317296 65.000000
-2.956886 2.260709 0.859313 16.000000
-19.940468 15.251147 -0.438195 84.000000
-2.855298 2.184620 0.963324 66.000000
-5.003211 3.837709 -1.689571 1.000000
-16.051853 12.317019 0.353167 65.000000
-6.061209 4.652610 -1.764066 1.000000
-9.484056 7.282628 0.626671 61.000000
-6.628242 5.091544 0.731237 100.000000
-5.069289 3.896835 0.785082 55.000000
-19.928242 15.324656 -3.086707 24.000000
-4.092744 3.148424 0.817839 62.000000
-19.894585 15.304301 -2.195976 97.000000
