# This PCD file was generated using the MATLAB® pcwrite function
# from Computer Vision Toolbox®.
# .PCD v.7 - Point Cloud Data file format
VERSION .7
FIELDS x y z intensity
SIZE 4 4 4 4
TYPE F F F F
COUNT 1 1 1 1
WIDTH 1289
HEIGHT 1
VIEWPOINT 0 0 0 1 0 0 0
POINTS 1289
DATA ascii
0.150900 3.361901 -0.901726 9.000000
0.246189 5.463624 0.095465 65.000000
0.165467 3.657942 -0.845366 7.000000
0.248702 5.476832 0.287324 59.000000
0.182126 4.010722 -0.780409 5.000000
0.249591 5.475378 0.479531 50.000000
0.201545 4.404432 -0.698324 4.000000
0.251950 5.484982 0.674181 42.000000
0.226572 4.913838 -0.603985 2.000000
0.253079 5.467916 0.866960 51.000000
0.251850 5.441368 -0.476568 3.000000
0.255207 5.493150 1.068912 51.000000
0.255390 5.476524 -0.287324 47.000000
0.257137 5.493330 1.269624 43.000000
0.256398 5.457148 -0.095360 60.000000
0.259082 5.493876 1.473716 43.000000
0.162447 3.357495 -0.900690 9.000000
0.265648 5.470720 0.095604 63.000000
0.178329 3.659289 -0.845816 7.000000
0.269281 5.505854 0.288895 54.000000
0.195645 4.000257 -0.778501 4.000000
0.269485 5.490393 0.480925 46.000000
0.216626 4.397783 -0.697385 5.000000
0.272270 5.507861 0.677106 40.000000
0.242741 4.893191 -0.601547 2.000000
0.274029 5.504485 0.872904 53.000000
0.271039 5.444435 -0.476916 3.000000
0.275261 5.509874 1.072347 48.000000
0.275407 5.493553 -0.288266 42.000000
0.277585 5.517700 1.275472 40.000000
0.276755 5.482183 -0.095814 62.000000
0.278943 5.506444 1.477339 45.000000
0.174166 3.356907 -0.900690 9.000000
0.286197 5.497717 0.096093 65.000000
0.190287 3.643076 -0.842217 7.000000
0.289336 5.520837 0.289732 52.000000
0.209711 4.001511 -0.778882 5.000000
0.290112 5.517274 0.483366 48.000000
0.231558 4.389110 -0.696133 4.000000
0.292335 5.522735 0.679056 40.000000
0.260663 4.908172 -0.603497 2.000000
0.294396 5.525193 0.876346 51.000000
0.291313 5.467331 -0.479008 3.000000
0.295332 5.524562 1.075400 48.000000
0.295438 5.508512 -0.289104 42.000000
0.299039 5.557563 1.284920 39.000000
0.297400 5.509138 -0.096302 62.000000
0.299940 5.538230 1.486139 52.000000
0.185881 3.356279 -0.900690 9.000000
0.306830 5.522641 0.096547 70.000000
0.202895 3.640443 -0.841767 6.000000
0.310162 5.547711 0.291197 49.000000
0.223456 3.996834 -0.778119 5.000000
0.310933 5.544077 0.485806 50.000000
0.246879 4.388274 -0.696133 4.000000
0.312614 5.539519 0.681250 43.000000
0.276559 4.885431 -0.600816 2.000000
0.315474 5.555687 0.881352 53.000000
0.311075 5.478216 -0.480054 3.000000
0.315839 5.545060 1.079597 45.000000
0.315803 5.527388 -0.290151 40.000000
0.318661 5.560376 1.285820 39.000000
0.318352 5.538013 -0.096826 68.000000
0.320937 5.566079 1.493904 50.000000
0.197596 3.355609 -0.900690 9.000000
0.327876 5.551479 0.097070 59.000000
0.214794 3.626096 -0.838618 7.000000
0.330949 5.570519 0.292453 45.000000
0.236708 3.984271 -0.775829 6.000000
0.332418 5.578758 0.488944 52.000000
0.261488 4.375555 -0.694256 5.000000
0.333850 5.570099 0.685149 47.000000
0.292540 4.866602 -0.598622 2.000000
0.335340 5.562439 0.882603 48.000000
0.330914 5.489029 -0.481100 1.000000
0.337209 5.577238 1.086085 42.000000
0.337273 5.562137 -0.292035 42.000000
0.339250 5.578681 1.290319 39.000000
0.338651 5.552836 -0.097105 66.000000
0.342371 5.597705 1.502703 42.000000
0.208587 3.343330 -0.897584 9.000000
0.349371 5.584230 0.097664 59.000000
0.227451 3.625324 -0.838618 7.000000
0.351521 5.587271 0.293395 50.000000
0.249383 3.963826 -0.772013 8.000000
0.353014 5.595459 0.490513 55.000000
0.276511 4.370672 -0.693630 4.000000
0.355178 5.598616 0.688806 43.000000
0.308892 4.855647 -0.597404 2.000000
0.356516 5.588833 0.886984 51.000000
0.349567 5.479887 -0.480402 1.000000
0.358807 5.609334 1.092572 45.000000
0.358472 5.588830 -0.293500 45.000000
0.360599 5.606634 1.297068 40.000000
0.359321 5.571576 -0.097454 66.000000
0.363151 5.615754 1.507880 47.000000
0.218986 3.323305 -0.892408 10.000000
0.369258 5.588962 0.097768 59.000000
0.241007 3.638119 -0.841767 7.000000
0.373272 5.619888 0.295175 54.000000
0.263607 3.968809 -0.773158 8.000000
0.373605 5.610096 0.491907 52.000000
0.291241 4.361796 -0.692379 4.000000
0.376441 5.623091 0.691974 47.000000
0.326506 4.864441 -0.598622 2.000000
0.377749 5.613177 0.891051 49.000000
0.368694 5.478633 -0.480402 1.000000
0.379838 5.629593 1.096770 48.000000
0.379867 5.615442 -0.294965 45.000000
0.382147 5.634505 1.303816 42.000000
0.380258 5.592234 -0.097838 68.000000
0.383936 5.631799 1.512539 45.000000
0.230853 3.326375 -0.893443 9.000000
0.390291 5.609582 0.098152 59.000000
0.251397 3.604208 -0.834118 7.000000
0.394281 5.638474 0.296222 52.000000
0.277324 3.965906 -0.772776 6.000000
0.395413 5.640559 0.494696 52.000000
0.305631 4.348930 -0.690502 5.000000
0.397743 5.645504 0.694899 47.000000
0.343066 4.857331 -0.597891 2.000000
0.399150 5.637440 0.895118 56.000000
0.387249 5.469364 -0.479705 1.000000
0.400183 5.638025 1.098678 46.000000
0.400602 5.630020 -0.295803 45.000000
0.404444 5.670069 1.312364 40.000000
0.402345 5.626774 -0.098466 57.000000
0.405666 5.659328 1.520303 42.000000
0.242462 3.325549 -0.893443 9.000000
0.412057 5.638102 0.098676 63.000000
0.263978 3.603308 -0.834118 7.000000
0.416007 5.664951 0.297687 48.000000
0.291165 3.964914 -0.772776 5.000000
0.417442 5.670937 0.497485 52.000000
0.320520 4.343897 -0.689876 4.000000
0.418764 5.661899 0.697093 43.000000
0.358844 4.840267 -0.595941 2.000000
0.421609 5.673441 0.901063 58.000000
0.405159 5.452084 -0.478311 1.000000
0.422485 5.671835 1.105547 46.000000
0.422481 5.658463 -0.297373 39.000000
0.424817 5.676396 1.314164 40.000000
0.423481 5.645277 -0.098816 57.000000
0.427734 5.688700 1.528585 47.000000
0.253480 3.316978 -0.891373 9.000000
0.433875 5.664543 0.099165 61.000000
0.277448 3.614023 -0.836818 7.000000
0.436697 5.675412 0.298315 46.000000
0.303797 3.948214 -0.769724 6.000000
0.439228 5.695269 0.499751 46.000000
0.335680 4.342752 -0.689876 4.000000
0.441130 5.694048 0.701236 40.000000
0.374202 4.819194 -0.593504 2.000000
0.442022 5.679813 0.902314 54.000000
0.421713 5.418854 -0.475522 1.000000
0.444572 5.699685 1.111272 48.000000
0.444100 5.680848 -0.298629 33.000000
0.446454 5.698192 1.319563 40.000000
0.444905 5.665694 -0.099199 63.000000
0.449712 5.714135 1.535832 47.000000
0.264134 3.304518 -0.888267 10.000000
0.456838 5.702860 0.099863 63.000000
0.288815 3.597492 -0.833219 7.000000
0.458234 5.707778 0.300094 45.000000
0.316948 3.939301 -0.768197 6.000000
0.460545 5.711575 0.501320 48.000000
0.349883 4.329740 -0.687999 3.000000
0.462928 5.716218 0.704161 42.000000
0.390020 4.815948 -0.593260 2.000000
0.462454 5.698004 0.905443 49.000000
0.439658 5.405434 -0.474476 3.000000
0.467175 5.731364 1.117759 45.000000
0.466040 5.705142 -0.299990 16.000000
0.468205 5.731641 1.327661 40.000000
0.465811 5.690096 -0.099653 59.000000
0.470237 5.731866 1.541009 43.000000
0.274128 3.292073 -0.885161 9.000000
0.476577 5.711278 0.100037 60.000000
0.301067 3.600399 -0.834118 7.000000
0.480154 5.742052 0.301978 45.000000
0.330339 3.942141 -0.768960 8.000000
0.480649 5.723914 0.502540 44.000000
0.363247 4.316745 -0.686122 3.000000
0.484718 5.748278 0.708305 43.000000
0.405989 4.814628 -0.593260 2.000000
0.485171 5.741712 0.912639 54.000000
0.456238 5.388064 -0.473081 1.000000
0.487508 5.745432 1.120812 40.000000
0.486986 5.727446 -0.301246 3.000000
0.490014 5.763066 1.335310 39.000000
0.487395 5.720399 -0.100212 65.000000
0.490887 5.749523 1.546185 43.000000
0.285710 3.298845 -0.887232 9.000000
0.497244 5.729588 0.100386 63.000000
0.311993 3.587732 -0.831419 7.000000
0.502794 5.770187 0.303549 46.000000
0.342730 3.925318 -0.765907 6.000000
0.503268 5.763970 0.506201 46.000000
0.376526 4.303710 -0.684244 3.000000
0.505854 5.770370 0.711230 42.000000
0.422271 4.807249 -0.592529 2.000000
0.507463 5.765564 0.916706 51.000000
0.475392 5.390408 -0.473430 1.000000
0.509114 5.761297 1.124247 42.000000
0.508562 5.743616 -0.302188 1.000000
0.513052 5.794320 1.342958 40.000000
0.509833 5.746550 -0.100700 68.000000
0.514203 5.784336 1.556020 43.000000
0.297799 3.297775 -0.887232 9.000000
0.521483 5.763575 0.101015 58.000000
0.323732 3.571038 -0.827820 7.000000
0.525027 5.780240 0.304177 48.000000
0.358538 3.939677 -0.768960 5.000000
0.527279 5.793834 0.508990 48.000000
0.393731 4.318038 -0.686747 3.000000
0.529171 5.792199 0.714154 42.000000
0.437715 4.781947 -0.589604 2.000000
0.530756 5.787271 0.920461 51.000000
0.495147 5.388628 -0.473430 1.000000
0.532926 5.788717 1.129971 45.000000
0.531076 5.757624 -0.303025 1.000000
0.535358 5.804044 1.345657 40.000000
0.533469 5.772519 -0.101189 59.000000
0.539320 5.824732 1.567408 43.000000
0.308800 3.285121 -0.884126 9.000000
0.544855 5.785516 0.101433 58.000000
0.336452 3.565947 -0.826920 7.000000
0.549216 5.810091 0.305851 46.000000
0.370441 3.918855 -0.765144 6.000000
0.551518 5.823598 0.511779 48.000000
0.406569 4.285102 -0.681741 3.000000
0.553026 5.817887 0.717567 42.000000
0.454675 4.774383 -0.588873 2.000000
0.554401 5.810851 0.924528 54.000000
0.513193 5.378934 -0.472733 1.000000
0.556493 5.822000 1.136840 46.000000
0.554980 5.795499 -0.305119 1.000000
0.558859 5.825321 1.351056 43.000000
0.556917 5.794412 -0.101608 59.000000
0.562885 5.845792 1.573620 43.000000
0.320266 3.284023 -0.884126 10.000000
0.568935 5.823383 0.102131 58.000000
0.348898 3.564751 -0.826920 7.000000
0.572613 5.839942 0.307526 46.000000
0.382970 3.905815 -0.762854 6.000000
0.573789 5.841466 0.513522 48.000000
0.421912 4.287588 -0.682367 3.000000
0.576643 5.849504 0.721710 40.000000
0.470752 4.766840 -0.588142 2.000000
0.577406 5.836401 0.928908 54.000000
0.531575 5.373145 -0.472384 1.000000
0.580299 5.855187 1.143709 46.000000
0.577179 5.813401 -0.306165 1.000000
0.581892 5.850483 1.357355 47.000000
0.578728 5.808351 -0.101887 57.000000
0.584629 5.857248 1.577243 47.000000
0.329395 3.259821 -0.877914 9.000000
0.591073 5.839267 0.102446 58.000000
0.361340 3.563511 -0.826920 7.000000
0.594594 5.863843 0.308887 45.000000
0.396995 3.908361 -0.763618 6.000000
0.596396 5.861232 0.515439 44.000000
0.434073 4.258576 -0.677987 5.000000
0.599877 5.875104 0.725123 38.000000
0.486556 4.765253 -0.588142 2.000000
0.599371 5.860001 0.932975 51.000000
0.546267 5.331616 -0.468898 3.000000
0.601932 5.864845 1.145999 50.000000
0.601555 5.851086 -0.308259 1.000000
0.604879 5.883414 1.365453 45.000000
0.602697 5.852151 -0.102690 51.000000
0.606229 5.876415 1.582937 49.000000
0.340605 3.262553 -0.878950 9.000000
0.613760 5.869097 0.103004 58.000000
0.371123 3.542912 -0.822421 7.000000
0.617777 5.897594 0.310771 45.000000
0.408726 3.895308 -0.761328 7.000000
0.618744 5.886962 0.517879 41.000000
0.448603 4.261043 -0.678613 5.000000
0.621856 5.896772 0.728048 49.000000
0.501524 4.755716 -0.587167 2.000000
0.623157 5.899235 0.939546 57.000000
0.564785 5.337701 -0.469595 1.000000
0.624276 5.890149 1.151342 48.000000
0.623484 5.872892 -0.309515 1.000000
0.627676 5.912382 1.372651 42.000000
0.625907 5.885912 -0.103318 57.000000
0.629807 5.912792 1.593290 49.000000
0.352250 3.269089 -0.881020 9.000000
0.636654 5.898840 0.103563 56.000000
0.383708 3.549412 -0.824221 7.000000
0.640727 5.917244 0.311922 45.000000
0.422274 3.899787 -0.762473 7.000000
0.642346 5.922513 0.521191 48.000000
0.462945 4.261496 -0.678926 5.000000
0.643768 5.916386 0.730729 42.000000
0.516832 4.742096 -0.585704 2.000000
0.646745 5.924516 0.943926 52.000000
0.580316 5.315992 -0.467852 1.000000
0.647431 5.921224 1.157829 42.000000
0.644696 5.886675 -0.310352 1.000000
0.650859 5.933401 1.378050 40.000000
0.649940 5.915496 -0.103877 57.000000
0.654882 5.950883 1.604161 50.000000
0.362591 3.258239 -0.878432 7.000000
0.660338 5.924405 0.104051 56.000000
0.394367 3.532557 -0.820621 9.000000
0.663377 5.932835 0.312864 48.000000
0.434140 3.882680 -0.759420 7.000000
0.667224 5.957855 0.524503 52.000000
0.476718 4.250038 -0.677361 3.000000
0.666855 5.935801 0.733410 40.000000
0.532937 4.736318 -0.585217 2.000000
0.670078 5.945777 0.947680 52.000000
0.599763 5.321854 -0.468549 1.000000
0.671401 5.948191 1.163553 43.000000
0.668381 5.912174 -0.311818 1.000000
0.673980 5.952392 1.382999 45.000000
0.673290 5.937035 -0.104296 57.000000
0.678483 5.973515 1.610890 49.000000
0.373301 3.251196 -0.876879 9.000000
0.684899 5.955836 0.104645 54.000000
0.407365 3.536967 -0.821971 9.000000
0.689574 5.978102 0.315377 46.000000
0.445215 3.859688 -0.755222 6.000000
0.690077 5.973302 0.526072 48.000000
0.490870 4.242461 -0.676423 5.000000
0.692140 5.972876 0.738285 40.000000
0.548779 4.728513 -0.584485 2.000000
0.693339 5.964986 0.951122 49.000000
0.616499 5.295872 -0.466458 1.000000
0.696018 5.978962 1.170041 45.000000
0.689938 5.917740 -0.312236 1.000000
0.698145 5.979037 1.389748 43.000000
0.696332 5.954510 -0.104645 55.000000
0.702026 5.994134 1.617101 49.000000
0.383622 3.236377 -0.873255 7.000000
0.707566 5.969295 0.104924 52.000000
0.420168 3.539394 -0.822871 9.000000
0.714211 6.007391 0.317051 46.000000
0.462377 3.883373 -0.760183 7.000000
0.714562 5.992495 0.527989 50.000000
0.506884 4.244556 -0.677048 5.000000
0.717459 6.007874 0.742916 43.000000
0.565754 4.730511 -0.584973 2.000000
0.718853 6.001756 0.957379 49.000000
0.629287 5.246210 -0.462274 1.000000
0.721910 6.009508 1.176528 50.000000
0.719258 5.978627 -0.315586 1.000000
0.725415 6.020938 1.400095 45.000000
0.721180 5.985794 -0.105238 51.000000
0.725261 6.010827 1.622278 46.000000
0.393045 3.219677 -0.869114 7.000000
0.732111 5.988496 0.105308 59.000000
0.431479 3.524290 -0.819722 9.000000
0.740842 6.042398 0.319040 45.000000
0.473301 3.860300 -0.755985 7.000000
0.739602 6.023583 0.530953 44.000000
0.518321 4.215313 -0.672668 6.000000
0.742627 6.030817 0.746084 40.000000
0.580901 4.710674 -0.582779 2.000000
0.744721 6.030449 0.962385 54.000000
0.651445 5.267596 -0.464366 1.000000
0.744809 6.022539 1.179581 52.000000
0.739140 5.968151 -0.315167 1.000000
0.749547 6.043509 1.405944 43.000000
0.747550 6.018831 -0.105866 56.000000
0.749193 6.023465 1.626419 13.000000
0.407253 3.237383 -0.874291 7.000000
0.758500 6.029553 0.106076 57.000000
0.441344 3.503428 -0.815223 9.000000
0.764180 6.057610 0.319982 46.000000
0.486953 3.854644 -0.755222 6.000000
0.765677 6.052457 0.533742 41.000000
0.532776 4.205546 -0.671417 5.000000
0.766170 6.047881 0.748522 40.000000
0.597090 4.706648 -0.582536 2.000000
0.770745 6.067006 0.968642 54.000000
0.670332 5.269243 -0.464714 1.000000
0.771094 6.052876 1.186069 49.000000
0.760505 5.961439 -0.314958 1.000000
0.774654 6.063918 1.411343 46.000000
0.773878 6.057839 -0.106599 58.000000
0.955538 7.469487 2.017753 2.000000
0.416928 3.232255 -0.873255 9.000000
0.783360 6.064686 0.106739 57.000000
0.452958 3.501945 -0.815223 7.000000
0.787598 6.080792 0.321343 43.000000
0.497548 3.841413 -0.752932 6.000000
0.789299 6.085588 0.536879 42.000000
0.544458 4.192098 -0.669540 5.000000
0.791085 6.082709 0.753153 43.000000
0.611670 4.696768 -0.581561 3.000000
0.793668 6.085963 0.972084 49.000000
0.684705 5.243284 -0.462623 1.000000
0.795192 6.089358 1.193701 45.000000
0.788552 6.030315 -0.318726 1.000000
0.796304 6.073084 -0.106913 56.000000
0.980804 7.470108 2.018789 2.000000
0.428519 3.228790 -0.872738 9.000000
0.809788 6.101561 0.107437 54.000000
0.464924 3.498410 -0.814773 9.000000
0.813297 6.111662 0.323122 43.000000
0.509551 3.823995 -0.749879 7.000000
0.815289 6.110301 0.539320 44.000000
0.562434 4.209654 -0.672668 6.000000
0.817569 6.119263 0.758027 43.000000
0.629115 4.702475 -0.582536 2.000000
0.818318 6.108608 0.976151 49.000000
0.699294 5.213216 -0.460182 1.000000
0.821688 6.117535 1.199807 33.000000
0.803728 5.975919 -0.316005 1.000000
0.820963 6.096032 -0.107367 54.000000
1.005327 7.455152 2.015683 2.000000
0.438741 3.219618 -0.870667 9.000000
0.833767 6.110440 0.107646 57.000000
0.477215 3.492821 -0.813873 9.000000
0.839764 6.146385 0.325111 45.000000
0.523694 3.828029 -0.751024 7.000000
0.840668 6.137028 0.541934 48.000000
0.575516 4.195923 -0.670791 5.000000
0.843777 6.143757 0.761440 42.000000
0.644452 4.686371 -0.580829 3.000000
0.843672 6.135069 0.980844 45.000000
0.714771 5.191006 -0.458439 1.000000
0.821851 5.953292 -0.314958 1.000000
0.846894 6.126803 -0.107961 51.000000
1.018633 7.359744 1.990836 2.000000
0.448908 3.210414 -0.868597 9.000000
0.857347 6.131406 0.108065 52.000000
0.487715 3.483500 -0.812073 9.000000
0.866758 6.182975 0.327204 45.000000
0.535960 3.818401 -0.749498 7.000000
0.866523 6.165624 0.544723 48.000000
0.588878 4.190079 -0.670165 6.000000
0.868568 6.172378 0.765340 42.000000
0.659158 4.678311 -0.580098 2.000000
0.732331 5.184533 -0.458091 1.000000
1.063760 7.530889 1.478388 2.000000
0.851656 6.021727 -0.318726 1.000000
0.873610 6.161427 -0.108624 49.000000
0.940587 6.625503 1.793098 2.000000
0.458731 3.203170 -0.867044 9.000000
0.884990 6.171924 0.108833 54.000000
0.497931 3.468274 -0.808924 7.000000
0.890610 6.195726 0.328042 45.000000
0.548900 3.818546 -0.749879 7.000000
0.892356 6.200186 0.548035 44.000000
0.603779 4.189953 -0.670478 6.000000
0.892944 6.188955 0.767777 31.000000
0.670944 4.644547 -0.576198 2.000000
1.104494 7.636361 1.222066 2.000000
0.747804 5.170246 -0.457045 1.000000
1.083287 7.480498 1.469229 2.000000
0.853757 5.888262 -0.311818 1.000000
0.901727 6.203856 -0.109427 42.000000
0.957033 6.576297 1.780675 4.000000
0.470752 3.207284 -0.868597 9.000000
0.912924 6.212323 0.109601 54.000000
0.510035 3.466515 -0.808924 7.000000
0.917473 6.228147 0.329926 63.000000
0.561369 3.810780 -0.748735 7.000000
0.919515 6.234484 0.551347 37.000000
0.616960 4.178049 -0.668914 5.000000
0.684245 4.622540 -0.573761 3.000000
0.769938 5.195196 -0.459485 1.000000
1.109971 7.480555 1.469993 2.000000
0.873130 5.877344 -0.311399 1.000000
0.925440 6.214515 -0.109671 49.000000
0.983970 6.599667 1.787922 2.000000
0.479357 3.188428 -0.863938 9.000000
0.940558 6.248647 0.110299 64.000000
0.522714 3.468567 -0.809824 9.000000
0.944269 6.258480 0.331705 43.000000
0.572029 3.791325 -0.745300 6.000000
0.943059 6.243056 0.552393 42.000000
0.630950 4.171964 -0.668288 5.000000
1.166444 7.703680 0.956674 1.000000
0.703055 4.637787 -0.575955 2.000000
1.147112 7.558155 1.210803 2.000000
0.784783 5.164762 -0.457045 1.000000
1.026947 6.758475 1.328794 2.000000
0.888836 5.842668 -0.309724 1.000000
0.949233 6.225085 -0.109915 20.000000
0.987177 6.466330 1.752723 2.000000
0.492218 3.194287 -0.866009 9.000000
0.966322 6.271019 0.110753 78.000000
0.533035 3.455165 -0.807124 7.000000
0.962757 6.233433 0.330554 22.000000
0.588324 3.804724 -0.748353 6.000000
0.972334 6.280906 0.556054 46.000000
0.645631 4.165719 -0.667662 5.000000
1.193330 7.699561 0.956674 1.000000
0.717719 4.625496 -0.574736 2.000000
0.803420 5.165928 -0.457393 1.000000
1.038124 6.667370 1.311621 2.000000
0.913320 5.859105 -0.310771 1.000000
0.974350 6.243467 -0.110299 4.000000
1.015113 6.497201 1.762040 10.000000
0.501559 3.181099 -0.862903 9.000000
0.989925 6.271385 0.110823 42.000000
0.545694 3.453189 -0.807124 7.000000
0.983574 6.224117 0.330240 20.000000
0.599144 3.787135 -0.745300 7.000000
0.999865 6.312894 0.559191 48.000000
0.655218 4.132224 -0.662656 5.000000
1.221540 7.695137 0.956674 1.000000
0.732613 4.615121 -0.573761 3.000000
1.074594 6.761800 1.084404 2.000000
0.817692 5.139481 -0.455302 1.000000
1.057375 6.638502 1.306660 2.000000
0.929994 5.832213 -0.309515 1.000000
1.002444 6.279521 -0.110997 9.000000
1.039614 6.505064 1.765146 70.000000
0.513642 3.188955 -0.865491 9.000000
1.005621 6.236481 0.110264 26.000000
0.555280 3.439817 -0.804425 7.000000
0.999754 6.193216 0.328775 20.000000
0.612327 3.789003 -0.746063 7.000000
1.028429 6.356748 0.563375 46.000000
0.672392 4.151478 -0.666098 6.000000
0.746643 4.604828 -0.572786 3.000000
1.093844 6.738701 1.081275 2.000000
0.835369 5.140674 -0.455650 3.000000
1.066457 6.555510 1.291014 2.000000
0.949328 5.829097 -0.309515 1.000000
1.067853 6.556869 1.533716 23.000000
1.024227 6.282084 -0.111102 19.000000
1.060556 6.497768 1.764111 87.000000
0.524214 3.187234 -0.865491 9.000000
1.026299 6.233112 0.110264 23.000000
0.566683 3.437957 -0.804425 7.000000
1.015512 6.154218 0.326890 18.000000
0.622671 3.769410 -0.742629 7.000000
1.054376 6.382788 0.565989 42.000000
0.686477 4.151174 -0.666411 5.000000
1.124710 6.793817 0.845530 1.000000
0.759793 4.584568 -0.570592 3.000000
1.117359 6.734842 1.081275 2.000000
0.851351 5.125934 -0.454604 1.000000
1.092233 6.569177 1.294448 6.000000
0.972291 5.841509 -0.310352 1.000000
1.090413 6.551180 1.533266 59.000000
1.045822 6.276497 -0.111067 23.000000
1.082915 6.492121 1.763593 100.000000
0.532047 3.162431 -0.859279 9.000000
1.047807 6.221421 0.110125 23.000000
0.579929 3.439700 -0.805325 7.000000
1.036733 6.142576 0.326472 16.000000
0.636481 3.767102 -0.742629 7.000000
1.082408 6.406385 0.568430 40.000000
0.701029 4.144735 -0.665785 6.000000
1.143637 6.754420 0.841142 1.000000
0.774268 4.568052 -0.568886 2.000000
1.120228 6.602164 1.060626 2.000000
0.866795 5.103137 -0.452861 1.000000
1.121896 6.598033 1.300936 59.000000
0.989675 5.814279 -0.309096 1.000000
1.115072 6.550981 1.534166 87.000000
1.065123 6.250939 -0.110683 23.000000
1.104427 6.474778 1.759970 100.000000
0.544288 3.164267 -0.860315 9.000000
1.066529 6.193891 0.109706 23.000000
0.591209 3.429869 -0.803525 7.000000
1.057492 6.134984 0.326262 16.000000
0.648960 3.760988 -0.741865 7.000000
1.111306 6.433788 0.571219 42.000000
0.713861 4.128512 -0.663595 6.000000
1.149427 6.640646 0.827493 1.000000
0.792580 4.579014 -0.570592 3.000000
1.147650 6.623517 1.064693 15.000000
0.883243 5.092227 -0.452164 1.000000
1.143915 6.588273 1.299791 95.000000
1.010647 5.814725 -0.309306 1.000000
1.134260 6.525929 1.529217 76.000000
1.084196 6.231421 -0.110404 22.000000
1.124703 6.457561 1.756346 68.000000
0.554444 3.160542 -0.859797 7.000000
1.083952 6.172593 0.109392 23.000000
0.600892 3.418294 -0.801276 6.000000
1.075754 6.119640 0.325634 16.000000
0.658024 3.739480 -0.738049 7.000000
1.140241 6.473236 0.575054 40.000000
0.725488 4.114450 -0.661718 6.000000
1.175578 6.660256 0.830418 3.000000
0.807757 4.576361 -0.570592 3.000000
1.171672 6.631345 1.066570 68.000000
0.901511 5.097118 -0.452861 3.000000
1.161306 6.559313 1.294830 100.000000
1.026440 5.791675 -0.308259 1.000000
1.153856 6.510619 1.526518 72.000000
1.103456 6.219916 -0.110264 22.000000
1.156919 6.514663 1.772911 55.000000
0.564923 3.158686 -0.859797 7.000000
1.101595 6.153218 0.109112 23.000000
0.610163 3.404773 -0.798576 6.000000
1.094992 6.104053 0.325006 13.000000
0.671808 3.745007 -0.739576 7.000000
1.170855 6.520405 0.579586 42.000000
0.737732 4.104245 -0.660466 6.000000
1.205042 6.697350 0.835536 36.000000
0.818802 4.546162 -0.567180 3.000000
1.194464 6.625271 1.066257 76.000000
0.916996 5.086257 -0.452164 3.000000
1.182352 6.551562 1.294067 100.000000
1.042799 5.772516 -0.307421 1.000000
1.179352 6.521893 1.530117 38.000000
1.124803 6.214059 -0.110229 22.000000
1.186539 6.548603 1.783263 57.000000
0.574559 3.149092 -0.857726 7.000000
1.122350 6.145401 0.109043 23.000000
0.623443 3.410291 -0.800376 7.000000
1.120608 6.123769 0.326262 11.000000
0.684171 3.738777 -0.738812 7.000000
1.200431 6.553514 0.582898 48.000000
0.751338 4.097759 -0.659841 6.000000
1.227698 6.689197 0.835049 52.000000
0.834667 4.543276 -0.567180 3.000000
1.214720 6.605519 1.063754 75.000000
0.934742 5.083025 -0.452164 1.000000
1.202728 6.533879 1.291395 70.000000
1.061496 5.760983 -0.307003 1.000000
1.210235 6.561814 1.540465 42.000000
1.142496 6.188464 -0.109845 22.000000
1.216765 6.584314 1.794134 59.000000
0.585549 3.147068 -0.857726 7.000000
1.149651 6.172900 0.109601 16.000000
0.635345 3.408093 -0.800376 6.000000
1.151505 6.170867 0.328984 13.000000
0.696427 3.728524 -0.737286 7.000000
1.227322 6.570828 0.584815 43.000000
0.766365 4.098995 -0.660466 6.000000
1.247025 6.663407 0.832368 55.000000
0.846134 4.516921 -0.564255 2.000000
1.234132 6.581823 1.060626 75.000000
0.947489 5.048234 -0.449375 3.000000
1.238628 6.593101 1.303989 51.000000
1.079650 5.741352 -0.306165 1.000000
1.241418 6.601599 1.550813 38.000000
1.161873 6.172646 -0.109636 18.000000
1.249397 6.631286 1.808110 89.000000
0.593475 3.125921 -0.852550 7.000000
1.173014 6.172574 0.109671 14.000000
0.644918 3.390427 -0.796777 7.000000
1.183078 6.213694 0.331496 12.000000
0.710089 3.725947 -0.737286 7.000000
1.256621 6.593686 0.587255 43.000000
0.774720 4.061232 -0.654835 6.000000
1.272182 6.662692 0.832855 52.000000
0.863430 4.517689 -0.564743 3.000000
1.260472 6.588897 1.062503 37.000000
0.962986 5.029073 -0.447981 1.000000
1.270178 6.627079 1.311621 51.000000
1.105200 5.760894 -0.307421 1.000000
1.277353 6.658247 1.565209 51.000000
1.189389 6.193876 -0.110090 18.000000
1.270413 6.609587 1.803451 51.000000
0.606397 3.131311 -0.854621 7.000000
1.205525 6.219275 0.110578 16.000000
0.658453 3.393780 -0.798126 7.000000
1.210843 6.240898 0.333171 12.000000
0.721967 3.717664 -0.736141 8.000000
1.289142 6.632063 0.591090 43.000000
0.791110 4.066121 -0.656086 6.000000
1.293177 6.640448 0.830662 31.000000
0.879222 4.510597 -0.564255 3.000000
1.295560 6.646501 1.072515 34.000000
0.976721 5.006125 -0.446237 1.000000
1.297441 6.643801 1.315819 48.000000
1.117641 5.717797 -0.305328 1.000000
1.309237 6.691769 1.574207 91.000000
1.220220 6.236786 -0.110927 16.000000
1.293476 6.605113 1.803451 29.000000
0.618072 3.132966 -0.855656 7.000000
1.235433 6.262328 0.111416 16.000000
0.666306 3.374371 -0.794077 6.000000
1.237269 6.260146 0.334427 12.000000
0.733036 3.705491 -0.734233 7.000000
1.322731 6.680293 0.595797 48.000000
0.803054 4.055724 -0.654835 6.000000
1.322136 6.671174 0.835049 27.000000
0.890313 4.488185 -0.561818 3.000000
1.328369 6.690377 1.080337 31.000000
0.997293 5.018319 -0.447632 3.000000
1.333623 6.710709 1.329939 100.000000
1.135818 5.710142 -0.305119 1.000000
1.325327 6.656812 1.567009 25.000000
1.252921 6.287401 -0.111905 11.000000
1.316904 6.602451 1.803969 31.000000
0.627317 3.125217 -0.854103 9.000000
1.266737 6.305030 0.112254 15.000000
0.680387 3.383487 -0.796777 6.000000
1.263536 6.283421 0.335892 12.000000
0.746093 3.706890 -0.734996 8.000000
1.354322 6.722745 0.599980 50.000000
0.817988 4.056768 -0.655460 7.000000
1.354841 6.713218 0.840899 27.000000
0.909118 4.500617 -0.563768 3.000000
1.359154 6.728533 1.087220 57.000000
1.016300 5.026702 -0.448678 3.000000
1.357041 6.706013 1.329939 47.000000
1.152570 5.690482 -0.304281 1.000000
1.346235 6.640686 1.564310 19.000000
1.321840 6.520351 -0.116128 2.000000
1.336869 6.588582 1.801381 31.000000
0.637448 3.119223 -0.853068 9.000000
1.292441 6.324306 0.112673 15.000000
0.689260 3.369757 -0.794077 7.000000
1.297481 6.337672 0.339032 12.000000
0.757057 3.694646 -0.733088 8.000000
1.382182 6.739446 0.601898 43.000000
0.831832 4.055969 -0.655773 7.000000
1.387076 6.757302 0.846992 24.000000
0.920441 4.480077 -0.561574 3.000000
1.388997 6.754706 1.092226 97.000000
1.023399 4.972385 -0.444146 1.000000
1.376899 6.689937 1.327649 29.000000
1.172239 5.690542 -0.304491 1.000000
1.367067 6.630459 1.562960 21.000000
1.334894 6.468694 -0.115291 2.000000
1.355950 6.564957 1.796204 31.000000
0.644644 3.101961 -0.848927 9.000000
1.324285 6.366742 0.113510 15.000000
0.700620 3.365423 -0.793627 6.000000
1.411297 6.779152 0.362898 22.000000
0.769306 3.692116 -0.733088 8.000000
1.411847 6.769933 0.605035 45.000000
0.843161 4.039504 -0.653583 6.000000
1.420396 6.799055 0.852842 27.000000
0.935263 4.472950 -0.561086 3.000000
1.407752 6.732661 1.089410 23.000000
1.041513 4.976764 -0.444843 1.000000
1.399839 6.683169 1.327267 33.000000
1.186360 5.659049 -0.303025 1.000000
1.387003 6.610389 1.559361 21.000000
1.352641 6.446619 -0.114976 7.000000
1.371362 6.530174 1.787922 27.000000
0.657066 3.107252 -0.850997 9.000000
1.390070 6.573611 0.117280 17.000000
0.710970 3.359268 -0.792728 6.000000
1.445301 6.823031 0.365514 29.000000
0.782188 3.689408 -0.733088 8.000000
1.447461 6.821485 0.610090 48.000000
0.847940 3.996107 -0.647013 6.000000
1.449120 6.823434 0.856498 28.000000
0.946375 4.452349 -0.558893 3.000000
1.430833 6.725774 1.089097 21.000000
1.053899 4.949714 -0.442751 1.000000
1.417086 6.655448 1.322688 31.000000
1.202621 5.643363 -0.302397 1.000000
1.406886 6.596224 1.557111 19.000000
1.368455 6.410568 -0.114418 26.000000
1.394150 6.525347 1.787922 27.000000
0.667638 3.101045 -0.849962 10.000000
1.471745 6.830171 0.121957 31.000000
0.722220 3.348894 -0.790928 6.000000
1.480340 6.858430 0.367712 25.000000
0.796120 3.688435 -0.733470 7.000000
1.482131 6.860925 0.614099 59.000000
0.865364 4.002476 -0.648577 6.000000
1.486226 6.868264 0.862835 31.000000
0.962624 4.444802 -0.558405 3.000000
1.452043 6.698996 1.085655 18.000000
1.071188 4.941924 -0.442403 3.000000
1.440135 6.638446 1.320398 24.000000
1.218350 5.611378 -0.300932 1.000000
1.430129 6.581253 1.554862 21.000000
1.399860 6.436530 -0.114976 4.000000
1.416728 6.508619 1.784816 25.000000
0.679284 3.102470 -0.850997 9.000000
1.506278 6.873826 0.122830 36.000000
0.733071 3.342545 -0.790028 6.000000
1.512834 6.892237 0.369806 25.000000
0.804360 3.664540 -0.729272 8.000000
1.515903 6.900468 0.618109 54.000000
0.880604 4.005219 -0.649516 6.000000
1.516593 6.892114 0.866491 24.000000
0.977279 4.437537 -0.557918 3.000000
1.471168 6.674594 1.082527 18.000000
1.091007 4.949829 -0.443448 3.000000
1.462877 6.631461 1.320017 22.000000
1.238789 5.610992 -0.301141 1.000000
1.448470 6.555288 1.549913 21.000000
1.425344 6.445271 -0.115221 2.000000
1.439020 6.501749 1.784299 31.000000
0.687590 3.088766 -0.847891 9.000000
1.539831 6.911467 0.123598 31.000000
0.748128 3.355182 -0.793627 6.000000
1.544811 6.928120 0.372004 25.000000
0.815435 3.654045 -0.727746 8.000000
1.548234 6.932078 0.621420 49.000000
0.895873 4.007903 -0.650455 6.000000
1.541504 6.890654 0.866979 12.000000
0.994065 4.439910 -0.558649 3.000000
1.488979 6.650402 1.079398 18.000000
1.107408 4.942101 -0.443100 3.000000
1.482575 6.610990 1.316964 21.000000
1.260994 5.618326 -0.301769 1.000000
1.471772 6.552094 1.550363 23.000000
1.458103 6.491238 -0.116128 2.000000
1.455063 6.472439 1.777569 36.000000
0.694958 3.071273 -0.843750 9.000000
1.564065 6.912174 0.123703 18.000000
0.756665 3.341280 -0.790928 6.000000
1.577372 6.959695 0.373993 21.000000
0.828621 3.653091 -0.728127 7.000000
1.579922 6.959662 0.624384 52.000000
0.905661 3.989499 -0.647952 6.000000
1.559070 6.862275 0.864054 10.000000
1.008342 4.434654 -0.558405 3.000000
1.512186 6.645164 1.079398 18.000000
1.122882 4.930435 -0.442403 3.000000
1.499696 6.584980 1.312766 23.000000
1.274291 5.590746 -0.300513 1.000000
1.489160 6.528177 1.545864 59.000000
1.489267 6.518170 1.791546 8.000000
0.708168 3.082131 -0.847374 9.000000
1.595800 6.939802 0.124296 5.000000
0.767451 3.334819 -0.790028 6.000000
1.615222 7.018657 0.377447 25.000000
0.839409 3.644584 -0.726982 6.000000
1.613728 7.000981 0.628567 56.000000
0.916027 3.970916 -0.645449 6.000000
1.578104 6.835514 0.861373 10.000000
1.021580 4.421436 -0.557187 3.000000
1.532431 6.632415 1.078146 18.000000
1.136531 4.915038 -0.441357 1.000000
1.516477 6.552927 1.307423 38.000000
1.291096 5.574589 -0.299885 1.000000
1.473352 6.356489 -0.113894 2.000000
1.521790 6.560242 1.804486 23.000000
0.718920 3.079641 -0.847374 9.000000
1.636078 7.008472 0.125622 2.000000
0.772743 3.307586 -0.784179 6.000000
1.647899 7.047981 0.379331 24.000000
0.853466 3.647367 -0.728127 7.000000
1.649969 7.045743 0.633099 56.000000
0.925588 3.952469 -0.642946 6.000000
1.595779 6.808984 0.858692 10.000000
1.033969 4.408361 -0.555968 3.000000
1.555123 6.625102 1.077834 21.000000
1.156416 4.922678 -0.442403 3.000000
1.541341 6.561241 1.310095 19.000000
1.304086 5.546947 -0.298629 1.000000
1.567925 6.663955 1.580506 2.000000
1.491867 6.335734 -0.113615 2.000000
1.555753 6.601900 1.817427 24.000000
0.728239 3.073480 -0.846338 7.000000
1.671607 7.049416 0.126460 2.000000
0.786084 3.312453 -0.785979 6.000000
1.678950 7.069392 0.380796 25.000000
0.862561 3.629085 -0.725074 7.000000
1.685302 7.090631 0.637631 54.000000
0.943494 3.966510 -0.645762 7.000000
1.659530 6.971380 0.879897 8.000000
1.043832 4.381553 -0.553043 3.000000
1.575034 6.606182 1.075644 49.000000
1.171742 4.910860 -0.441705 3.000000
1.639702 6.866807 1.372298 2.000000
1.327197 5.553784 -0.299257 1.000000
1.511181 6.318820 -0.113406 2.000000
1.696154 7.086792 1.952531 2.000000
0.736786 3.059521 -0.843232 7.000000
1.709613 7.093787 0.127368 2.000000
0.802331 3.326600 -0.790028 6.000000
1.717036 7.113669 0.383518 21.000000
0.873090 3.614449 -0.722785 7.000000
1.720634 7.123141 0.641118 58.000000
0.952919 3.941905 -0.642320 6.000000
1.727548 7.140830 0.902077 17.000000
1.061284 4.383486 -0.553774 3.000000
1.183162 4.879425 -0.439265 3.000000
1.688010 6.956145 1.391379 2.000000
1.348485 5.552764 -0.299466 1.000000
1.527721 6.286034 -0.112917 2.000000
1.666419 6.851518 1.889379 2.000000
0.747075 3.053047 -0.842197 7.000000
1.756531 7.172934 0.128903 2.000000
0.811271 3.310388 -0.786879 6.000000
1.755642 7.163888 0.386553 19.000000
0.884300 3.605659 -0.721640 8.000000
1.756708 7.157419 0.644778 69.000000
0.968773 3.944140 -0.643259 7.000000
1.765080 7.180715 0.907927 17.000000
1.076873 4.377638 -0.553531 4.000000
1.672284 6.798070 1.108808 2.000000
1.198280 4.867526 -0.438568 3.000000
1.710871 6.944492 1.390234 5.000000
1.365949 5.540266 -0.299048 1.000000
1.555401 6.303961 -0.113336 2.000000
1.752843 7.098855 1.959260 5.000000
0.757727 3.050421 -0.842197 7.000000
1.781271 7.170951 0.128973 2.000000
0.821303 3.303897 -0.785979 6.000000
1.792694 7.206171 0.389170 19.000000
0.897828 3.606360 -0.722403 8.000000
1.796127 7.209243 0.650007 65.000000
0.980413 3.935157 -0.642320 7.000000
1.799450 7.217197 0.913289 15.000000
1.088497 4.362488 -0.552068 3.000000
1.714188 6.865020 1.120697 2.000000
1.208503 4.836252 -0.436127 3.000000
1.741031 6.967350 1.395959 5.000000
1.375591 5.500830 -0.297164 1.000000
1.576427 6.294613 -0.113266 2.000000
1.777144 7.090819 1.958743 5.000000
0.765008 3.036651 -0.839091 9.000000
1.819003 7.215104 0.129881 2.000000
0.830448 3.291562 -0.783729 7.000000
1.828305 7.246665 0.391682 17.000000
0.910264 3.605267 -0.722785 7.000000
1.833204 7.255403 0.654714 58.000000
0.991724 3.922134 -0.640756 7.000000
1.834856 7.251285 0.918407 15.000000
1.103232 4.356737 -0.551824 3.000000
1.770401 6.991429 1.142285 5.000000
1.228449 4.847669 -0.437522 3.000000
1.776922 7.006903 1.405118 2.000000
1.390852 5.480508 -0.296326 1.000000
1.592368 6.269969 -0.112917 2.000000
1.796840 7.069909 1.954602 7.000000
0.778952 3.047065 -0.842715 9.000000
1.862729 7.286529 0.131277 2.000000
0.838945 3.279350 -0.781480 10.000000
1.864981 7.284740 0.394090 16.000000
0.920408 3.592558 -0.720876 8.000000
1.870396 7.295278 0.658897 58.000000
1.004725 3.918824 -0.640756 7.000000
1.872211 7.297076 0.924988 16.000000
1.116194 4.347286 -0.551093 3.000000
1.817901 7.075128 1.156989 2.000000
1.241392 4.827914 -0.436127 3.000000
1.820680 7.080832 1.421145 5.000000
1.401057 5.444917 -0.294651 1.000000
1.603265 6.221772 -0.112149 2.000000
1.820545 7.059852 1.953566 7.000000
0.785175 3.029504 -0.838574 10.000000
1.891167 7.291596 0.131486 5.000000
0.852344 3.283947 -0.783280 10.000000
1.903454 7.328446 0.396811 16.000000
0.926393 3.566684 -0.716297 8.000000
1.906104 7.333387 0.662907 63.000000
1.017403 3.911469 -0.640130 7.000000
1.913174 7.350050 0.932544 15.000000
1.128859 4.333758 -0.549874 3.000000
1.848565 7.091678 1.160744 2.000000
1.254215 4.808129 -0.434733 3.000000
1.870165 7.169417 1.440226 7.000000
1.429134 5.474779 -0.296536 1.000000
1.620929 6.200660 -0.111870 2.000000
1.838331 7.027288 1.946319 5.000000
0.794307 3.019133 -0.836503 13.000000
1.922711 7.308157 0.131905 2.000000
0.864299 3.282836 -0.783729 11.000000
1.945814 7.385493 0.400265 17.000000
0.938457 3.559468 -0.715534 8.000000
1.945678 7.374513 0.667264 60.000000
1.026691 3.888614 -0.637001 7.000000
1.952503 7.395148 0.939125 13.000000
1.142458 4.324034 -0.549143 4.000000
1.900071 7.186398 1.177326 5.000000
1.267935 4.792164 -0.433687 3.000000
1.877836 7.092294 1.426107 5.000000
1.435892 5.419307 -0.293814 1.000000
1.643591 6.198829 -0.111940 2.000000
1.856903 6.998422 1.940108 2.000000
0.804344 3.014475 -0.835986 13.000000
1.949483 7.301061 0.131905 2.000000
0.873810 3.270233 -0.781480 10.000000
1.982927 7.421105 0.402568 17.000000
0.952906 3.563756 -0.717060 8.000000
1.985823 7.421568 0.672145 64.000000
1.042301 3.892640 -0.638253 7.000000
1.987814 7.418622 0.943025 13.000000
1.158297 4.319818 -0.549143 3.000000
1.933837 7.212159 1.182645 2.000000
1.287752 4.799255 -0.434733 3.000000
1.909201 7.110344 1.431068 5.000000
1.452726 5.406547 -0.293395 1.000000
1.663140 6.185330 -0.111800 2.000000
1.865762 6.934067 1.924061 7.000000
0.817384 3.020973 -0.838574 13.000000
1.973685 7.294556 0.131905 2.000000
0.881593 3.256031 -0.778781 10.000000
2.021880 7.462332 0.405185 15.000000
0.966880 3.566093 -0.718205 10.000000
2.026327 7.468431 0.677026 62.000000
1.051582 3.875817 -0.636063 6.000000
2.024889 7.457966 0.948875 15.000000
1.167933 4.298712 -0.546950 3.000000
1.952783 7.182489 1.178890 2.000000
1.304498 4.794731 -0.434733 3.000000
1.933802 7.107762 1.431831 5.000000
1.463300 5.374720 -0.291930 1.000000
1.907622 7.001900 1.675435 11.000000
1.692086 6.206497 -0.112289 2.000000
2.052153 7.522045 2.089187 49.000000
0.827907 3.020109 -0.839091 13.000000
1.999138 7.287621 0.131905 2.000000
0.892954 3.252934 -0.778781 10.000000
2.063782 7.513008 0.408325 16.000000
0.976100 3.553402 -0.716297 8.000000
2.069039 7.526989 0.682952 76.000000
1.069821 3.889264 -0.638878 7.000000
2.068816 7.515927 0.957162 15.000000
1.180297 4.285039 -0.545731 4.000000
1.977845 7.175629 1.178890 2.000000
1.310628 4.751736 -0.431247 3.000000
1.945024 7.051763 1.421909 7.000000
1.488430 5.392682 -0.293186 1.000000
2.060719 7.461044 1.787011 5.000000
1.703082 6.162005 -0.111591 2.000000
2.098483 7.587451 2.109375 78.000000
0.834832 3.002164 -0.834950 14.000000
2.002065 7.199681 0.130439 2.000000
0.902736 3.244165 -0.777431 11.000000
2.103390 7.553858 0.410942 16.000000
0.986485 3.540344 -0.714389 7.000000
2.107314 7.557739 0.686439 50.000000
1.081414 3.875804 -0.637314 6.000000
2.110513 7.564109 0.964230 13.000000
1.192045 4.269421 -0.544268 4.000000
1.998627 7.153461 1.176387 2.000000
1.332573 4.766319 -0.432990 3.000000
1.969275 7.038914 1.420764 2.000000
1.501723 5.364111 -0.291930 1.000000
2.130630 7.605437 1.823453 42.000000
1.717031 6.129064 -0.111102 2.000000
2.133300 7.609841 2.117657 76.000000
0.844257 2.995514 -0.833915 13.000000
2.030609 7.199994 0.130579 2.000000
0.917795 3.252088 -0.780130 11.000000
2.147888 7.605684 0.414187 15.000000
0.997767 3.533101 -0.713626 7.000000
2.133684 7.550336 0.686439 12.000000
1.091712 3.860600 -0.635437 6.000000
2.154436 7.613626 0.971543 13.000000
1.207684 4.265024 -0.544268 3.000000
2.007063 7.083369 1.166063 5.000000
1.341599 4.734801 -0.430549 3.000000
2.165203 7.636414 1.542882 66.000000
1.518259 5.351151 -0.291511 1.000000
2.172602 7.652318 1.836500 52.000000
1.748226 6.153507 -0.111661 2.000000
2.177552 7.659576 2.133704 73.000000
0.855770 2.996263 -0.834950 13.000000
2.059025 7.204399 0.130788 2.000000
0.924856 3.233875 -0.776531 11.000000
2.189812 7.651904 0.417118 16.000000
1.010095 3.529596 -0.713626 7.000000
2.177029 7.602220 0.691842 6.000000
1.102460 3.847271 -0.633873 7.000000
2.195227 7.655672 0.977880 12.000000
1.220374 4.253150 -0.543294 3.000000
2.197500 7.653514 1.261175 18.000000
1.353719 4.714769 -0.429155 3.000000
2.205401 7.675982 1.552422 74.000000
1.536930 5.345818 -0.291511 1.000000
2.216540 7.704617 1.850897 52.000000
1.765271 6.131994 -0.111381 2.000000
2.221925 7.713188 2.150786 70.000000
0.866223 2.993258 -0.834950 13.000000
2.067472 7.139544 0.129741 2.000000
0.932885 3.219396 -0.773832 12.000000
2.228518 7.690641 0.419630 16.000000
1.021315 3.522277 -0.712862 7.000000
2.238528 7.715124 0.702824 2.000000
1.116985 3.847193 -0.634498 7.000000
2.236335 7.697525 0.984217 13.000000
1.232995 4.241240 -0.542319 4.000000
2.241616 7.710678 1.271812 24.000000
1.367943 4.702363 -0.428458 3.000000
2.248093 7.722902 1.563489 69.000000
1.544406 5.302070 -0.289418 1.000000
2.258146 7.747346 1.863045 49.000000
1.776644 6.095388 -0.110823 2.000000
2.264795 7.765126 2.167351 70.000000
0.876123 2.988362 -0.834433 13.000000
2.097890 7.155675 0.130160 2.000000
0.944104 3.218155 -0.774282 10.000000
2.270537 7.734558 0.422456 16.000000
1.030285 3.507389 -0.710573 7.000000
2.290169 7.791369 0.710494 2.000000
1.129179 3.841573 -0.634185 6.000000
2.281456 7.756722 0.992748 11.000000
1.243691 4.225701 -0.540856 4.000000
2.283587 7.753968 1.280260 27.000000
1.393360 4.728138 -0.431247 3.000000
2.291452 7.775666 1.575701 66.000000
1.561981 5.296919 -0.289418 1.000000
2.299266 7.792150 1.875642 49.000000
1.799042 6.092986 -0.110893 2.000000
2.309405 7.816459 2.183915 70.000000
0.881630 2.970624 -0.830292 10.000000
2.111471 7.109969 0.129462 2.000000
0.953665 3.209236 -0.772932 11.000000
2.312671 7.782507 0.425491 16.000000
1.038552 3.492662 -0.708283 7.000000
2.323383 7.808557 0.712760 62.000000
1.139763 3.828142 -0.632621 7.000000
2.328354 7.815297 1.001279 12.000000
1.260704 4.228943 -0.541831 4.000000
2.326220 7.803145 1.289646 27.000000
1.399917 4.692943 -0.428458 3.000000
2.338232 7.833463 1.589057 71.000000
1.587322 5.314399 -0.290674 1.000000
2.344865 7.845692 1.890489 52.000000
1.808928 6.052499 -0.110264 2.000000
2.351367 7.862430 2.198927 73.000000
0.891994 2.967529 -0.830292 9.000000
2.131578 7.091439 0.129253 2.000000
0.967671 3.217253 -0.775631 12.000000
2.357093 7.831761 0.428632 10.000000
1.050737 3.489016 -0.708283 7.000000
2.363271 7.842368 0.716594 62.000000
1.149032 3.812993 -0.630744 7.000000
2.372598 7.868351 1.009078 12.000000
1.274720 4.224740 -0.541831 4.000000
2.371142 7.853601 1.299345 25.000000
1.408225 4.661326 -0.426017 3.000000
2.380663 7.880168 1.600124 71.000000
1.603780 5.305283 -0.290465 1.000000
2.387234 7.891965 1.903536 49.000000
1.828887 6.042319 -0.110194 2.000000
2.392235 7.898550 2.211350 77.000000
0.899535 2.955156 -0.827703 7.000000
2.162219 7.098882 0.129532 2.000000
0.973774 3.195044 -0.771132 11.000000
2.401883 7.880801 0.431772 1.000000
1.065201 3.492838 -0.709810 7.000000
2.411564 7.902675 0.722870 62.000000
1.161845 3.804978 -0.630118 7.000000
2.415921 7.907063 1.015172 12.000000
1.290195 4.220040 -0.541831 4.000000
2.417599 7.907616 1.309669 28.000000
1.423321 4.652572 -0.425669 3.000000
2.427917 7.931463 1.612336 66.000000
1.617366 5.280272 -0.289418 1.000000
2.436703 7.950237 1.919732 44.000000
1.852313 6.043546 -0.110334 2.000000
2.438482 7.951101 2.228432 67.000000
0.910415 2.953844 -0.828221 9.000000
2.172791 7.049630 0.128764 2.000000
0.980918 3.180624 -0.768433 12.000000
2.441158 7.910538 0.433865 1.000000
1.076229 3.485346 -0.709046 7.000000
2.459720 7.960835 0.728971 56.000000
1.180287 3.819977 -0.633247 7.000000
2.458549 7.952111 1.021996 12.000000
1.298316 4.196773 -0.539394 4.000000
2.465045 7.963288 1.320307 28.000000
1.440733 4.651381 -0.426017 3.000000
2.470472 7.975876 1.623021 63.000000
1.634866 5.274879 -0.289418 1.000000
2.480366 7.997954 1.933229 45.000000
1.872211 6.033224 -0.110264 2.000000
2.487993 8.012649 2.248102 67.000000
0.921930 2.956342 -0.829774 7.000000
2.203341 7.061092 0.129113 2.000000
0.996661 3.192062 -0.772032 13.000000
2.485432 7.955348 0.436796 1.000000
1.084268 3.470515 -0.706757 7.000000
2.506319 8.017288 0.734897 68.000000
1.186539 3.793210 -0.629492 7.000000
2.506454 8.007892 1.030284 12.000000
1.312957 4.192216 -0.539394 3.000000
2.507598 8.001759 1.328129 25.000000
1.456148 4.646578 -0.426017 3.000000
2.521209 8.040264 1.637905 68.000000
1.647288 5.250084 -0.288371 1.000000
2.526950 8.048741 1.947626 47.000000
1.892063 6.022836 -0.110194 2.000000
2.537959 8.073946 2.267772 67.000000
0.928172 2.940210 -0.826150 10.000000
2.234001 7.072426 0.129462 2.000000
1.006624 3.184847 -0.771132 12.000000
2.538479 8.026605 0.441192 1.000000
1.094007 3.459222 -0.705230 7.000000
2.551123 8.061679 0.739778 68.000000
1.198581 3.785278 -0.628867 7.000000
2.558369 8.074790 1.040033 12.000000
1.325184 4.180038 -0.538419 4.000000
2.553435 8.049442 1.337515 26.000000
1.471156 4.637668 -0.425669 3.000000
2.571825 8.102523 1.652406 66.000000
1.661978 5.232880 -0.287743 1.000000
2.575099 8.103017 1.962923 40.000000
1.903375 5.985705 -0.109636 2.000000
2.583702 8.120265 2.283302 72.000000
0.939019 2.938792 -0.826668 13.000000
2.240400 7.007445 0.128415 2.000000
1.016547 3.177602 -0.770232 12.000000
2.606670 8.143238 0.448101 1.000000
1.107273 3.459121 -0.705993 7.000000
2.598082 8.111546 0.745182 62.000000
1.209374 3.773547 -0.627615 7.000000
2.606546 8.128189 1.048076 13.000000
1.339768 4.175386 -0.538419 3.000000
2.606878 8.119476 1.350655 26.000000
1.482461 4.617329 -0.424274 1.000000
2.615707 8.142095 1.662328 66.000000
1.685126 5.242259 -0.288581 1.000000
2.627234 8.168185 1.980919 47.000000
1.920583 5.967604 -0.109427 2.000000
2.630390 8.168200 2.299349 62.000000
0.946893 2.928144 -0.824597 6.000000
2.245149 6.938698 0.127298 2.000000
1.024032 3.162910 -0.767533 12.000000
2.658468 8.206292 0.452078 1.000000
1.117525 3.449632 -0.704848 6.000000
2.648500 8.170658 0.751457 62.000000
1.221321 3.765545 -0.626989 7.000000
2.652671 8.173798 1.055145 12.000000
1.355558 4.174462 -0.538906 4.000000
2.658402 8.181716 1.362544 26.000000
1.497340 4.608336 -0.423926 3.000000
2.661713 8.187058 1.673395 68.000000
1.695996 5.213554 -0.287324 1.000000
2.676843 8.223820 1.996666 45.000000
1.948835 5.983679 -0.109845 2.000000
2.681627 8.228768 2.319019 62.000000
0.955907 2.921149 -0.823562 3.000000
2.276825 6.953624 0.127717 2.000000
1.032637 3.151909 -0.765733 12.000000
2.693321 8.215940 0.453125 1.000000
1.130784 3.449441 -0.705612 6.000000
2.700604 8.233302 0.758081 62.000000
1.235687 3.765013 -0.627615 7.000000
2.702247 8.228612 1.063432 12.000000
1.365165 4.154617 -0.536956 4.000000
2.706683 8.232438 1.372556 27.000000
1.513414 4.603082 -0.423926 3.000000
2.717886 8.261639 1.690568 60.000000
1.705444 5.181042 -0.285859 1.000000
2.725646 8.275508 2.011512 45.000000
1.962198 5.954050 -0.109427 2.000000
2.736351 8.298248 2.341277 61.000000
0.969135 2.926964 -0.826150 4.000000
2.296052 6.930449 0.127437 2.000000
1.044247 3.150135 -0.766183 14.000000
2.730789 8.233028 0.454590 1.000000
1.139110 3.434292 -0.703322 6.000000
2.751918 8.291901 0.764356 60.000000
1.247578 3.756927 -0.626989 7.000000
2.752238 8.283179 1.071719 12.000000
1.373395 4.130990 -0.534519 5.000000
2.757229 8.288544 1.383507 23.000000
1.524442 4.582646 -0.422531 3.000000
2.769031 8.319160 1.704306 60.000000
1.726042 5.182637 -0.286278 1.000000
2.774233 8.325104 2.025909 47.000000
1.976646 5.928194 -0.109078 2.000000
2.787308 8.354619 2.359912 61.000000
0.976890 2.916237 -0.824080 3.000000
2.325315 6.937559 0.127717 2.000000
1.056477 3.150165 -0.767083 13.000000
1.151713 3.432157 -0.703704 7.000000
2.799873 8.338906 0.769585 56.000000
1.263202 3.760039 -0.628241 7.000000
2.808959 8.356315 1.082444 12.000000
1.389074 4.129933 -0.535006 5.000000
2.806309 8.338778 1.393518 23.000000
1.541702 4.581074 -0.422880 3.000000
2.823112 8.383868 1.719571 60.000000
1.747950 5.187936 -0.286906 1.000000
2.826935 8.385541 2.043005 42.000000
1.989657 5.898520 -0.108659 2.000000
2.836226 8.403411 2.376477 68.000000
0.980244 2.892683 -0.818386 4.000000
2.330253 6.872587 0.126670 2.000000
1.067466 3.146458 -0.767083 13.000000
1.161795 3.422538 -0.702559 7.000000
2.850748 8.393226 0.775512 56.000000
1.268691 3.733163 -0.624486 7.000000
2.861120 8.414117 1.091218 13.000000
1.402204 4.121300 -0.534519 5.000000
2.860862 8.403731 1.406033 27.000000
1.553830 4.564348 -0.421834 3.000000
2.873248 8.435290 1.732164 57.000000
1.760895 5.166679 -0.286068 1.000000
2.883233 8.454934 2.062351 42.000000
2.003775 5.872614 -0.108310 2.000000
2.887390 8.457448 2.394594 59.000000
0.993467 2.898381 -0.820974 5.000000
2.354227 6.864411 0.126670 2.000000
1.074016 3.129810 -0.763934 14.000000
0.810744 2.361265 0.130840 7.000000
1.171821 3.412892 -0.701414 7.000000
2.907219 8.462363 0.782833 56.000000
