# This PCD file was generated using the MATLAB® pcwrite function
# from Computer Vision Toolbox®.
# .PCD v.7 - Point Cloud Data file format
VERSION .7
FIELDS x y z intensity
SIZE 4 4 4 4
TYPE F F F F
COUNT 1 1 1 1
WIDTH 1289
HEIGHT 1
VIEWPOINT 0 0 0 1 0 0 0
POINTS 1289
DATA ascii
2.876971 2.326403 -0.586004 7.000000
2.704730 2.186343 0.427030 91.000000
3.157509 2.551430 -0.498446 5.000000
2.683033 2.167254 0.546269 100.000000
3.464045 2.798127 -0.389586 3.000000
2.673052 2.158424 0.667832 100.000000
3.883782 3.134935 -0.261575 1.000000
8.671884 6.997326 2.572540 11.000000
4.392353 3.542919 -0.098501 2.000000
8.627725 6.956723 2.969690 15.000000
2.274590 1.829471 -0.782151 12.000000
5.102326 4.102380 0.114278 2.000000
2.453089 1.971629 -0.726592 9.000000
6.027057 4.842415 0.405185 1.000000
2.659953 2.137129 -0.663252 9.000000
2.715339 2.180851 0.304696 90.000000
2.872752 2.306452 -0.583501 7.000000
2.703057 2.169433 0.425568 96.000000
3.169491 2.542879 -0.498933 5.000000
2.690581 2.157876 0.546269 96.000000
3.476899 2.788512 -0.389935 3.000000
2.669848 2.140483 0.665160 83.000000
3.904050 3.128857 -0.262203 1.000000
8.522877 6.828113 2.521251 14.000000
4.382842 3.510064 -0.098013 2.000000
8.490590 6.797376 2.914303 13.000000
2.287000 1.826343 -0.784222 12.000000
5.116616 4.084543 0.114278 2.000000
2.453864 1.958192 -0.724792 10.000000
6.062658 4.836295 0.406441 1.000000
2.673536 2.132729 -0.664779 7.000000
2.730724 2.177570 0.305568 22.000000
2.890054 2.303797 -0.585378 7.000000
2.713718 2.162459 0.426055 93.000000
3.184559 2.536746 -0.499908 4.000000
2.710460 2.158314 0.548772 100.000000
3.489730 2.778840 -0.390283 3.000000
3.905572 3.107747 -0.261575 1.000000
8.363649 6.652745 2.467263 12.000000
4.424806 3.518391 -0.098676 4.000000
8.338834 6.628262 2.854257 15.000000
2.299417 1.823149 -0.786292 12.000000
5.149650 4.081562 0.114697 2.000000
2.463738 1.952036 -0.725692 9.000000
6.101423 4.832461 0.407906 1.000000
2.671731 2.116069 -0.662489 7.000000
2.904273 2.298601 -0.586629 7.000000
2.730591 2.160362 0.427518 91.000000
3.193395 2.525614 -0.499908 3.000000
2.713327 2.145167 0.547834 99.000000
3.511910 2.776530 -0.391678 3.000000
8.271362 6.537018 2.049289 17.000000
3.938337 3.111428 -0.263041 1.000000
8.224708 6.495490 2.419574 12.000000
4.435492 3.501684 -0.098641 2.000000
8.210273 6.479432 2.802493 14.000000
2.302730 1.812723 -0.785257 12.000000
5.176436 4.073455 0.114976 2.000000
2.473600 1.945833 -0.726592 9.000000
2.679101 2.106730 -0.662489 7.000000
7.432463 5.842475 0.827108 1.000000
2.916939 2.292110 -0.587568 7.000000
2.738116 2.150817 0.427518 91.000000
3.189701 2.504644 -0.497958 4.000000
2.709551 2.127617 0.545643 96.000000
3.505908 2.751951 -0.389935 3.000000
8.138133 6.385697 2.010745 14.000000
3.936602 3.087801 -0.262203 1.000000
8.092446 6.345293 2.374134 14.000000
4.434490 3.477086 -0.098362 2.000000
8.069028 6.324649 2.747105 16.000000
2.302955 1.799915 -0.783186 11.000000
5.183613 4.051342 0.114837 2.000000
2.483111 1.940019 -0.727492 9.000000
6.134173 4.790821 0.407906 1.000000
2.689532 2.099783 -0.663252 9.000000
7.449671 5.814041 0.826759 1.000000
2.907395 2.269055 -0.584126 7.000000
2.748362 2.144169 0.428005 96.000000
3.207381 2.501378 -0.499421 3.000000
2.724751 2.124218 0.547208 89.000000
3.512352 2.737245 -0.389586 3.000000
7.993570 6.229548 1.969912 18.000000
3.946819 3.074731 -0.262203 1.000000
7.971994 6.208263 2.332742 14.000000
4.440289 3.456671 -0.098222 2.000000
7.938592 6.177806 2.695342 17.000000
2.311964 1.794636 -0.784222 11.000000
5.210363 4.043029 0.115116 2.000000
2.489867 1.931340 -0.727492 10.000000
6.150860 4.769378 0.407906 1.000000
2.708893 2.100476 -0.666305 9.000000
7.468909 5.789306 0.826759 1.000000
2.916858 2.260103 -0.584439 7.000000
2.749553 2.129700 0.427030 91.000000
3.225511 2.497458 -0.500883 3.000000
2.741522 2.121948 0.549085 99.000000
3.537164 2.737779 -0.391329 3.000000
7.872413 6.091081 1.934803 18.000000
3.948049 3.053602 -0.261575 1.000000
7.854864 6.073121 2.292251 15.000000
4.461821 3.448488 -0.098432 2.000000
7.819466 6.041393 2.647719 19.000000
2.318215 1.786555 -0.784222 12.000000
5.211771 4.015055 0.114837 2.000000
2.490417 1.917881 -0.725692 9.000000
6.224447 4.791737 0.411675 1.000000
2.719321 2.093402 -0.667068 7.000000
7.498545 5.770492 0.827805 1.000000
2.937255 2.259543 -0.586942 7.000000
2.756971 2.120088 0.427030 91.000000
3.227913 2.481345 -0.499908 4.000000
2.759876 2.120792 0.551275 100.000000
3.546699 2.725416 -0.391329 3.000000
7.747277 5.951141 1.898931 19.000000
3.984030 3.059266 -0.263250 1.000000
7.733798 5.936501 2.250860 15.000000
4.489697 3.445065 -0.098781 2.000000
7.710214 5.914122 2.603720 17.000000
2.333642 1.785495 -0.787328 11.000000
5.238461 4.006556 0.115116 2.000000
2.497097 1.909175 -0.725692 10.000000
6.184007 4.726321 0.407906 1.000000
2.720371 2.079129 -0.665542 7.000000
7.534475 5.756376 0.829548 3.000000
2.949835 2.252873 -0.587881 7.000000
2.769088 2.114066 0.427761 83.000000
3.230243 2.465245 -0.498933 3.000000
2.756269 2.102757 0.549085 99.000000
3.556191 2.713018 -0.391329 3.000000
7.639991 5.826439 1.867638 19.000000
3.978801 3.033231 -0.262203 1.000000
7.608778 5.798436 2.208570 15.000000
4.501694 3.429373 -0.098781 2.000000
7.604784 5.791197 2.561274 18.000000
2.339860 1.777339 -0.787328 11.000000
5.239674 3.978572 0.114837 2.000000
2.509955 1.905161 -0.727492 9.000000
6.216377 4.716780 0.408953 1.000000
2.724484 2.067248 -0.664779 7.000000
7.532301 5.713182 0.827108 5.000000
2.959255 2.243757 -0.588194 7.000000
3.238830 2.453953 -0.498933 4.000000
2.757293 2.088353 0.547834 99.000000
3.578345 2.710212 -0.392724 3.000000
7.531933 5.702562 1.836346 19.000000
3.987773 3.018117 -0.262098 3.000000
7.504644 5.677781 2.172577 16.000000
4.491309 3.396750 -0.098292 2.000000
7.478558 5.653936 2.512098 20.000000
2.336795 1.762182 -0.784222 12.000000
5.266305 3.969887 0.115116 2.000000
2.522816 1.901078 -0.729291 9.000000
6.274281 4.726297 0.411675 1.000000
2.744228 2.067175 -0.667832 7.000000
7.520364 5.662886 0.823622 1.000000
2.963913 2.231036 -0.587568 6.000000
7.482097 5.629985 1.149715 6.000000
3.253721 2.447406 -0.499908 3.000000
2.772461 2.084651 0.549398 92.000000
3.565490 2.680940 -0.390283 3.000000
7.426244 5.581866 1.805817 20.000000
4.019042 3.019777 -0.263459 1.000000
7.399765 5.557921 2.136585 16.000000
4.525526 3.397861 -0.098781 2.000000
7.366915 5.529227 2.468098 20.000000
2.349118 1.758645 -0.786292 11.000000
5.280129 3.951480 0.115116 2.000000
2.520074 1.885257 -0.726592 9.000000
6.290741 4.704365 0.411675 1.000000
2.745139 2.052880 -0.666305 7.000000
7.310291 5.464820 0.798521 1.000000
2.959023 2.211218 -0.585065 6.000000
7.368116 5.504039 1.129241 6.000000
3.281332 2.450286 -0.502833 4.000000
2.787635 2.080869 0.550962 99.000000
3.581213 2.673246 -0.390981 3.000000
7.310364 5.454937 1.772997 20.000000
4.029559 3.005728 -0.263459 1.000000
7.287891 5.434209 2.098794 16.000000
4.537358 3.382045 -0.098781 2.000000
7.269989 5.416907 2.429276 21.000000
2.358344 1.752738 -0.787328 11.000000
5.287469 3.928256 0.114976 2.000000
2.526640 1.876448 -0.726592 10.000000
6.306308 4.683477 0.411675 1.000000
2.761746 2.050306 -0.668595 8.000000
7.220525 5.358531 0.786668 1.000000
2.981003 2.211467 -0.587881 7.000000
7.264509 5.387235 1.110474 4.000000
3.273916 2.426997 -0.500396 4.000000
2.799280 2.075143 0.551901 100.000000
3.612934 2.677336 -0.393421 4.000000
7.209467 5.340569 1.743994 21.000000
4.052865 3.001155 -0.264297 1.000000
7.184645 5.318298 2.063701 19.000000
4.558193 3.374117 -0.098990 2.000000
7.165229 5.301991 2.388382 21.000000
2.367557 1.746790 -0.788363 12.000000
5.268285 3.886955 0.114278 2.000000
2.542258 1.875000 -0.729291 9.000000
6.322619 4.661434 0.411675 1.000000
2.756243 2.031336 -0.665542 7.000000
7.112466 5.239933 0.772897 7.000000
2.991500 2.203913 -0.588507 7.000000
7.160856 5.273650 1.091949 4.000000
3.278750 2.413772 -0.499908 4.000000
2.803325 2.063017 0.551275 100.000000
3.612629 2.657623 -0.392375 3.000000
7.125926 5.242174 1.719571 23.000000
4.053141 2.980598 -0.263669 1.000000
7.082910 5.206724 2.029508 17.000000
4.579613 3.365289 -0.099199 2.000000
7.070036 5.193460 2.350595 21.000000
2.367103 1.734363 -0.786292 10.000000
5.314087 3.892172 0.114976 2.000000
2.548787 1.866115 -0.729291 10.000000
6.338849 4.639340 0.411675 1.000000
2.772469 2.029142 -0.667832 7.000000
7.057446 5.163377 0.765053 18.000000
2.999176 2.193457 -0.588507 7.000000
7.062234 5.163102 1.074156 5.000000
3.293567 2.406997 -0.500883 4.000000
2.805725 2.049722 0.550336 99.000000
3.605334 2.633876 -0.390632 3.000000
7.037951 5.139697 1.694002 21.000000
4.066749 2.968786 -0.263878 1.000000
7.000296 5.108447 2.000715 17.000000
4.581636 3.342215 -0.098990 2.000000
6.964810 5.078827 2.309701 22.000000
2.373143 1.726089 -0.786292 11.000000
5.343812 3.885362 0.115326 2.000000
2.561592 1.861789 -0.731091 9.000000
6.355006 4.617183 0.411675 1.000000
2.776359 2.017143 -0.667068 7.000000
6.969025 5.061441 0.753549 14.000000
3.010010 2.185296 -0.589132 7.000000
6.990247 5.073123 1.060507 5.000000
3.305161 2.397819 -0.501371 3.000000
2.816061 2.042236 0.550962 71.000000
3.617731 2.623615 -0.390981 3.000000
6.927101 5.021760 1.663091 22.000000
4.090025 2.963948 -0.264715 1.000000
6.901300 4.999382 1.967422 17.000000
4.602994 3.333238 -0.099199 2.000000
6.879215 4.979719 2.275537 22.000000
2.382286 1.720056 -0.787328 11.000000
5.347614 3.859662 0.115116 2.000000
2.555432 1.843713 -0.727492 9.000000
6.371083 4.594973 0.411675 1.000000
2.789752 2.012034 -0.668595 8.000000
6.888066 4.966005 0.742916 16.000000
3.011210 2.170155 -0.587881 7.000000
6.887113 4.961667 1.042227 5.000000
3.313511 2.386267 -0.501371 4.000000
3.636569 2.617954 -0.392027 3.000000
6.826666 4.912691 1.634852 22.000000
4.084131 2.937992 -0.263669 1.000000
6.819036 4.903584 1.939078 20.000000
4.637332 3.333491 -0.099688 2.000000
6.793011 4.881277 2.241373 22.000000
2.397697 1.718482 -0.790433 9.000000
5.367558 3.845628 0.115256 2.000000
2.558683 1.832514 -0.726592 9.000000
6.387085 4.572704 0.411675 1.000000
2.796759 2.002283 -0.668595 8.000000
6.800045 4.866560 0.731585 22.000000
3.031618 2.168828 -0.590384 7.000000
6.786520 4.853299 1.024434 5.000000
3.312132 2.367758 -0.499908 4.000000
6.783917 4.847865 1.320620 6.000000
3.652168 2.609881 -0.392724 3.000000
6.754313 4.824924 1.613481 24.000000
4.107366 2.933002 -0.264506 1.000000
6.726669 4.801631 1.908035 18.000000
4.626152 3.301021 -0.099199 2.000000
6.704634 4.782371 2.206691 22.000000
2.400533 1.707862 -0.789398 10.000000
5.416800 3.852367 0.116024 2.000000
2.574594 1.830346 -0.729291 9.000000
2.803732 1.992507 -0.668595 8.000000
6.721160 4.774717 0.721301 24.000000
3.032729 2.153657 -0.589132 7.000000
6.712775 4.765231 1.010785 5.000000
3.330090 2.363075 -0.501371 3.000000
6.683184 4.740722 1.297781 9.000000
3.667757 2.601726 -0.393421 3.000000
6.667017 4.727501 1.588676 25.000000
4.114319 2.916338 -0.264297 1.000000
6.635265 4.701511 1.877442 18.000000
4.657229 3.298721 -0.099618 2.000000
6.631417 4.695308 2.177186 26.000000
2.406479 1.699474 -0.789398 11.000000
5.410611 3.819595 0.115605 2.000000
2.577782 1.819101 -0.728392 9.000000
6.418851 4.528006 0.411675 1.000000
2.797834 1.973657 -0.665542 7.000000
6.635206 4.678888 0.710319 20.000000
3.062833 2.158990 -0.593512 7.000000
6.625513 4.668591 0.995185 6.000000
3.338319 2.351436 -0.501371 4.000000
6.591477 4.641166 1.276818 9.000000
3.670300 2.584318 -0.392724 3.000000
6.590362 4.638661 1.566542 25.000000
4.134275 2.908853 -0.264925 1.000000
6.559186 4.613295 1.851347 21.000000
4.671987 3.284746 -0.099688 2.000000
6.540290 4.596593 2.141986 23.000000
2.402906 1.684409 -0.786292 10.000000
5.443562 3.814457 0.116024 2.000000
2.600078 1.821272 -0.732891 9.000000
6.434618 4.505570 0.411675 1.000000
2.811140 1.968382 -0.667068 7.000000
6.540502 4.578010 0.698466 22.000000
3.060638 2.141491 -0.591635 7.000000
6.555553 4.585136 0.982267 7.000000
3.362775 2.351145 -0.503808 3.000000
6.526680 4.561550 1.261175 9.000000
3.672766 2.566926 -0.392027 3.000000
6.505122 4.544793 1.542500 23.000000
4.157504 2.903551 -0.265762 1.000000
6.488964 4.530135 1.827052 18.000000
4.660465 3.252397 -0.099199 2.000000
6.464402 4.509627 2.111964 26.000000
2.418285 1.682632 -0.789398 10.000000
5.469978 3.804566 0.116303 2.000000
2.593620 1.803284 -0.729291 9.000000
6.420785 4.462566 0.409791 1.000000
2.827666 1.965281 -0.669358 8.000000
6.461542 4.489215 0.688356 24.000000
3.064851 2.128540 -0.591009 7.000000
6.476940 4.496567 0.968130 7.000000
3.361177 2.332600 -0.502346 4.000000
6.451673 4.475684 1.243654 11.000000
3.698075 2.565446 -0.393770 3.000000
6.412855 4.447102 1.516932 25.000000
4.161048 2.884471 -0.265343 1.000000
6.411836 4.443078 1.800958 18.000000
4.681652 3.242942 -0.099409 2.000000
6.397513 4.429848 2.085046 23.000000
2.430502 1.678571 -0.791469 10.000000
5.509554 3.803627 0.116861 2.000000
2.599899 1.794220 -0.729291 9.000000
6.403444 4.417442 0.407697 1.000000
2.837741 1.957627 -0.670121 8.000000
6.411563 4.421391 0.681384 38.000000
3.072262 2.117830 -0.591009 7.000000
6.397792 4.408600 0.953993 7.000000
3.372568 2.323106 -0.502833 4.000000
6.385906 4.397124 1.228011 11.000000
3.707007 2.552522 -0.393770 3.000000
6.352332 4.372371 1.498996 23.000000
4.177672 2.874458 -0.265762 1.000000
6.332574 4.355515 1.774414 21.000000
4.716014 3.242440 -0.099898 2.000000
6.322187 4.345121 2.055541 23.000000
2.442721 1.674445 -0.793539 11.000000
5.522797 3.784373 0.116861 2.000000
2.606146 1.785133 -0.729291 9.000000
2.844558 1.947709 -0.670121 8.000000
6.348039 4.344969 0.673017 24.000000
3.082896 2.109323 -0.591635 7.000000
6.327940 4.327964 0.941319 7.000000
3.380656 2.311321 -0.502833 3.000000
6.295210 4.302355 1.207674 11.000000
3.722475 2.544062 -0.394467 3.000000
6.281640 4.291473 1.478770 24.000000
4.194278 2.864364 -0.266181 1.000000
6.252781 4.268557 1.747870 21.000000
4.714090 3.216939 -0.099618 2.000000
6.260711 4.270772 2.030694 23.000000
2.438967 1.659388 -0.790433 11.000000
5.526053 3.758323 0.116652 2.000000
2.625253 1.784792 -0.732891 9.000000
2.838349 1.928940 -0.667068 7.000000
6.257691 4.251127 0.661861 18.000000
3.100046 2.105208 -0.593512 7.000000
6.247747 4.241185 0.927182 7.000000
3.395275 2.303963 -0.503808 3.000000
6.228450 4.224911 1.192031 11.000000
3.728034 2.528817 -0.394118 3.000000
6.225084 4.221041 1.461979 24.000000
4.207558 2.851946 -0.266390 1.000000
6.204724 4.204075 1.730324 20.000000
4.765026 3.227379 -0.100456 2.000000
6.178001 4.182823 1.999118 25.000000
2.435139 1.644377 -0.787328 11.000000
5.525878 3.730061 0.116373 2.000000
2.631468 1.775617 -0.732891 9.000000
6.184424 4.171445 0.390950 1.000000
2.851576 1.923411 -0.668595 8.000000
6.183286 4.169112 0.652448 20.000000
3.097546 2.087750 -0.591635 7.000000
6.191724 4.171654 0.916701 9.000000
3.408235 2.295425 -0.504539 3.000000
6.157951 4.145779 1.175762 13.000000
3.743449 2.520240 -0.394816 3.000000
6.150200 4.138998 1.440990 23.000000
4.207545 2.830551 -0.265762 1.000000
6.127186 4.120406 1.704679 20.000000
4.779583 3.212956 -0.100526 2.000000
6.110788 4.106279 1.972719 25.000000
2.456625 1.647051 -0.792504 11.000000
5.548183 3.718397 0.116582 2.000000
2.637342 1.766880 -0.732891 9.000000
6.124489 4.103085 0.386344 1.000000
2.870988 1.922685 -0.671648 8.000000
6.122572 4.098710 0.644604 20.000000
3.104453 2.077466 -0.591635 7.000000
6.109825 4.087084 0.902564 9.000000
3.414177 2.283007 -0.504295 3.000000
6.110187 4.085787 1.164185 16.000000
3.755100 2.510026 -0.395164 3.000000
6.075742 4.059681 1.420382 22.000000
4.216907 2.816586 -0.265762 1.000000
6.075989 4.056780 1.686683 19.000000
4.786326 3.195705 -0.100456 2.000000
6.040102 4.031295 1.945802 25.000000
2.465575 1.640607 -0.793539 10.000000
5.543837 3.688899 0.116233 2.000000
2.643186 1.758125 -0.732891 9.000000
6.025679 4.006482 0.379226 4.000000
2.871141 1.908305 -0.670121 8.000000
6.062165 4.027695 0.636760 19.000000
3.104743 2.062788 -0.590384 7.000000
6.047279 4.016279 0.891352 9.000000
3.416769 2.268378 -0.503564 3.000000
6.027305 3.999987 1.145726 13.000000
3.760519 2.494699 -0.394816 3.000000
6.004100 3.983074 1.400538 22.000000
4.232882 2.807001 -0.266181 1.000000
5.991951 3.972007 1.659689 21.000000
4.797453 3.178977 -0.100456 2.000000
5.986494 3.965382 1.924061 21.000000
2.477449 1.636682 -0.795610 10.000000
5.630102 3.718009 0.117769 2.000000
2.649307 1.748887 -0.732891 9.000000
5.994615 3.955727 0.376400 10.000000
2.874176 1.896612 -0.669358 8.000000
6.000648 3.958201 0.628916 19.000000
3.121820 2.058461 -0.592261 7.000000
5.988332 3.947082 0.880628 9.000000
3.421352 2.254252 -0.503077 3.000000
5.971944 3.933286 1.132586 13.000000
3.792500 2.496898 -0.397256 3.000000
5.957293 3.922150 1.386418 21.000000
4.245992 2.794403 -0.266390 1.000000
5.939032 3.907153 1.641243 19.000000
4.811860 3.164412 -0.100526 2.000000
5.926042 3.895644 1.900250 21.000000
2.473737 1.621236 -0.792504 10.000000
5.643045 3.698335 0.117769 2.000000
2.661916 1.743901 -0.734690 9.000000
5.951579 3.897573 0.372841 13.000000
2.884394 1.888214 -0.670121 10.000000
5.935091 3.883816 0.620549 17.000000
3.122731 2.042681 -0.591009 7.000000
5.928980 3.878340 0.869903 10.000000
3.437507 2.247727 -0.504295 3.000000
5.901309 3.857298 1.116629 15.000000
3.781178 2.470566 -0.395164 3.000000
5.887802 3.845533 1.366956 21.000000
4.272929 2.789742 -0.267437 1.000000
5.871715 3.832107 1.618748 20.000000
4.812829 3.141038 -0.100316 2.000000
5.860324 3.823211 1.874885 20.000000
2.469664 1.606272 -0.789398 12.000000
5.656563 3.677626 0.117769 2.000000
2.665022 1.732010 -0.733790 9.000000
5.902179 3.834388 0.368864 18.000000
2.897552 1.882413 -0.671648 8.000000
5.868406 3.810987 0.612182 17.000000
3.134813 2.034995 -0.591948 7.000000
5.871550 3.810119 0.859423 10.000000
3.460711 2.244836 -0.506489 3.000000
5.845793 3.790506 1.103489 15.000000
3.779748 2.450849 -0.394118 3.000000
5.825403 3.775841 1.349401 20.000000
4.272584 2.768292 -0.266809 1.000000
5.829444 3.775568 1.603451 18.000000
4.834380 3.129898 -0.100526 2.000000
5.791583 3.748177 1.848486 22.000000
2.481749 1.601832 -0.791469 10.000000
5.669365 3.657860 0.117769 2.000000
2.674327 1.724808 -0.734690 9.000000
5.855097 3.774800 0.365096 16.000000
2.900806 1.870159 -0.670884 8.000000
5.814683 3.747308 0.605209 16.000000
3.143558 2.025109 -0.592261 7.000000
5.808042 3.740160 0.848211 10.000000
3.451833 2.221998 -0.504052 3.000000
5.789220 3.725181 1.090348 15.000000
3.805036 2.448421 -0.395861 3.000000
5.767549 3.709813 1.332992 20.000000
4.272141 2.746881 -0.266181 1.000000
5.768817 3.707783 1.583205 18.000000
4.855372 3.119488 -0.100735 2.000000
5.739611 3.686181 1.827780 18.000000
2.503592 1.603579 -0.796645 10.000000
5.682098 3.638049 0.117769 2.000000
2.673766 1.711260 -0.732891 9.000000
5.773380 3.695069 0.359234 16.000000
2.910624 1.862139 -0.671648 8.000000
5.752195 3.678685 0.597365 16.000000
3.163924 2.022635 -0.594764 7.000000
5.750807 3.674969 0.837974 10.000000
3.477970 2.221691 -0.506733 3.000000
5.739947 3.666619 1.078772 18.000000
3.813560 2.435123 -0.395861 3.000000
5.712613 3.646351 1.317345 19.000000
4.281703 2.731952 -0.266181 1.000000
5.699575 3.635226 1.560710 17.000000
4.882550 3.114122 -0.101084 2.000000
5.691532 3.628702 1.808628 21.000000
2.505914 1.592757 -0.795610 11.000000
5.618188 3.570915 0.116198 7.000000
2.679426 1.702384 -0.732891 9.000000
5.708687 3.625639 0.354419 16.000000
2.918764 1.853019 -0.672029 10.000000
5.706124 3.621217 0.591265 17.000000
3.170613 2.012132 -0.594764 7.000000
5.692560 3.611215 0.827737 11.000000
3.465202 2.197388 -0.503808 3.000000
5.669291 3.593679 1.063129 17.000000
3.845598 2.436727 -0.398302 3.000000
5.661656 3.587455 1.302844 19.000000
4.317736 2.734837 -0.267855 1.000000
5.644093 3.573566 1.542264 19.000000
4.883252 3.090644 -0.100875 2.000000
5.630700 3.562333 1.785334 19.000000
2.507914 1.582377 -0.794574 11.000000
5.666137 3.573685 0.116931 2.000000
2.691946 1.697179 -0.734690 9.000000
5.663858 3.569486 0.350860 16.000000
2.913266 1.836003 -0.669358 8.000000
5.648984 3.558734 0.584118 17.000000
3.190989 2.009474 -0.597267 7.000000
5.648012 3.555368 0.819450 11.000000
3.487972 2.194793 -0.506002 3.000000
5.618259 3.533902 1.051240 17.000000
3.847334 2.419045 -0.397604 3.000000
5.597692 3.519599 1.285290 19.000000
4.344167 2.730376 -0.268902 1.000000
5.593828 3.514449 1.525168 19.000000
4.910945 3.084214 -0.101224 2.000000
5.580927 3.503623 1.765664 21.000000
2.510423 1.571124 -0.793539 11.000000
5.634505 3.526301 0.116024 2.000000
2.707767 1.693972 -0.737390 9.000000
5.605160 3.505217 0.346464 19.000000
2.929965 1.831556 -0.671648 8.000000
5.592716 3.494717 0.576971 16.000000
3.183254 1.988348 -0.594451 7.000000
5.582940 3.487257 0.808238 13.000000
3.500664 2.185759 -0.506733 3.000000
5.570234 3.476615 1.039976 17.000000
3.859133 2.407712 -0.397953 3.000000
5.555582 3.464775 1.272696 18.000000
4.347365 2.710210 -0.268483 1.000000
5.552094 3.459910 1.510321 18.000000
4.914892 3.062823 -0.101084 2.000000
5.522614 3.440200 1.743405 20.000000
2.522456 1.566429 -0.795610 10.000000
5.562443 3.452895 0.114278 2.000000
2.713957 1.684037 -0.737390 9.000000
5.563055 3.451931 0.343115 15.000000
2.943014 1.825456 -0.673174 10.000000
5.540533 3.435278 0.570347 15.000000
3.191854 1.978264 -0.594764 7.000000
5.528187 3.424948 0.798488 11.000000
3.515023 2.177707 -0.507708 3.000000
5.511800 3.413469 1.026836 17.000000
3.870903 2.396323 -0.398302 3.000000
5.492517 3.398871 1.255523 20.000000
4.343210 2.686613 -0.267646 1.000000
5.479015 3.389197 1.487376 18.000000
4.949364 3.060373 -0.101573 2.000000
5.470501 3.381288 1.723217 20.000000
2.530926 1.560082 -0.796645 10.000000
5.512573 3.396667 0.113022 2.000000
2.712890 1.670939 -0.735590 9.000000
5.492846 3.383186 0.338090 19.000000
2.945707 1.813629 -0.672411 8.000000
5.494204 3.381381 0.564421 16.000000
3.210175 1.974913 -0.596954 7.000000
5.475258 3.367084 0.789226 11.000000
3.517151 2.162920 -0.506977 3.000000
5.469238 3.362070 1.016824 17.000000
3.885619 2.387645 -0.398999 1.000000
5.441861 3.342620 1.241403 16.000000
4.372519 2.684737 -0.268902 1.000000
5.435421 3.337361 1.472530 18.000000
4.956078 3.041850 -0.101503 2.000000
5.417464 3.323729 1.703029 20.000000
2.539380 1.553699 -0.797680 9.000000
5.438511 3.326200 0.111277 2.000000
2.715090 1.659901 -0.734690 9.000000
5.433045 3.320248 0.333694 15.000000
2.958721 1.807430 -0.673937 8.000000
5.444178 3.325750 0.558145 16.000000
3.209962 1.960139 -0.595703 6.000000
5.430480 3.314777 0.781183 13.000000
3.507734 2.140290 -0.504539 3.000000
5.410110 3.299755 1.003684 17.000000
3.900736 2.378215 -0.399696 3.000000
5.406554 3.294997 1.230718 16.000000
4.385276 2.671535 -0.269112 1.000000
5.383797 3.279840 1.455433 16.000000
4.953003 3.016210 -0.101224 2.000000
5.382828 3.276674 1.688535 20.000000
2.541756 1.542375 -0.796645 10.000000
5.436986 3.297948 0.110997 2.000000
2.734486 1.658023 -0.738289 9.000000
5.404184 3.275468 0.331182 16.000000
2.958609 1.792505 -0.672411 8.000000
5.386465 3.263447 0.550999 13.000000
3.227263 1.954501 -0.597580 6.000000
5.384855 3.259899 0.772895 14.000000
3.542729 2.143863 -0.508439 3.000000
5.354559 3.239009 0.991169 16.000000
3.902605 2.359779 -0.398999 3.000000
5.359789 3.239614 1.217361 18.000000
4.376234 2.644084 -0.267960 3.000000
5.325727 3.217760 1.436537 18.000000
5.025647 3.035254 -0.102481 2.000000
5.330302 3.217982 1.668348 16.000000
2.550702 1.535041 -0.797680 10.000000
5.327377 3.204810 0.108519 7.000000
2.753905 1.656024 -0.741889 9.000000
5.357388 3.221593 0.327623 16.000000
2.981675 1.792280 -0.676227 8.000000
5.335201 3.205713 0.544549 15.000000
3.227631 1.938592 -0.596328 6.000000
5.344007 3.208466 0.765340 14.000000
3.551893 2.132506 -0.508683 3.000000
5.309940 3.186752 0.980844 19.000000
3.903983 2.342045 -0.398302 3.000000
5.305399 3.181508 1.202478 15.000000
4.397428 2.635979 -0.268693 1.000000
5.293470 3.173099 1.424840 16.000000
5.019058 3.007413 -0.102131 2.000000
5.275210 3.159651 1.647642 16.000000
2.552461 1.524593 -0.796645 10.000000
5.307072 3.168672 0.107891 21.000000
2.740975 1.635896 -0.736940 7.000000
5.316591 3.173100 0.324483 16.000000
2.980858 1.778360 -0.674701 8.000000
5.294467 3.157387 0.539320 16.000000
3.234042 1.927877 -0.596328 6.000000
5.279583 3.146017 0.754615 15.000000
3.565765 2.124781 -0.509658 3.000000
5.266171 3.136776 0.970832 19.000000
3.925425 2.337240 -0.399696 3.000000
5.241689 3.119719 1.185687 17.000000
4.406146 2.621381 -0.268693 1.000000
5.262096 3.130617 1.413592 18.000000
5.046189 3.000977 -0.102481 2.000000
5.230859 3.109565 1.630560 18.000000
2.560827 1.518090 -0.797680 10.000000
5.272820 3.124551 0.106983 28.000000
2.751414 1.629777 -0.738289 9.000000
5.265767 3.117888 0.320715 16.000000
2.988428 1.769464 -0.675082 7.000000
5.253471 3.109370 0.534090 15.000000
3.252318 1.924184 -0.598518 7.000000
5.231894 3.094133 0.746328 15.000000
3.559491 2.104239 -0.507708 3.000000
5.226069 3.088227 0.961446 19.000000
3.943852 2.329602 -0.400742 3.000000
5.202985 3.073361 1.174620 17.000000
4.407935 2.602694 -0.268274 1.000000
5.199149 3.068648 1.393797 17.000000
5.084190 2.999601 -0.103039 2.000000
5.196754 3.064789 1.616584 15.000000
2.566373 1.508695 -0.797680 10.000000
5.233702 3.076739 0.105971 28.000000
2.762127 1.623124 -0.739639 9.000000
5.204289 3.057001 0.316319 16.000000
2.993201 1.757506 -0.674701 8.000000
5.215001 3.060848 0.529035 16.000000
3.255942 1.910249 -0.597893 7.000000
5.196434 3.048729 0.739747 15.000000
3.575375 2.096823 -0.508926 3.000000
5.178875 3.036000 0.950809 19.000000
3.976026 2.329922 -0.403182 3.000000
5.168475 3.027480 1.164317 16.000000
4.413997 2.584503 -0.268065 1.000000
5.156543 3.018070 1.379400 17.000000
5.067018 2.965672 -0.102481 2.000000
5.147391 3.011512 1.597949 19.000000
2.564949 1.495834 -0.795610 9.000000
5.182750 3.021281 0.104714 26.000000
2.761323 1.609065 -0.737839 7.000000
5.170061 3.012672 0.313597 18.000000
2.987442 1.740129 -0.672029 7.000000
5.163668 3.006536 0.522760 16.000000
3.279663 1.908809 -0.601021 6.000000
5.149234 2.995723 0.731460 15.000000
3.576173 2.079711 -0.507951 3.000000
5.126260 2.981160 0.939233 21.000000
3.966910 2.306017 -0.401439 3.000000
5.133181 2.982787 1.154013 16.000000
4.454080 2.587136 -0.269949 1.000000
5.116488 2.970699 1.365903 19.000000
5.030647 2.920858 -0.101538 4.000000
5.096052 2.957645 1.578796 19.000000
2.576843 1.490741 -0.797680 9.000000
5.133890 2.970030 0.103528 27.000000
2.783513 1.609655 -0.742338 7.000000
5.128671 2.964622 0.310457 16.000000
3.017297 1.743442 -0.677372 7.000000
5.115472 2.954611 0.516834 16.000000
3.270579 1.889032 -0.598205 6.000000
5.114442 2.952826 0.725123 15.000000
3.586488 2.069826 -0.508439 2.000000
5.080170 2.930675 0.928908 20.000000
3.957675 2.282204 -0.399696 3.000000
5.083517 2.931423 1.140656 16.000000
4.460903 2.571354 -0.269844 1.000000
5.067212 2.919665 1.350156 19.000000
5.054674 2.911266 -0.101817 6.000000
5.054445 2.909956 1.562749 19.000000
2.575071 1.478341 -0.795610 9.000000
5.078321 2.914269 0.102201 24.000000
2.775593 1.592171 -0.738739 7.000000
5.083543 2.914911 0.307107 22.000000
3.012842 1.727568 -0.675082 7.000000
5.071657 2.906916 0.511430 16.000000
3.277153 1.877603 -0.598205 6.000000
5.060982 2.898454 0.716104 17.000000
3.602305 2.062224 -0.509658 3.000000
5.057794 2.894281 0.922963 20.000000
3.982911 2.278268 -0.401439 3.000000
5.027256 2.875645 1.125773 16.000000
4.459449 2.549818 -0.269216 1.000000
5.041844 2.881651 1.340708 17.000000
5.059596 2.890629 -0.101713 2.000000
5.010889 2.861639 1.546185 16.000000
2.597261 1.478449 -0.800786 9.000000
5.036325 2.866848 0.101154 29.000000
2.777745 1.580546 -0.737839 7.000000
5.038133 2.865549 0.303758 18.000000
3.032808 1.724276 -0.678135 7.000000
5.045901 2.867636 0.507769 20.000000
3.285731 1.866555 -0.598518 6.000000
5.017562 2.850373 0.708548 17.000000
3.618113 2.054540 -0.510876 3.000000
5.014610 2.846381 0.913265 20.000000
4.001237 2.270250 -0.402485 3.000000
4.998486 2.834922 1.116996 16.000000
4.496564 2.549217 -0.270891 1.000000
4.994727 2.830487 1.325412 17.000000
5.055738 2.865061 -0.101433 2.000000
4.972101 2.816519 1.531174 19.000000
2.605770 1.471274 -0.801821 9.000000
5.008487 2.826745 0.100386 31.000000
2.797098 1.578014 -0.741439 7.000000
4.989451 2.813709 0.300199 18.000000
3.021707 1.704036 -0.674319 7.000000
4.998605 2.817718 0.502017 17.000000
3.297389 1.857983 -0.599457 6.000000
4.976087 2.802739 0.701236 17.000000
3.622159 2.039316 -0.510389 3.000000
4.966479 2.795041 0.902627 22.000000
4.009531 2.255570 -0.402485 3.000000
4.963861 2.792431 1.107074 18.000000
4.488027 2.523715 -0.269844 1.000000
4.945120 2.779613 1.309665 19.000000
4.972063 2.793618 -0.099549 2.000000
4.943651 2.776517 1.519268 17.000000
2.601031 1.456053 -0.798716 9.000000
4.962485 2.777991 0.099269 29.000000
2.802589 1.568241 -0.741439 7.000000
4.950436 2.768974 0.297268 20.000000
3.031359 1.694866 -0.675082 7.000000
4.953243 2.768275 0.496439 19.000000
3.317973 1.853593 -0.601960 6.000000
4.952913 2.766956 0.696605 17.000000
3.632722 2.028596 -0.510876 3.000000
4.926184 2.749768 0.893554 20.000000
4.024340 2.245443 -0.403182 1.000000
4.931200 2.750308 1.097533 18.000000
4.504223 2.511140 -0.270263 3.000000
4.902504 2.732063 1.295718 17.000000
4.894446 2.727572 -0.097803 2.000000
4.902683 2.731039 1.503739 19.000000
2.595712 1.441790 -0.795610 9.000000
4.926697 2.735412 0.098362 25.000000
2.814862 1.562230 -0.743238 7.000000
4.918155 2.728424 0.294756 22.000000
3.047264 1.690518 -0.677372 7.000000
4.904896 2.719949 0.490687 20.000000
3.318919 1.839706 -0.601021 5.000000
4.905241 2.717902 0.688562 17.000000
3.632834 2.012057 -0.509901 3.000000
4.890820 2.707678 0.885419 19.000000
4.035250 2.234014 -0.403531 3.000000
4.880170 2.700672 1.084177 16.000000
4.540488 2.511659 -0.271938 1.000000
4.874019 2.695044 1.285820 19.000000
4.886436 2.700796 -0.097454 2.000000
4.846238 2.677477 1.483551 19.000000
2.614266 1.440177 -0.799751 9.000000
4.874907 2.684437 0.097140 25.000000
2.816883 1.550518 -0.742338 7.000000
4.882153 2.686206 0.292035 19.000000
3.056587 1.681763 -0.678135 8.000000
4.875954 2.681687 0.486852 20.000000
3.330512 1.830967 -0.601960 6.000000
4.864248 2.673038 0.681493 17.000000
3.652015 2.006053 -0.511608 3.000000
4.853488 2.664923 0.876972 21.000000
4.046516 2.221835 -0.403880 3.000000
4.834493 2.653392 1.071965 18.000000
4.591254 2.518849 -0.274450 1.000000
4.838970 2.653655 1.274123 19.000000
4.836214 2.651042 -0.096267 2.000000
4.821671 2.641977 1.473198 17.000000
2.626059 1.434747 -0.801821 9.000000
4.845637 2.646318 0.096372 25.000000
2.815437 1.536940 -0.740539 7.000000
4.840657 2.641402 0.288999 21.000000
3.072780 1.676724 -0.680425 7.000000
4.836309 2.637938 0.481971 20.000000
3.342087 1.822166 -0.602898 6.000000
4.821258 2.627542 0.674181 17.000000
3.650279 1.988545 -0.510389 3.000000
4.819391 2.624346 0.869150 23.000000
4.054247 2.207696 -0.403880 3.000000
4.805791 2.615850 1.063569 22.000000
4.628088 2.518080 -0.276125 1.000000
4.798558 2.609746 1.261076 19.000000
4.810302 2.615042 -0.095569 6.000000
4.790125 2.602993 1.460775 17.000000
2.631051 1.425574 -0.801821 9.000000
4.814403 2.607483 0.095569 25.000000
2.831067 1.532668 -0.743238 7.000000
4.800662 2.597877 0.286068 21.000000
3.071706 1.662253 -0.678898 7.000000
4.803430 2.598288 0.477788 20.000000
3.336264 1.803911 -0.600708 6.000000
4.786740 2.587104 0.668088 17.000000
3.669424 1.982395 -0.512095 3.000000
4.779855 2.581225 0.860390 21.000000
4.068942 2.197316 -0.404577 3.000000
4.776883 2.578546 1.055174 21.000000
4.591150 2.477251 -0.273403 1.000000
4.754468 2.564301 1.247129 19.000000
4.778914 2.576412 -0.094767 20.000000
4.754967 2.562428 1.447316 19.000000
2.629204 1.412723 -0.799751 9.000000
4.782957 2.568901 0.094767 25.000000
2.839833 1.524621 -0.744138 7.000000
4.763499 2.557379 0.283347 22.000000
3.080950 1.653376 -0.679662 7.000000
4.768577 2.557961 0.473430 22.000000
3.351244 1.796922 -0.602273 5.000000
4.759000 2.550685 0.662969 19.000000
3.682976 1.973968 -0.513070 3.000000
4.741376 2.540171 0.851942 23.000000
4.073074 2.181219 -0.404228 3.000000
4.737391 2.535912 1.044489 21.000000
4.592726 2.457439 -0.272984 1.000000
4.723427 2.527373 1.236781 19.000000
4.752166 2.541687 -0.094068 22.000000
4.719142 2.522965 1.433858 21.000000
2.637284 1.405813 -0.800786 9.000000
4.740269 2.525756 0.093754 24.000000
2.848314 1.517028 -0.745038 7.000000
4.736696 2.522792 0.281253 22.000000
3.086416 1.643150 -0.679662 7.000000
4.722508 2.513119 0.468026 23.000000
3.364161 1.789511 -0.603524 5.000000
4.725367 2.512522 0.657120 19.000000
3.675480 1.954287 -0.511120 3.000000
4.709652 2.503115 0.844746 23.000000
4.076766 2.165832 -0.403880 3.000000
4.695491 2.493484 1.033422 22.000000
4.625546 2.455308 -0.274450 1.000000
4.688749 2.488857 1.225533 19.000000
4.723473 2.506233 -0.093335 26.000000
4.676283 2.480146 1.418329 21.000000
2.641931 1.397060 -0.800786 9.000000
4.700886 2.484791 0.092812 26.000000
2.853329 1.507574 -0.745038 7.000000
4.701323 2.482923 0.278637 22.000000
3.095605 1.634200 -0.680425 7.000000
4.686768 2.474190 0.463669 20.000000
3.366582 1.776500 -0.602898 5.000000
4.682754 2.469981 0.650051 17.000000
3.696327 1.948853 -0.513070 3.000000
4.681664 2.467318 0.838176 25.000000
4.112505 2.166445 -0.406669 3.000000
4.662475 2.455126 1.024263 24.000000
4.589904 2.415890 -0.271833 3.000000
4.664644 2.455228 1.216985 21.000000
4.684411 2.464589 -0.092393 24.000000
4.643876 2.442227 1.405905 21.000000
2.653878 1.390956 -0.802857 9.000000
4.667450 2.445272 0.091974 24.000000
2.858835 1.497106 -0.745038 7.000000
4.662615 2.440667 0.275811 26.000000
3.108532 1.626483 -0.681951 7.000000
4.662264 2.439444 0.460357 23.000000
3.373070 1.764150 -0.602898 5.000000
4.640758 2.426131 0.642983 19.000000
3.710483 1.938969 -0.514045 3.000000
4.648653 2.428193 0.830667 22.000000
4.106289 2.143979 -0.405274 3.000000
4.634892 2.418944 1.016249 25.000000
4.602269 2.400899 -0.272042 3.000000
4.623506 2.411978 1.203938 22.000000
4.656178 2.427985 -0.091660 26.000000
4.611682 2.403759 1.393482 22.000000
2.658959 1.381219 -0.802857 9.000000
4.630238 2.404190 0.091067 24.000000
2.860844 1.484822 -0.744138 7.000000
4.628561 2.402294 0.273298 26.000000
3.107220 1.612006 -0.680425 7.000000
4.635799 2.403997 0.456870 26.000000
3.372499 1.748138 -0.601647 6.000000
4.616131 2.391754 0.638352 22.000000
3.706988 1.919879 -0.512583 3.000000
4.602725 2.383788 0.820968 22.000000
4.120825 2.133296 -0.405971 3.000000
4.597972 2.379292 1.006327 27.000000
4.580464 2.369219 -0.270263 1.000000
4.582115 2.369059 1.190891 21.000000
4.618440 2.387840 -0.090753 26.000000
4.590868 2.372570 1.384682 26.000000
2.663764 1.371929 -0.802857 9.000000
4.609741 2.374174 0.090508 26.000000
2.872682 1.478895 -0.745938 7.000000
4.588968 2.361449 0.270472 22.000000
3.112828 1.601149 -0.680425 7.000000
4.594549 2.362293 0.451990 23.000000
3.406386 1.751397 -0.606653 6.000000
4.594022 2.361008 0.634208 27.000000
3.716866 1.909389 -0.513070 3.000000
4.572359 2.347855 0.814085 24.000000
4.135336 2.122539 -0.406669 3.000000
4.572651 2.346999 0.999076 22.000000
4.559865 2.339428 -0.268588 1.000000
4.550064 2.333397 1.180543 22.000000
4.576920 2.346164 -0.089775 31.000000
4.544105 2.328339 1.368118 22.000000
2.661417 1.359572 -0.800786 9.000000
4.571694 2.334425 0.089601 28.000000
2.891713 1.475945 -0.749537 7.000000
4.564754 2.329874 0.268588 21.000000
3.125116 1.594388 -0.681951 7.000000
4.549109 2.319890 0.446760 23.000000
3.387840 1.726936 -0.602273 6.000000
4.554481 2.320624 0.627627 19.000000
3.737659 1.903613 -0.515020 3.000000
4.548433 2.316545 0.808453 28.000000
4.142353 2.108813 -0.406669 3.000000
4.537073 2.308763 0.989536 27.000000
4.546638 2.312634 -0.267332 1.000000
4.519965 2.298071 1.170645 26.000000
4.556155 2.316471 -0.089217 30.000000
4.508745 2.291377 1.355177 22.000000
2.676487 1.355511 -0.803892 9.000000
4.533029 2.295760 0.088693 28.000000
2.882682 1.459307 -0.745938 7.000000
4.537217 2.295889 0.266495 26.000000
3.144677 1.590559 -0.685004 7.000000
4.528731 2.289613 0.443971 26.000000
3.411177 1.724605 -0.605401 5.000000
4.516087 2.282228 0.621290 19.000000
3.747494 1.892997 -0.515507 3.000000
4.517699 2.281066 0.801570 28.000000
4.192378 2.115885 -0.410852 1.000000
4.492125 2.267166 0.978087 27.000000
4.543584 2.292145 -0.266704 1.000000
4.492759 2.265522 1.161647 24.000000
4.523143 2.279851 -0.088414 35.000000
4.483936 2.259110 1.345341 24.000000
2.684420 1.348363 -0.804927 9.000000
4.503486 2.261079 0.087960 26.000000
2.880792 1.445739 -0.744138 7.000000
4.502357 2.258547 0.263983 26.000000
3.149934 1.580122 -0.685004 7.000000
4.498898 2.255827 0.440311 26.000000
3.413645 1.710916 -0.604776 6.000000
4.486753 2.247781 0.616171 25.000000
3.741655 1.873681 -0.513801 3.000000
4.483240 2.244061 0.794061 22.000000
4.196173 2.099458 -0.410504 1.000000
4.461382 2.232149 0.969691 30.000000
4.462242 2.231603 -0.261470 1.000000
4.458807 2.228912 1.150850 22.000000
4.488140 2.242599 -0.087576 37.000000
4.464143 2.229632 1.337059 24.000000
2.696261 1.341959 -0.806998 9.000000
4.475545 2.227528 0.087262 26.000000
2.899779 1.442619 -0.747737 7.000000
4.460140 2.217916 0.261052 27.000000
3.141641 1.561574 -0.681951 7.000000
4.476802 2.224253 0.437348 28.000000
3.419892 1.698394 -0.604776 6.000000
4.459014 2.214445 0.611297 25.000000
3.748173 1.860608 -0.513801 3.000000
4.446807 2.206448 0.786240 30.000000
4.239174 2.102502 -0.413990 1.000000
4.436115 2.199211 0.962441 28.000000
4.463232 2.211686 -0.261052 1.000000
4.423289 2.190932 1.139602 29.000000
4.460103 2.209167 -0.086878 37.000000
4.432080 2.194320 1.325154 24.000000
2.694000 1.329119 -0.804927 9.000000
4.446019 2.192533 0.086529 30.000000
2.908542 1.433704 -0.748637 7.000000
4.435608 2.186439 0.259168 27.000000
3.154116 1.554071 -0.683478 7.000000
4.423769 2.178682 0.431421 24.000000
3.425800 1.686447 -0.604776 5.000000
4.433259 2.181436 0.606666 27.000000
3.762092 1.850363 -0.514776 3.000000
4.413713 2.170859 0.779044 30.000000
4.203577 2.066594 -0.409806 1.000000
4.417333 2.170727 0.956716 30.000000
4.431487 2.176720 -0.258749 1.000000
4.395925 2.158300 1.130604 29.000000
4.431888 2.175957 -0.086180 39.000000
4.398088 2.158412 1.312730 25.000000
2.688210 1.314615 -0.801821 9.000000
4.419133 2.161087 0.085866 33.000000
2.920284 1.427475 -0.750437 7.000000
4.410913 2.155159 0.257284 26.000000
3.163050 1.544774 -0.684241 7.000000
4.399117 2.147497 0.428283 26.000000
3.450900 1.684610 -0.608217 6.000000
4.394083 2.144088 0.600328 24.000000
3.771775 1.839618 -0.515264 2.000000
4.385751 2.138127 0.772786 30.000000
4.214346 2.053654 -0.410155 1.000000
4.378622 2.133706 0.946794 28.000000
4.391995 2.139274 -0.256028 4.000000
4.376776 2.130916 1.123855 28.000000
4.401696 2.142099 -0.085447 46.000000
4.367377 2.124455 1.301342 27.000000
2.706461 1.312436 -0.805963 9.000000
4.387062 2.126460 0.085098 35.000000
2.918234 1.413873 -0.748637 7.000000
4.391446 2.126690 0.255713 29.000000
3.171690 1.535987 -0.685004 7.000000
4.373935 2.117270 0.425146 28.000000
3.437199 1.663089 -0.604776 5.000000
4.364014 2.110585 0.595210 25.000000
3.783536 1.829034 -0.515995 3.000000
4.361173 2.107336 0.767155 26.000000
4.268137 2.061459 -0.414687 1.000000
4.341847 2.097061 0.937254 28.000000
4.365262 2.107433 -0.254039 24.000000
4.342065 2.095300 1.113058 25.000000
4.371324 2.108476 -0.084714 39.000000
4.331262 2.088223 1.288401 28.000000
2.711253 1.302508 -0.805963 9.000000
4.351198 2.090350 0.084260 31.000000
2.923152 1.403678 -0.748637 7.000000
4.352026 2.088879 0.252992 32.000000
3.184378 1.527749 -0.686531 7.000000
4.347532 2.084855 0.421834 30.000000
3.457523 1.657310 -0.607279 5.000000
4.333762 2.077321 0.590091 30.000000
3.802429 1.821819 -0.517701 3.000000
4.331089 2.074181 0.760584 31.000000
4.253740 2.036226 -0.412595 1.000000
4.319397 2.066729 0.930766 28.000000
4.344128 2.077630 -0.252364 21.000000
4.307520 2.059198 1.102260 24.000000
4.353399 2.081131 -0.084225 35.000000
4.315865 2.062263 1.281672 28.000000
2.729737 1.299680 -0.810104 9.000000
4.320911 2.056343 0.083527 28.000000
2.931796 1.394629 -0.749537 7.000000
4.319972 2.054045 0.250689 30.000000
3.189692 1.516623 -0.686531 7.000000
4.316994 2.051708 0.418173 30.000000
3.470423 1.648622 -0.608530 6.000000
4.312656 2.047799 0.586192 30.000000
3.810874 1.808722 -0.517945 3.000000
4.297613 2.038820 0.753389 33.000000
4.235620 2.009410 -0.410155 3.000000
4.287559 2.033132 0.922371 30.000000
4.318867 2.047057 -0.250480 22.000000
4.282981 2.029133 1.094162 27.000000
4.317623 2.044619 -0.083388 36.000000
4.291965 2.031554 1.272354 25.000000
2.720280 1.283548 -0.805963 9.000000
4.300934 2.028452 0.083004 33.000000
2.943697 1.387711 -0.751337 7.000000
4.294594 2.023629 0.248805 30.000000
3.194966 1.505481 -0.686531 7.000000
4.282673 2.017099 0.414164 30.000000
3.481519 1.639022 -0.609469 6.000000
4.282058 2.014983 0.581073 26.000000
3.833331 1.803012 -0.520138 3.000000
4.274314 2.009517 0.748070 37.000000
4.240806 1.993764 -0.409981 4.000000
4.267977 2.005629 0.916646 33.000000
4.289832 2.014985 -0.248386 22.000000
4.263578 2.001745 1.087413 30.000000
4.288528 2.012546 -0.082690 36.000000
4.246561 1.991947 1.256825 25.000000
2.731744 1.277318 -0.808033 9.000000
4.269944 1.995647 0.082271 33.000000
2.948524 1.377427 -0.751337 7.000000
4.265090 1.992471 0.246712 28.000000
3.200202 1.494320 -0.686531 7.000000
4.249968 1.983600 0.410329 28.000000
3.478268 1.622683 -0.607904 5.000000
4.256681 1.984924 0.576686 28.000000
3.828806 1.784589 -0.518676 3.000000
4.239773 1.976139 0.740874 33.000000
4.238710 1.974743 -0.409109 4.000000
4.239357 1.974144 0.909014 33.000000
4.280542 1.992414 -0.247444 24.000000
4.236969 1.971233 1.078865 28.000000
4.266168 1.984818 -0.082131 38.000000
4.223363 1.964006 1.248025 30.000000
2.732680 1.266151 -0.806998 9.000000
4.236621 1.962982 0.081503 36.000000
2.942466 1.362727 -0.748637 7.000000
4.250269 1.967501 0.245456 28.000000
3.219652 1.489736 -0.689584 7.000000
4.231550 1.957043 0.407889 33.000000
3.483631 1.611139 -0.607904 6.000000
4.230807 1.955803 0.572298 28.000000
3.847317 1.777712 -0.520382 3.000000
4.221539 1.949731 0.736494 31.000000
4.223870 1.949913 -0.407017 1.000000
4.195971 1.937034 0.898329 33.000000
4.239974 1.956452 -0.244723 27.000000
4.208091 1.940847 1.069867 27.000000
4.244015 1.956518 -0.081573 38.000000
4.198611 1.934700 1.238708 30.000000
2.740375 1.258694 -0.808033 9.000000
4.214371 1.934831 0.080944 36.000000
2.947204 1.352448 -0.748637 7.000000
4.220465 1.936737 0.243362 31.000000
3.231713 1.482324 -0.691110 7.000000
4.212660 1.931376 0.405449 37.000000
3.494620 1.601439 -0.608843 7.000000
4.199708 1.923664 0.567180 31.000000
3.864328 1.769228 -0.521845 2.000000
4.199244 1.922565 0.731488 33.000000
4.190455 1.917657 -0.403182 1.000000
4.174141 1.909310 0.892223 33.000000
4.210450 1.925030 -0.242630 25.000000
4.174075 1.907516 1.059519 27.000000
4.212286 1.924978 -0.080840 35.000000
4.173374 1.906317 1.229391 33.000000
2.758819 1.255522 -0.812174 10.000000
4.193463 1.908419 0.080421 36.000000
2.955220 1.344282 -0.749537 7.000000
4.183564 1.902154 0.240850 31.000000
3.227931 1.466972 -0.689202 7.000000
4.188539 1.902650 0.402485 31.000000
3.507106 1.593108 -0.610094 6.000000
4.177143 1.896596 0.563280 31.000000
3.891866 1.766247 -0.524769 1.000000
4.160956 1.887493 0.723666 38.000000
4.178977 1.894791 -0.401439 1.000000
4.148264 1.880865 0.885354 33.000000
4.184066 1.896215 -0.240745 24.000000
4.143100 1.876778 1.050071 28.000000
4.171615 1.888820 -0.079932 40.000000
4.157124 1.881382 1.222661 34.000000
2.745573 1.237945 -0.806998 9.000000
4.171260 1.879892 0.079862 36.000000
2.974342 1.339844 -0.753136 7.000000
4.161368 1.873689 0.239175 30.000000
3.234821 1.456504 -0.689584 8.000000
4.149733 1.867576 0.398127 28.000000
3.527333 1.586727 -0.612597 6.000000
4.147856 1.864993 0.558405 31.000000
3.880207 1.743835 -0.522332 1.000000
4.135411 1.857661 0.718034 38.000000
4.109234 1.845902 -0.394118 3.000000
4.135430 1.856800 0.881156 34.000000
4.170943 1.871873 -0.239594 21.000000
4.119724 1.848022 1.042423 31.000000
4.151141 1.861243 -0.079408 40.000000
4.114630 1.844012 1.208167 30.000000
2.749878 1.228353 -0.806998 9.000000
4.143104 1.849829 0.079199 39.000000
2.989678 1.334219 -0.755836 7.000000
4.138700 1.846132 0.237501 31.000000
3.243472 1.446802 -0.690347 7.000000
4.116193 1.835229 0.394293 33.000000
3.520220 1.568777 -0.610407 6.000000
4.123515 1.836771 0.554262 30.000000
3.908033 1.739968 -0.525257 1.000000
4.112994 1.830365 0.713028 38.000000
4.097449 1.823447 -0.392375 1.000000
4.107803 1.827196 0.873905 37.000000
4.142777 1.841884 -0.237605 25.000000
4.095876 1.820178 1.034775 34.000000
4.132026 1.835379 -0.078920 42.000000
4.087494 1.814743 1.198332 30.000000
2.761216 1.221873 -0.809068 10.000000
4.105643 1.815945 0.078361 37.000000
2.976494 1.315894 -0.751337 7.000000
4.115572 1.819475 0.235826 34.000000
3.248503 1.435470 -0.690347 8.000000
4.093412 1.807973 0.391504 33.000000
3.522061 1.554883 -0.609782 6.000000
4.093579 1.806337 0.549387 30.000000
3.903184 1.721511 -0.523794 1.000000
4.090123 1.803962 0.708022 38.000000
4.056389 1.788236 -0.387843 1.000000
4.074632 1.795429 0.865510 37.000000
4.112624 1.811314 -0.235512 27.000000
4.080802 1.796446 1.029376 34.000000
4.116127 1.811997 -0.078501 42.000000
4.066966 1.789508 1.190568 31.000000
2.776080 1.216881 -0.812174 9.000000
4.091497 1.793488 0.077977 34.000000
2.984411 1.307581 -0.752236 7.000000
4.092626 1.792278 0.234151 36.000000
3.260688 1.427272 -0.691873 7.000000
4.085096 1.787284 0.390109 37.000000
3.532627 1.545571 -0.610720 6.000000
4.066808 1.778435 0.545000 33.000000
3.919785 1.713328 -0.525257 1.000000
4.069243 1.777810 0.703329 35.000000
4.058955 1.772469 -0.387494 1.000000
4.053576 1.770120 0.859785 39.000000
4.089320 1.784882 -0.233837 28.000000
4.045654 1.764982 1.019028 31.000000
4.087601 1.782431 -0.077838 40.000000
4.048394 1.764496 1.183321 31.000000
2.783643 1.209209 -0.813209 9.000000
4.066550 1.765655 0.077384 39.000000
2.999683 1.301811 -0.754936 7.000000
4.053049 1.758114 0.231534 33.000000
3.265402 1.416452 -0.691873 7.000000
4.054442 1.757875 0.386623 34.000000
3.534375 1.531658 -0.610094 6.000000
4.047489 1.753185 0.541587 34.000000
3.914812 1.694902 -0.523794 1.000000
4.044605 1.750257 0.698011 36.000000
4.037687 1.746429 -0.384880 4.000000
4.029097 1.742713 0.853298 36.000000
4.069860 1.759500 -0.232372 30.000000
4.021381 1.737708 1.011380 34.000000
4.049738 1.749125 -0.077000 40.000000
4.029698 1.739633 1.176074 34.000000
2.788057 1.198997 -0.813209 10.000000
4.041459 1.738020 0.076791 35.000000
3.000628 1.289793 -0.754036 7.000000
4.035306 1.733705 0.230174 31.000000
3.268768 1.403699 -0.691492 8.000000
4.024240 1.727287 0.383137 34.000000
3.554488 1.524925 -0.612597 6.000000
4.031693 1.729653 0.538663 37.000000
3.931651 1.685921 -0.525257 1.000000
4.016192 1.721343 0.692066 40.000000
4.012625 1.718985 -0.381916 16.000000
4.011996 1.717885 0.848337 34.000000
4.057920 1.736713 -0.231325 36.000000
4.002639 1.712228 1.005081 37.000000
4.030080 1.723966 -0.076511 40.000000
3.984233 1.703530 1.161062 30.000000
2.778006 1.183202 -0.809068 10.000000
4.016524 1.709879 0.076197 39.000000
3.012508 1.281839 -0.755836 9.000000
4.012226 1.706397 0.228499 33.000000
3.275455 1.393049 -0.691873 7.000000
3.995407 1.698419 0.379825 31.000000
3.557971 1.511737 -0.612285 6.000000
4.006943 1.701674 0.534519 27.000000
3.957904 1.680030 -0.527938 3.000000
3.998834 1.696583 0.687999 42.000000
4.000258 1.697187 -0.380173 19.000000
3.985434 1.690074 0.841468 39.000000
4.029019 1.707728 -0.229336 30.000000
3.978086 1.685323 0.997433 36.000000
4.014276 1.699826 -0.076092 40.000000
3.965544 1.678375 1.153815 31.000000
2.789239 1.176500 -0.811139 9.000000
3.994829 1.684196 0.075674 39.000000
3.015168 1.270558 -0.755386 9.000000
3.994229 1.682302 0.227138 30.000000
3.291154 1.386178 -0.694163 7.000000
3.984784 1.677505 0.378256 33.000000
3.561406 1.498541 -0.611972 6.000000
