# .PCD v0.7 - Point Cloud Data file format
VERSION 0.7
FIELDS x y z intensity
SIZE 4 4 4 4
TYPE F F F F
COUNT 1 1 1 1
WIDTH 854
HEIGHT 1
VIEWPOINT 0 0 0 1 0 0 0
POINTS 854
DATA ascii
2.1447654 0.67048514 -0.27591223 4
2.1432993 0.66182238 -0.27542472 4
2.1209126 0.64681065 -0.27225614 4
2.1192443 0.63862771 -0.27176866 4
2.1213503 0.63159692 -0.27176866 4
2.1394627 0.62967753 -0.35322908 3
2.1311605 0.62642694 -0.27274361 4
2.1264718 0.61779809 -0.3507261 3
2.1333344 0.61898339 -0.27274361 4
2.1240623 0.61589235 -0.19348574 5
2.1191208 0.60764855 -0.34916177 3
2.1278481 0.60934728 -0.27176866 4
2.14727 0.61450356 -0.19540317 5
2.1211245 0.60061735 -0.34916177 3
2.1222162 0.60012752 -0.27079371 4
2.1321452 0.60213155 -0.19383438 5
2.1308179 0.5953362 -0.35041323 3
2.1281226 0.59378231 -0.27128118 4
2.1322112 0.59452212 -0.19366007 5
2.1176484 0.58369583 -0.34791031 3
2.130182 0.58635068 -0.27128118 4
2.1304317 0.58601826 -0.19331144 5
2.1120481 0.57422781 -0.34665883 3
2.139879 0.58099139 -0.27225614 4
2.1363096 0.57962191 -0.19366007 5
2.1178555 0.56787443 -0.34728456 3
2.1284709 0.56992453 -0.27054995 4
2.13832 0.57216179 -0.19366007 5
2.1244502 0.5676561 -0.11524379 6
2.1198251 0.56047767 -0.34728456 3
2.1246896 0.56097049 -0.26981872 4
2.1480098 0.56672662 -0.19435729 5
2.1283505 0.56074518 -0.11534845 6
2.1254952 0.55444163 -0.34791031 3
2.1303802 0.55492288 -0.27030623 4
2.1345489 0.55521327 -0.1929628 5
2.130198 0.55368471 -0.11534845 6
2.1197648 0.54505271 -0.34665883 3
2.1342268 0.54797614 -0.27054995 4
2.1287546 0.54577917 -0.19226557 5
2.1417916 0.54872334 -0.11587181 6
2.1140883 0.53534061 -0.34540737 3
2.138051 0.54101044 -0.27079371 4
2.13451 0.53932065 -0.19261418 5
2.1321692 0.53793854 -0.11524379 6
2.1236107 0.52987009 -0.34665883 3
2.1284623 0.5302915 -0.26933128 4
2.1403391 0.5324561 -0.1929628 5
2.1340337 0.53049308 -0.11524379 6
2.1217017 0.52114016 -0.3460331 3
2.1187334 0.52001899 -0.26786885 4
2.1460552 0.5259307 -0.19331144 5
2.1359639 0.52266735 -0.11524379 6
2.1406031 0.52340662 -0.038465101 7
2.1271684 0.51540178 -0.34665883 3
2.1281636 0.51485765 -0.2688438 4
2.1322041 0.51544017 -0.19191694 5
2.1337123 0.51501763 -0.11503445 6
2.1287189 0.51302606 -0.038220771 7
2.1252608 0.50787663 -0.42474085 2
2.1212687 0.50614011 -0.34540737 3
2.1357415 0.50880539 -0.269575 4
2.13399 0.50799471 -0.19191694 5
2.1393833 0.50848955 -0.11524379 6
2.1441164 0.50882387 -0.038465101 7
2.1155539 0.49775752 -0.42245111 2
2.1191761 0.49782926 -0.34478158 3
2.1433022 0.50270754 -0.27030623 4
2.127991 0.49872449 -0.19121969 5
2.1333661 0.49919879 -0.11482509 6
2.1380031 0.49989027 -0.038325485 7
2.126842 0.4925842 -0.42435926 2
2.1169667 0.48990777 -0.34415585 3
2.1294844 0.49202162 -0.26835632 4
2.1413672 0.49398094 -0.19226557 5
2.1272252 0.49032655 -0.11440641 6
2.139735 0.49242464 -0.038325485 7
2.1188929 0.48334587 -0.42245111 2
2.126368 0.4842703 -0.34540737 3
2.1273174 0.48370555 -0.26786885 4
2.1468792 0.48775941 -0.19261418 5
2.1328192 0.48378223 -0.11461575 6
2.1375403 0.48406869 -0.038255677 7
2.1205673 0.47594604 -0.42245111 2
2.1319008 0.47770816 -0.3460331 3
2.1328673 0.47714403 -0.26835632 4
2.1330137 0.47678488 -0.19121969 5
2.142292 0.47807485 -0.11503445 6
2.1314096 0.4748643 -0.038116053 7
2.1360581 0.47237954 0.038185868 8
2.1183817 0.46769497 -0.4216879 2
2.1258388 0.46856317 -0.34478158 3
2.1345198 0.46969548 -0.26835632 4
2.1307733 0.46848115 -0.19087107 5
2.1439481 0.47059339 -0.11503445 6
2.1330543 0.46742183 -0.038116053 7
2.1298778 0.46322098 0.038046245 8
2.1276758 0.46196327 -0.42321438 2
2.1197391 0.45946643 -0.34353012 3
2.1439071 0.46392152 -0.26933128 4
2.1401851 0.46272516 -0.19156833 5
2.1338639 0.46057782 -0.11440641 6
2.1424923 0.46165758 -0.038255677 7
2.1373484 0.45703739 0.038150962 8
2.1331151 0.45535463 -0.42397761 2
2.1251943 0.45288721 -0.34415585 3
2.1260178 0.45267594 -0.26689389 4
2.1378894 0.45442262 -0.19121969 5
2.1354585 0.45312688 -0.11440641 6
2.1440115 0.45455074 -0.038255677 7
2.1388521 0.4499476 0.038150962 8
2.1269279 0.44666389 -0.42245111 2
2.1266844 0.44583672 -0.34415585 3
2.1197357 0.44399488 -0.26591894 4
2.1432853 0.4481456 -0.19156833 5
2.1369493 0.44604337 -0.11440641 6
2.1376767 0.44580483 -0.038116053 7
2.1501236 0.44487765 0.038325485 8
2.1207068 0.43802029 -0.42092466 2
2.1397593 0.44117576 -0.3460331 3
2.1329386 0.43899339 -0.26738134 4
2.1291471 0.43782571 -0.19017383 5
2.1423297 0.43975717 -0.11461575 6
2.1353016 0.43753892 -0.038046245 7
2.1359866 0.43418342 0.038046245 8
2.126071 0.4313952 -0.4216879 2
2.1296699 0.43135151 -0.34415585 3
2.1305668 0.43075803 -0.26689389 4
2.1306622 0.43039134 -0.19017383 5
2.1477675 0.43306533 -0.11482509 6
2.1446576 0.43166035 -0.038185868 7
2.1296449 0.42515931 0.037906628 8
2.160497 0.43053439 0.11545313 9
2.1275637 0.42397165 -0.4216879 2
2.1195381 0.42160213 -0.34227866 3
2.1417928 0.4252528 -0.26811257 4
2.1360602 0.42372611 -0.19052245 5
2.1375105 0.42323944 -0.11419707 6
2.1461513 0.42417088 -0.038185868 7
2.1350408 0.41849157 0.037976436 8
2.1404257 0.41877127 0.11430173 9
2.1328843 0.41729578 -0.42245111 2
2.1248744 0.41495866 -0.34290439 3
2.1315737 0.41549465 -0.26665017 4
2.1355705 0.41588688 -0.19034813 5
2.1350541 0.41501284 -0.11398773 6
2.1476188 0.4166773 -0.038185868 7
2.146307 0.41292572 0.038150962 8
2.1359904 0.41016674 0.11398773 9
2.126616 0.40836662 -0.42092466 2
2.1340699 0.40902674 -0.34415585 3
2.13886 0.4091709 -0.26738134 4
2.1467941 0.41030037 -0.19121969 5
2.1482606 0.40980348 -0.11461575 6
2.1412027 0.40768152 -0.038046245 7
2.1457703 0.4050597 0.038116053 8
2.1452599 0.40418786 0.11440641 9
2.1241698 0.40021431 -0.42016143 2
2.1354849 0.4015744 -0.34415585 3
2.1480796 0.40316656 -0.26835632 4
2.1364639 0.40060049 -0.19017383 5
2.145752 0.4015668 -0.11440641 6
2.1347501 0.39873669 -0.037906628 7
2.1353736 0.39538312 0.037906628 8
2.1446934 0.39633456 0.11430173 9
2.129415 0.39351112 -0.42092466 2
2.1213324 0.39125183 -0.3416529 3
2.1416647 0.39422786 -0.26738134 4
2.1280515 0.39133912 -0.18930228 5
2.1471405 0.39407372 -0.11440641 6
2.1400628 0.39200258 -0.037976436 7
2.1328056 0.38721189 0.03783682 8
2.15589 0.39062664 0.11482509 9
2.1307755 0.38607612 -0.42092466 2
2.1644256 0.39178202 0.19243988 10
2.1265731 0.38454708 -0.34227866 3
2.1508417 0.38816035 -0.26835632 4
2.1333263 0.38461488 -0.18965089 5
2.1406405 0.38516212 -0.11398773 6
2.1532271 0.38665101 -0.038185868 7
2.1361129 0.38011542 0.037871722 8
2.1316314 0.37893417 -0.49984124 1
2.1375093 0.37997904 0.11377838 9
2.139842 0.38000849 -0.42245111 2
2.1638184 0.38387576 0.19226557 10
2.1317928 0.37781149 -0.34290439 3
2.1443646 0.37926662 -0.26738134 4
2.1405418 0.37820625 -0.19017383 5
2.1380379 0.3769933 -0.11377838 6
2.1505587 0.37881511 -0.038116053 7
2.1432714 0.37406054 0.037976436 8
2.1213574 0.36985546 -0.49714181 1
2.1309524 0.37114409 0.1133597 9
2.1295507 0.37051702 -0.42016143 2
2.1572931 0.37495708 0.19156833 10
2.1330338 0.37074059 -0.34290439 3
2.1416988 0.37147549 -0.26689389 4
2.1477385 0.37175095 -0.19069678 5
2.1392763 0.36990166 -0.11377838 6
2.1380739 0.36892524 -0.037871722 7
2.1425929 0.36624035 0.03794153 8
2.1245568 0.36277574 -0.49759173 1
2.1381416 0.36471036 0.11367371 9
2.1307678 0.36345258 -0.42016143 2
2.142812 0.36512324 0.19017383 10
2.1382096 0.36395499 -0.34353012 3
2.1468964 0.36466259 -0.26738134 4
2.1371737 0.36262739 -0.18965089 5
2.1484313 0.36376613 -0.11419707 6
2.1354053 0.36079285 -0.037801914 7
2.1359694 0.35743836 0.037801914 8
2.1334982 0.35664311 -0.49939132 1
2.151221 0.35921979 0.11430173 9
2.1281502 0.35536733 -0.41939822 2
2.1362126 0.35632938 0.18947658 10
2.13557 0.35584018 -0.34290439 3
2.1559892 0.35846809 -0.26835632 4
2.1344955 0.35451162 -0.18930228 5
2.1536288 0.35691699 -0.11440641 6
2.1405973 0.3539907 -0.037871722 7
2.1332572 0.3493354 0.037732106 8
2.1231914 0.34730554 -0.49669194 1
2.150491 0.3513858 0.11419707 9
2.1371281 0.34920233 -0.42092466 2
2.1433423 0.34983474 0.18999951 10
2.1251013 0.34647569 -0.34102717 3
2.1747994 0.3541888 0.27054995 11
2.1572273 0.3509416 -0.26835632 4
2.13572 0.34705913 -0.18930228 5
2.1430323 0.34748071 -0.11377838 6
2.1457679 0.34715462 -0.03794153 7
2.1384125 0.34251878 0.037801914 8
2.1263149 0.34019938 -0.49714181 1
2.1457877 0.34293193 0.11388306 9
2.138334 0.3417407 -0.42092466 2
2.138648 0.34140813 0.18947658 10
2.1341009 0.34029925 -0.34227866 3
2.1348548 0.34003851 0.26543146 11
2.1407952 0.34060156 -0.26616266 4
2.1369185 0.3396014 -0.18930228 5
2.1402869 0.33937186 -0.11356904 6
2.1489418 0.33997533 -0.037976436 7
2.141571 0.33536106 0.03783682 8
2.1274893 0.33277655 -0.49714181 1
2.1311853 0.33297259 0.11304568 9
2.123996 0.3318494 -0.41787171 2
2.1477013 0.33516908 0.19017383 10
2.1352756 0.33284923 -0.34227866 3
2.153682 0.33533242 0.26762509 11
2.1380482 0.33251604 -0.26567519 4
2.1420283 0.33275217 -0.18965089 5
2.1414587 0.33189824 -0.11356904 6
2.1402345 0.33094355 -0.037801914 7
2.146682 0.32848895 0.037906628 8
2.1324906 0.3259365 -0.4980416 1
2.144181 0.32733932 0.11367371 9
2.1251416 0.32443267 -0.41787171 2
2.1350708 0.32556826 0.18895365 10
2.1403301 0.32598802 -0.34290439 3
2.1685767 0.3299019 0.26933128 11
2.1391957 0.32505128 -0.26567519 4
2.1352975 0.3240777 -0.18895365 5
2.1505034 0.32561764 -0.11398773 6
2.1374223 0.32287282 -0.037732106 7
2.1379268 0.3195152 0.037732106 8
2.1316881 0.31820351 -0.49759173 1
2.1512365 0.32073671 0.11398773 9
2.1379118 0.31875008 -0.42016143 2
2.1401355 0.31869981 0.18930228 10
2.1355934 0.31764349 -0.34196579 3
2.1677518 0.32203895 0.26908755 11
2.1540625 0.31962106 -0.26738134 4
2.1324737 0.31603736 -0.18860501 5
2.1555784 0.31869262 -0.11419707 6
2.1424928 0.31599382 -0.037801914 7
2.1350715 0.31147358 0.03766229 8
2.1289291 0.31019807 -0.49669194 1
2.1543195 0.31351364 0.11409239 9
2.1351259 0.31072041 -0.41939822 2
2.1372917 0.3106547 0.18895365 10
2.1288698 0.30905122 -0.34071434 3
2.1433234 0.31076753 0.26591894 11
2.155165 0.31210047 -0.26738134 4
2.1453953 0.31030342 -0.18965089 5
2.1467938 0.30974072 -0.11367371 6
2.1475413 0.3090834 -0.037871722 7
2.1381254 0.30430007 0.0376972 8
2.1280696 0.30249003 -0.49624202 1
2.1415586 0.30402711 0.1133597 9
2.1361973 0.30326602 -0.41939822 2
2.1442809 0.30403078 0.18947658 10
2.1338472 0.30217153 -0.34134007 3
2.156188 0.30495241 0.26738134 11
2.1424825 0.30263159 -0.26567519 4
2.1464655 0.30281213 -0.18965089 5
2.1419287 0.3014096 -0.1133597 6
2.1505876 0.30186364 -0.037906628 7
2.1391747 0.29683521 0.0376972 8
2.131043 0.29532778 -0.49669194 1
2.1406286 0.29627541 0.11325502 9
2.137243 0.29580685 -0.41939822 2
2.1512499 0.29736286 0.18999951 10
2.1388028 0.29526192 -0.34196579 3
2.1631391 0.29823688 0.26811257 11
2.1435258 0.2951515 -0.26567519 4
2.1663542 0.29790968 0.34634593 12
2.1475093 0.29531819 -0.18965089 5
2.1489038 0.29474574 -0.11367371 6
2.1397405 0.29272798 -0.0376972 7
2.1540692 0.29124227 0.03794153 8
2.1262672 0.2871044 -0.49534222 1
2.1456087 0.28933471 0.11346437 9
2.1343713 0.28781939 -0.41863495 2
2.138453 0.28799081 0.18877934 10
2.1398203 0.28779373 -0.34196579 3
2.1523626 0.28909817 0.26665017 11
2.1465104 0.2879318 -0.26591894 4
2.1399708 0.28667337 0.34196579 12
2.1406283 0.28676146 -0.18895365 5
2.1499195 0.28724331 -0.11367371 6
2.1447136 0.28578481 -0.037767008 7
2.1392124 0.28163272 0.03766229 8
2.1407809 0.2814602 -0.49849153 1
2.1565065 0.28314385 0.11398773 9
2.1412024 0.28113446 -0.41977981 2
2.1354942 0.28000584 0.18843071 10
2.1329772 0.27929819 -0.34071434 3
2.1454852 0.28055415 0.26567519 11
2.1534076 0.28120789 -0.26665017 4
2.1448758 0.27971202 0.34259152 12
2.1376646 0.27877161 -0.18860501 5
2.1509092 0.27973637 -0.11367371 6
2.1456983 0.27829707 -0.037767008 7
2.1322484 0.27314785 0.037522674 8
2.1224208 0.27151242 -0.49399251 1
2.1555009 0.27536085 0.11388306 9
2.1421709 0.27365798 -0.41977981 2
2.1404114 0.2730546 0.18877934 10
2.1300199 0.27135116 -0.34008855 3
2.1602359 0.27481633 0.26738134 11
2.154376 0.27368987 -0.26665017 4
2.145839 0.27222475 0.34259152 12
2.1465311 0.27231255 -0.18930228 5
2.1439466 0.27122435 -0.11325502 6
2.1545928 0.27180606 -0.037906628 7
2.139142 0.26644418 0.037627388 8
2.1252894 0.2643421 -0.49444243 1
2.1485207 0.26685187 0.11346437 9
2.1431129 0.26618022 -0.41977981 2
2.1413515 0.26558095 0.18877934 10
2.1348753 0.26439938 -0.34071434 3
2.1572416 0.26678821 0.26689389 11
2.1474378 0.26519424 -0.26567519 4
2.1546185 0.26569924 0.34384301 12
2.1435139 0.26432988 -0.18895365 5
2.1409156 0.26325086 -0.11304568 6
2.1515584 0.26379824 -0.03783682 7
2.1402864 0.25938255 -0.57768416 0
2.1499851 0.26017615 0.037801914 8
2.1339376 0.25785738 -0.49624202 1
2.1415074 0.2583929 0.11304568 9
2.1303852 0.2570509 -0.41710848 2
2.1501777 0.25905728 0.18947658 10
2.1397073 0.25741801 -0.34134007 3
2.160131 0.25949264 0.26713762 11
2.1444085 0.25722325 -0.26518771 4
2.145726 0.25700244 0.34227866 12
2.1483798 0.25732031 -0.18930228 5
2.145788 0.25624916 -0.11325502 6
2.1465092 0.25557646 -0.037732106 7
2.1258299 0.25010461 -0.57354301 0
2.1548522 0.25313783 0.037871722 8
2.134825 0.25040641 -0.49624202 1
2.1503315 0.25184482 0.11346437 9
2.1273699 0.24915558 -0.41634527 2
2.1451323 0.25085747 0.18895365 10
2.1445172 0.2504051 -0.34196579 3
2.1708822 0.25309959 0.26835632 11
2.1512084 0.25042638 -0.26591894 4
2.1407237 0.24882613 0.34134007 12
2.1413486 0.24889877 -0.18860501 5
2.1506374 0.24921869 -0.11346437 6
2.1454017 0.24785209 -0.0376972 7
2.1324482 0.24333908 -0.57509595 0
2.1418147 0.24402927 0.037627388 8
2.1395583 0.24339394 -0.49714181 1
2.1571078 0.24539034 0.11377838 9
2.1360292 0.2426149 -0.41787171 2
2.1400557 0.2426939 0.18843071 10
2.1336007 0.24158475 -0.34008855 3
2.1618898 0.24440575 0.26713762 11
2.154042 0.24313781 -0.26616266 4
2.1513515 0.24283411 0.34290439 12
2.1382446 0.24097572 -0.1882564 5
2.1594331 0.24260139 -0.11388306 6
2.1422374 0.24028993 -0.037627388 7
2.137125 0.23631804 -0.57613122 0
2.1406245 0.23670502 0.037592482 8
2.1326058 0.23544262 -0.49534222 1
2.1599364 0.23807842 0.11388306 9
2.1407661 0.23558623 -0.41863495 2
2.1448507 0.2356579 0.18877934 10
2.1343901 0.23450857 -0.34008855 3
2.1488757 0.23572057 0.26543146 11
2.1587834 0.23642506 -0.26665017 4
2.1502223 0.23510873 0.34259152 12
2.1469955 0.23437674 -0.18895365 5
2.1483128 0.23414014 -0.11325502 6
2.1649313 0.23518676 -0.038011342 7
2.1398177 0.22943617 -0.57664889 0
2.1454146 0.22965755 0.03766229 8
2.1295395 0.22758229 -0.49444243 1
2.1448665 0.22884168 0.11304568 9
2.147392 0.22911114 -0.41977981 2
2.1515641 0.22917649 0.18930228 10
2.1371603 0.22726506 -0.34040144 3
2.1457374 0.22779843 0.26494396 11
2.1477511 0.22763318 -0.26518771 4
2.1569231 0.22822462 0.34353012 12
2.1477609 0.22725518 -0.18895365 5
2.1451445 0.22622122 -0.11304568 6
2.1657391 0.22762875 -0.038011342 7
2.1406057 0.22196588 -0.57664889 0
2.146203 0.2221677 0.03766229 8
2.1380744 0.2209481 -0.49624202 1
2.1476388 0.2215587 0.11315035 9
2.1384144 0.22060707 -0.41787171 2
2.1483872 0.22125699 0.18895365 10
2.1477659 0.22081316 -0.34196579 3
2.1445446 0.22010481 0.26470023 11
2.1426084 0.21952821 -0.26445648 4
2.1498461 0.21988961 0.34227866 12
2.1525052 0.22016159 -0.18930228 5
2.1459212 0.21873133 -0.11304568 6
2.1506047 0.21845132 -0.037732106 7
2.1298339 0.21333657 -0.57354301 0
2.1569145 0.21566996 0.03783682 8
2.1388326 0.21348393 -0.49624202 1
2.1464119 0.21386212 0.11304568 9
2.1352644 0.2127514 -0.41710848 2
2.1471639 0.21355858 0.18877934 10
2.1445918 0.21292482 -0.34134007 3
2.1709805 0.21516217 0.26786885 11
2.1532388 0.21302436 -0.26567519 4
2.1466689 0.21199608 0.3416529 12
2.1453292 0.21186379 -0.18860501 5
2.1546223 0.21202217 -0.11346437 6
2.1473737 0.21055211 -0.03766229 7
2.1305654 0.20590122 -0.57354301 0
2.1457114 0.20698698 0.037627388 8
2.1415048 0.20620397 -0.49669194 1
2.1511214 0.20675105 0.11325502 9
2.1399024 0.20567276 -0.41787171 2
2.1478961 0.20606273 0.18877934 10
2.1374564 0.20468372 -0.34008855 3
2.1559095 0.20607211 0.26591894 11
2.1579213 0.2058844 -0.26616266 4
2.1532953 0.20506276 0.34259152 12
2.1381223 0.20361781 -0.18790779 5
2.1593258 0.2048776 -0.11367371 6
2.1520774 0.20343092 -0.037732106 7
2.127424 0.19810408 -0.57250774 0
2.1344743 0.19838485 0.037417959 8
2.1286285 0.19746783 -0.49354258 1
2.1577964 0.19979282 0.11356904 9
2.1445172 0.19856329 -0.41863495 2
2.1426504 0.19801331 0.1882564 10
2.1381578 0.19722283 -0.34008855 3
2.1585925 0.19872674 0.26616266 11
2.1606038 0.19853164 -0.26640642 4
2.1427879 0.19651851 -0.1882564 5
2.152072 0.19661145 -0.11325502 6
2.1647229 0.19700538 -0.03794153 7
2.143496 0.19205545 -0.57664889 0
2.1490958 0.19218014 0.03766229 8
2.1293046 0.19003578 -0.49354258 1
2.1465442 0.19119571 0.112941 9
2.1549747 0.19194664 -0.42054302 2
2.1572204 0.19176824 0.18947658 10
2.1427689 0.19010665 -0.34071434 3
2.1454318 0.18996449 0.26445648 11
2.1454647 0.18959109 -0.26445648 4
2.1513999 0.18973717 -0.18895365 5
2.1487658 0.18874906 -0.11304568 6
2.1653974 0.18944731 -0.03794153 7
2.1460779 0.18473923 -0.5771665 0
2.1577229 0.18536127 0.037801914 8
2.1338384 0.18293431 -0.49444243 1
2.1511786 0.18404372 0.11315035 9
2.1438951 0.18342058 -0.41825336 2
2.159862 0.18440589 0.18965089 10
2.1453876 0.18279296 -0.34102717 3
2.1460814 0.18247585 0.26445648 11
2.1441355 0.18193245 -0.26421279 4
2.1520493 0.18222566 -0.18895365 5
2.1533921 0.18158236 -0.11325502 6
2.1580746 0.18121967 -0.037801914 7
2.140934 0.17676944 -0.57561362 0
2.1583567 0.17782977 0.037801914 8
2.1422329 0.17612386 -0.49624202 1
2.1537983 0.17669632 0.11325502 9
2.1366951 0.17529319 -0.41672686 2
2.1505637 0.17605413 0.18877934 10
2.14995 0.17562515 -0.3416529 3
2.1744049 0.17724079 0.26786885 11
2.1625643 0.17589469 -0.26640642 4
2.1447284 0.17406824 -0.1882564 5
2.1540127 0.17406397 -0.11325502 6
2.1507213 0.17304341 -0.03766229 7
2.1280568 0.16822982 -0.57199007 0
2.1489971 0.16950783 0.037627388 8
2.1467199 0.1689502 -0.49714181 1
2.1563931 0.16933388 0.1133597 9
2.1333797 0.16752671 -0.41596362 2
2.1432197 0.16792308 0.18808208 10
2.1387341 0.16719507 -0.33977571 3
2.1611567 0.16856951 0.26616266 11
2.161186 0.16819231 -0.26616266 4
2.145323 0.16658011 -0.1882564 5
2.1625726 0.16716118 -0.11367371 6
2.163275 0.16645487 -0.037871722 7
2.1344104 0.16123651 -0.57354301 0
2.1376114 0.16110313 0.037417959 8
2.1414666 0.16101886 -0.49579209 1
2.1669297 0.16255209 0.11388306 9
2.137867 0.16037196 -0.41672686 2
2.1537273 0.16118376 0.18895365 10
2.1471841 0.16031826 -0.34102717 3
2.1498542 0.16013931 0.26470023 11
2.1637397 0.16079389 -0.26640642 4
2.1439044 0.15894367 -0.18808208 5
2.1571672 0.15916987 -0.1133597 6
2.1678314 0.15919597 -0.03794153 7
2.1388137 0.15406205 -0.57457829 0
2.1481333 0.15435754 0.037592482 8
2.132297 0.15284555 -0.49354258 1
2.1555307 0.15413183 0.11325502 9
2.1442888 0.15332796 -0.41787171 2
2.1542768 0.1536653 0.18895365 10
2.1477306 0.15282163 -0.34102717 3
2.1404998 0.15193063 0.26348156 11
2.1563673 0.15267973 -0.26543146 4
2.1504085 0.15188062 -0.18860501 5
2.1517327 0.15121938 -0.11304568 6
2.1843326 0.15274321 -0.038220771 7
2.147048 0.14712502 -0.57664889 0
2.1546443 0.14726672 0.0376972 8
2.1367064 0.14566603 -0.49444243 1
2.1480851 0.14606515 0.11283633 9
2.1330588 0.14504337 -0.41558203 2
2.1587758 0.14641359 0.18930228 10
2.1521926 0.14558978 -0.3416529 3
2.164784 0.14606202 0.26640642 11
2.1529257 0.1448845 -0.26494396 4
2.1549017 0.14463969 -0.18895365 5
2.160219 0.14423919 -0.11346437 6
2.1609089 0.14352766 -0.037801914 7
2.1551449 0.13974516 0.0376972 8
2.1488695 0.13896164 -0.49714181 1
2.1605406 0.13933773 0.11346437 9
2.1315925 0.13747083 -0.41520041 2
2.1473439 0.13811034 0.1882564 10
2.1526878 0.1380768 -0.3416529 3
2.1652806 0.13850509 0.26640642 11
2.1514375 0.13724156 -0.26470023 4
2.1454513 0.13648477 -0.18808208 5
2.1646957 0.13694938 -0.11367371 6
2.1574054 0.13573316 -0.037732106 7
2.151628 0.13197604 0.037627388 8
2.1454513 0.13122134 -0.49624202 1
2.1570265 0.13155247 0.11325502 9
2.1379383 0.13038832 -0.41634527 2
2.1478128 0.1306133 0.1882564 10
2.1452696 0.13008286 -0.34040144 3
2.1776397 0.13166529 0.26786885 11
2.1618109 0.13032854 -0.26591894 4
2.141937 0.12875524 -0.18773346 5
2.1651607 0.1293928 -0.11367371 6
2.1658506 0.12867537 -0.037871722 7
2.1420937 0.1238878 0.037452865 8
2.1420054 0.1235076 -0.49534222 1
2.1594665 0.12413629 0.1133597 9
2.1462204 0.12337484 -0.41787171 2
2.1522338 0.12334367 0.18860501 10
2.1417663 0.12236878 -0.33977571 3
2.1562853 0.12282076 0.26518771 11
2.1681983 0.1231197 -0.26665017 4
2.1463518 0.12150337 -0.18808208 5
2.1576226 0.12138589 -0.11325502 6
2.1702795 0.12133805 -0.03794153 7
2.1584871 0.11727811 0.037732106 8
2.1365857 0.11571313 -0.49399251 1
2.1578925 0.11648936 0.11325502 9
2.1505589 0.11609346 -0.41863495 2
2.1586201 0.11615185 0.18912795 10
2.1500707 0.11531448 -0.34102717 3
2.1448073 0.1146568 0.26372528 11
2.1567211 0.11491724 -0.26518771 4
2.1507421 0.11422122 -0.18843071 5
2.1540442 0.11364365 -0.11304568 6
2.174684 0.11397038 -0.038011342 7
2.1568861 0.10964077 0.0376972 8
2.1428154 0.10855059 -0.49534222 1
2.1503072 0.10855386 0.11283633 9
2.1372254 0.10789346 -0.41596362 2
2.1610024 0.10871568 0.18930228 10
2.15046 0.10780908 -0.34102717 3
2.1531253 0.10756597 0.26470023 11
2.1511612 0.1070915 -0.26445648 4
2.1511278 0.10671349 -0.18843071 5
2.1584175 0.10631988 -0.11325502 6
2.1670792 0.10598833 -0.037871722 7
2.1572559 0.10211162 0.0376972 8
2.1451278 0.10116234 -0.49579209 1
2.158653 0.10142159 0.11325502 9
2.1395504 0.10052408 -0.41634527 2
2.1494272 0.1006132 0.1882564 10
2.1587162 0.10067045 -0.34227866 3
2.1752999 0.10106231 0.26738134 11
2.1614368 0.10004022 -0.26567519 4
2.1475065 0.099020906 -0.18808208 5
2.1667562 0.099149585 -0.11367371 6
2.1714313 0.098604009 -0.03794153 7
2.1536038 0.094405055 0.037627388 8
2.1649799 0.09414766 0.11356904 9
2.1379266 0.092971206 -0.41596362 2
2.1497653 0.093109109 0.1882564 10
2.1491868 0.092708282 -0.34071434 3
2.179606 0.093640395 0.26786885 11
2.1617727 0.09249524 -0.26567519 4
2.1498296 0.09160836 -0.1882564 5
2.1630981 0.091417372 -0.11346437 6
2.1657686 0.090771914 -0.03783682 7
2.149924 0.08672522 0.03755758 8
2.1633 0.086509526 0.11346437 9
2.1421616 0.085664213 -0.41672686 2
2.1580408 0.085920952 0.18895365 10
2.1416018 0.08489313 -0.33946282 3
2.1640511 0.085404754 0.26591894 11
2.1720002 0.085337773 -0.26689389 4
2.1481454 0.084026076 -0.18808208 5
2.153425 0.083478779 -0.112941 6
2.1660724 0.083212905 -0.03783682 7
2.1542101 0.0793688 0.037627388 8
2.1515994 0.078895561 0.11283633 9
2.1483335 0.078400381 -0.41787171 2
2.1623096 0.078533575 0.18930228 10
2.1557038 0.077915914 -0.3416529 3
2.1484656 0.07727886 0.26396903 11
2.1583982 0.07725998 -0.26518771 4
2.1563904 0.076810263 -0.18877934 5
2.1596913 0.076174103 -0.11325502 6
2.1703331 0.076169178 -0.037906628 7
2.1584587 0.072358139 0.0376972 8
2.1518617 0.071384035 0.11283633 9
2.1427073 0.070707016 -0.41672686 2
2.1625705 0.070984654 0.18930228 10
2.153976 0.070702545 -0.34134007 3
2.1566584 0.070037022 -0.26494396 4
2.158637 0.069345988 -0.18895365 5
2.1679173 0.069266416 -0.11367371 6
2.1665885 0.068465933 -0.03783682 7
2.1666934 0.065062784 0.03783682 8
2.1640761 0.06422919 0.11346437 9
2.1390052 0.063485093 -0.41596362 2
2.1508446 0.063459754 0.1882564 10
2.1621077 0.063415438 -0.34259152 3
2.1648269 0.062737897 -0.26591894 4
2.1489074 0.061526883 -0.18808208 5
2.1681459 0.061697975 -0.11367371 6
2.1628165 0.060791824 -0.037767008 7
2.1549132 0.057181407 0.037627388 8
2.1722734 0.056883316 0.11388306 9
2.1411862 0.055695325 -0.41634527 2
2.1450875 0.055422187 0.18773346 10
2.1524522 0.055236563 -0.34102717 3
2.1650326 0.055181313 -0.26591894 4
2.1511009 0.054074921 -0.1882564 5
2.1763439 0.053949364 -0.11409239 6
2.1670136 0.053339656 -0.03783682 7
2.1531091 0.049236599 0.037592482 8
2.1684654 0.04921015 0.11367371 9
2.1394048 0.048177101 -0.41596362 2
2.1532357 0.048111554 0.18843071 10
2.1467071 0.047591869 -0.34008855 3
2.1771278 0.047504969 -0.26738134 4
2.1612365 0.046781886 -0.18912795 5
2.1645384 0.046096455 -0.11346437 6
2.1791821 0.046028864 -0.038046245 7
2.1572592 0.042174969 0.03766229 8
2.1606362 0.041486543 0.11325502 9
2.1593668 0.040708184 0.18895365 10
2.1567283 0.04065844 -0.3416529 3
2.1574261 0.0399183 -0.26494396 4
2.1653705 0.039309226 -0.18947658 5
2.1606851 0.038846958 -0.11325502 6
2.1753306 0.038350742 -0.037976436 7
2.165391 0.034773357 0.037801914 8
2.1547766 0.033849571 0.112941 9
2.1674583 0.033671461 0.18965089 10
2.156857 0.033129234 -0.3416529 3
2.1575522 0.032387685 -0.26494396 4
2.1734579 0.032246009 -0.19017383 5
2.1687961 0.031420708 -0.11367371 6
2.1714525 0.030700073 -0.037906628 7
2.1654992 0.027213942 0.037801914 8
2.1628702 0.02642585 0.1133597 9
2.1595938 0.026008867 0.18895365 10
2.1628852 0.025672011 -0.34259152 3
2.1616223 0.024901386 -0.26543146 4
2.157619 0.024478666 -0.18877934 5
2.1609037 0.023761583 -0.11325502 6
2.1715465 0.023120558 -0.037906628 7
2.1535833 0.019546336 0.037592482 8
2.1669436 0.018910144 0.11356904 9
2.1536942 0.018419653 0.18843071 10
2.1570356 0.018071754 -0.3416529 3
2.1736059 0.017451843 -0.26689389 4
2.1537068 0.016916178 -0.18843071 5
2.1769512 0.016338851 -0.11409239 6
2.1716139 0.015539726 -0.037906628 7
2.1536384 0.012028236 0.037592482 8
2.1729882 0.01137885 0.11388306 9
2.1637075 0.010951594 0.18930228 10
2.1531351 0.010522303 -0.34102717 3
2.1736536 0.0098638562 -0.26689389 4
2.1617222 0.009432436 -0.18912795 5
2.1650116 0.0086910892 -0.11346437 6
2.1836526 0.0080047594 -0.038116053 7
2.1576667 0.0045183632 0.03766229 8
2.1570365 0.0037651672 0.11304568 9
2.1657248 0.0034013316 0.18947658 10
2.1630354 0.0030206402 -0.34259152 3
2.1617646 0.0022632808 -0.26543146 4
2.1697116 0.0018939719 -0.18982521 5
2.1570396 0.0011289782 -0.11304568 6
2.1876669 0.00038245754 -0.038185868 7
2.1636684 -0.0030210528 0.037767008 8
2.161031 -0.0037717142 0.11325502 9
2.1677158 -0.0041617206 0.18965089 10
2.1597741 -0.0052773342 -0.26518771 4
2.1776743 -0.0057011503 -0.19052245 5
2.1650195 -0.0064237611 -0.11346437 6
2.1836555 -0.0072413022 -0.038116053 7
2.1696439 -0.010602964 0.037871722 8
2.1669962 -0.01134647 0.11356904 9
2.161711 -0.011696097 0.18912795 10
2.1637125 -0.01283988 -0.26567519 4
2.1537328 -0.013156569 -0.18843071 5
2.1689782 -0.014006846 -0.11367371 6
2.1796176 -0.014836416 -0.038046245 7
2.1615951 -0.018109359 0.037732106 8
2.1769295 -0.018997775 0.11409239 9
2.1576724 -0.019206336 0.18877934 10
2.1775494 -0.020523528 -0.26738134 4
2.1536739 -0.020674421 -0.18843071 5
2.1769047 -0.021657383 -0.11409239 6
2.1795528 -0.022444611 -0.038046245 7
2.159519 -0.025630891 0.0376972 8
2.1768501 -0.026596563 0.11409239 9
2.163569 -0.026811967 0.18930228 10
2.1774645 -0.028124467 -0.26738134 4
2.1655419 -0.028348496 -0.18947658 5
2.1648335 -0.029095026 -0.11346437 6
2.179461 -0.030052532 -0.038046245 7
2.1594164 -0.033168864 0.0376972 8
2.1667588 -0.034038164 0.11356904 9
2.1674464 -0.034427356 0.18965089 10
2.1654441 -0.035529673 -0.26591894 4
2.1733983 -0.036039609 -0.19017383 5
2.1607246 -0.0365839 -0.11325502 6
2.1833415 -0.037729185 -0.038116053 7
2.167285 -0.040857196 0.03783682 8
2.1626329 -0.041524675 0.1133597 9
2.1613371 -0.041877154 0.18912795 10
2.165307 -0.043088265 -0.26591894 4
2.1692753 -0.043545995 -0.18982521 5
2.1685712 -0.044289146 -0.11367371 6
2.1751995 -0.045184121 -0.037976436 7
2.1691282 -0.04846685 0.037871722 8
2.1684654 -0.049209356 0.11367371 9
2.1532102 -0.049239177 0.18843071 10
2.1691101 -0.051117916 -0.18982521 5
2.1684034 -0.051858604 -0.11367371 6
2.1790268 -0.052873727 -0.038046245 7
2.1609497 -0.055831637 0.037732106 8
2.1682804 -0.05677842 0.11367371 9
2.1569684 -0.058365852 -0.18877934 5
2.1722023 -0.059536867 -0.11388306 6
2.1868246 -0.060701571 -0.038185868 7
2.1627405 -0.063433044 0.037767008 8
2.1760542 -0.064583778 0.11409239 9
2.1687005 -0.066259786 -0.18982521 5
2.163996 -0.06687215 -0.11346437 6
2.1945941 -0.068584494 -0.038325485 7
2.1685016 -0.071178839 0.037871722 8
2.1658347 -0.071848139 0.11356904 9
2.1724381 -0.073965147 -0.19017383 5
2.1637495 -0.074425496 -0.11346437 6
2.1943414 -0.076244645 -0.038325485 7
2.1742353 -0.078965619 0.037976436 8
2.1675668 -0.079481058 0.11367371 9
2.1880949 -0.082145892 -0.19156833 5
2.1714597 -0.082280427 -0.11388306 6
2.1820724 -0.08344537 -0.038116053 7
2.1819386 -0.086872853 0.038116053 8
2.1672761 -0.087046802 0.11367371 9
2.1738594 -0.089211389 -0.19034813 5
2.1751502 -0.090024918 -0.11409239 6
2.177772 -0.090894938 -0.038046245 7
2.1696355 -0.093969554 0.037906628 8
2.1749403 -0.094959944 0.11409239 9
2.1867943 -0.098154411 -0.11472043 6
2.1854322 -0.098857671 -0.038185868 7
2.1652992 -0.1013554 0.03783682 8
2.190556 -0.10330401 0.11492977 9
2.1744688 -0.10520802 -0.11409239 6
2.1689267 -0.10911405 0.037906628 8
2.1782138 -0.11034355 0.11430173 9
2.16611 -0.11238376 -0.11367371 6
2.1926765 -0.11452957 -0.038325485 7
2.1765196 -0.11711413 0.038046245 8
2.1758416 -0.1174585 0.11419707 9
2.1736813 -0.12038598 -0.11409239 6
2.1922846 -0.12180011 -0.038325485 7
2.1841049 -0.12478734 0.038185868 8
2.1734462 -0.12455894 0.11409239 9
2.1852331 -0.12829587 -0.11472043 6
2.1798913 -0.12836403 -0.038116053 7
2.1697066 -0.13118461 0.03794153 8
2.1809726 -0.13262986 0.11451109 9
2.1947627 -0.13615999 -0.11524379 6
2.1914048 -0.13671958 -0.038325485 7
2.1652446 -0.1385022 0.037871722 8
2.1884687 -0.14075482 0.11492977 9
2.194905 -0.14463116 -0.038395293 7
2.1747236 -0.14673255 0.038046245 8
2.1700299 -0.14717682 0.11398773 9
2.1983764 -0.1525688 -0.038465101 7
2.1801822 -0.15474761 0.038150962 8
2.1754794 -0.15517704 0.11430173 9
2.189853 -0.15966 -0.038325485 7
2.1815946 -0.16288622 0.038185868 8
2.180871 -0.16359775 0.11461575 9
2.1892531 -0.16768517 -0.038325485 7
2.1710446 -0.16972117 0.038011342 8
2.192641 -0.17564541 -0.038395293 7
2.170439 -0.1772985 0.038011342 8
2.1778092 -0.18517262 0.038150962 8
2.1831253 -0.19330259 0.038255677 8
2.1944196 -0.20163886 0.038465101 8
2.1757507 -0.207968 0.038150962 8
2.1690416 -0.21496986 0.038046245 8
2.1782241 -0.22356072 0.038220771 8
