# .PCD v0.7 - Point Cloud Data file format
VERSION 0.7
FIELDS x y z intensity
SIZE 4 4 4 4
TYPE F F F F
COUNT 1 1 1 1
WIDTH 1346
HEIGHT 1
VIEWPOINT 0 0 0 1 0 0 0
POINTS 1346
DATA ascii
1.4871618 0.47032824 -0.027225753 7
1.4225857 0.44581148 -0.18304777 4
1.4373996 0.45017841 -0.13177948 5
1.4734752 0.46091226 -0.080911398 6
1.4849772 0.46394116 -0.027155945 7
1.4075758 0.43625569 -0.23340026 3
1.4279257 0.44201735 -0.18353525 4
1.437059 0.44456902 -0.13160518 5
1.4788915 0.45694554 -0.081120737 6
1.4904093 0.4599337 -0.027225753 7
1.4949534 0.45876548 0.027295565 8
1.4090898 0.43134066 -0.23340026 3
1.4332566 0.43819061 -0.18402272 4
1.4405073 0.44013321 -0.13177948 5
1.469016 0.44828242 -0.080492713 6
1.4881005 0.45382321 -0.027155945 7
1.5079485 0.45728698 0.027504994 8
1.4124032 0.42723709 -0.23371312 3
1.4233005 0.42999047 -0.18256028 4
1.43822 0.43395075 -0.13143085 5
1.4685823 0.44283152 -0.080388032 6
1.5011643 0.45208544 -0.027365373 7
1.5133665 0.45316875 0.027574802 8
1.4063151 0.4200426 -0.23246165 3
1.4171834 0.4227508 -0.18158534 4
1.4472888 0.43145549 -0.1321281 5
1.4758615 0.43941331 -0.080702052 6
1.4950663 0.44456244 -0.027225753 7
1.5206921 0.4495838 0.027679518 8
1.4115624 0.41624817 -0.23308739 3
1.422459 0.41892251 -0.18207282 4
1.4411407 0.42415038 -0.13143085 5
1.4773864 0.43425852 -0.080702052 6
1.488934 0.43708822 -0.027086135 7
1.5049756 0.43923098 0.027365373 8
1.4016265 0.40800667 -0.23121016 3
1.4315374 0.41617161 -0.18304777 4
1.4349592 0.41689482 -0.13073361 5
1.4750571 0.42798537 -0.080492713 6
1.4981334 0.43411404 -0.027225753 7
1.5007352 0.43231395 0.027260659 8
1.4011437 0.40256572 -0.23089729 3
1.4367975 0.4122667 -0.18353525 4
1.4517274 0.41627637 -0.1321281 5
1.4688617 0.42063475 -0.08007402 6
1.503485 0.42998198 -0.027295565 7
1.5041586 0.42761922 0.027295565 8
1.4006399 0.39713386 -0.23058443 3
1.422948 0.40292177 -0.18158534 4
1.4570057 0.41229168 -0.13247673 5
1.4683992 0.41496137 -0.079969354 6
1.5011275 0.42364523 -0.027225753 7
1.5152689 0.42506695 0.027470089 8
1.4065109 0.3940284 -0.2839238 2
1.4058223 0.39330634 -0.23121016 3
1.4243457 0.39795259 -0.18158534 4
1.4584363 0.40720287 -0.13247673 5
1.4736863 0.41090634 -0.080178693 6
1.4968181 0.41679311 -0.027121039 7
1.5186707 0.4203088 0.027504994 8
1.3889546 0.38388658 -0.28010762 2
1.4128993 0.38997301 -0.23214878 3
1.4275711 0.39375523 -0.18182908 4
1.444482 0.39787635 -0.13108224 5
1.4751118 0.4057593 -0.080178693 6
1.4981921 0.41182679 -0.027121039 7
1.5065532 0.41158104 0.027260659 8
1.3807499 0.3766945 -0.27819952 2
1.4046549 0.38269022 -0.23058443 3
1.438446 0.391626 -0.18304777 4
1.4419479 0.39203966 -0.13073361 5
1.484159 0.40295902 -0.080597378 6
1.4976194 0.40633297 -0.027086135 7
1.5117711 0.40762436 0.027330469 8
1.3819914 0.37211397 -0.27819952 2
1.4059163 0.37802973 -0.23058443 3
1.4378873 0.38608736 -0.18280403 4
1.447089 0.38828811 -0.13108224 5
1.4700536 0.39389932 -0.079760008 6
1.5067556 0.40317073 -0.027225753 7
1.5131845 0.40234509 0.027330469 8
1.55588 0.41311526 0.084365569 9
1.379487 0.36627966 -0.27743632 2
1.4072274 0.37311947 -0.23058443 3
1.43155 0.37903446 -0.18182908 4
1.4522877 0.38425329 -0.13143085 5
1.4675574 0.3877461 -0.079550661 6
1.5081538 0.3979083 -0.027225753 7
1.5242517 0.39959577 0.027504994 8
1.5495131 0.40592924 0.083946884 9
1.3807571 0.36146241 -0.27743632 2
1.4142548 0.36970347 -0.23152302 3
1.4309437 0.37353337 -0.18158534 4
1.457476 0.38018689 -0.13177948 5
1.4727675 0.3836275 -0.079760008 6
1.5055948 0.39189702 -0.027155945 7
1.5158885 0.39203513 0.027330469 8
1.5489867 0.4000189 0.08384221 9
1.3782085 0.35565895 -0.27667305 2
1.4135599 0.3645193 -0.23121016 3
1.4379418 0.37027076 -0.18231656 4
1.4549347 0.37410572 -0.13143085 5
1.4779006 0.3797352 -0.079969354 6
1.5030793 0.38564622 -0.027086135 7
1.5172474 0.38674232 0.027330469 8
1.5638529 0.39833054 0.084574915 9
1.3793803 0.35108697 -0.27667305 2
1.4109949 0.35860932 -0.23058443 3
1.437301 0.36476186 -0.18207282 4
1.4484423 0.36731949 -0.13073361 5
1.4869614 0.37653619 -0.080388032 6
1.5082272 0.3816404 -0.027155945 7
1.5088248 0.37927094 0.027155945 8
1.5574852 0.39092392 0.084156223 9
1.3882145 0.34818062 -0.27819952 2
1.4083439 0.35296813 -0.22995868 3
1.4423543 0.360957 -0.18256028 4
1.4535818 0.36322689 -0.13108224 5
1.4785131 0.36918348 -0.079864673 6
1.5095505 0.37637296 -0.027155945 7
1.5160283 0.37517905 0.027260659 8
1.547207 0.38260922 0.083528191 9
1.3913274 0.34380335 -0.27858114 2
1.413464 0.34875068 -0.23058443 3
1.4340304 0.35329342 -0.18134159 4
1.462579 0.36005679 -0.13177948 5
1.4759774 0.36280808 -0.079655334 6
1.5186228 0.37300968 -0.027295565 7
1.5211495 0.37109783 0.027330469 8
1.3726401 0.33461386 -0.32617903 1
1.5446522 0.37626034 0.083318852 9
1.3810738 0.33615842 -0.27629143 2
1.4146128 0.34406114 -0.23058443 3
1.4313362 0.34759876 -0.18085413 4
1.4599545 0.35400984 -0.13143085 5
1.4810547 0.35885179 -0.079864673 6
1.5082536 0.36488542 -0.027086135 7
1.5243798 0.36625326 0.027365373 8
1.3643254 0.32754543 -0.32392952 1
1.5537246 0.37273017 0.083737537 9
1.3764533 0.33020374 -0.27514657 2
1.4234895 0.34096131 -0.23183592 3
1.4421937 0.34490997 -0.18207282 4
1.457245 0.34823996 -0.13108224 5
1.4900692 0.35553426 -0.080283366 6
1.5056278 0.35869116 -0.027016325 7
1.527595 0.36138991 0.027400278 8
1.363564 0.32233304 -0.32347962 1
1.5569602 0.36776313 0.08384221 9
1.3852403 0.32720187 -0.27667305 2
1.4092897 0.33236316 -0.22933295 3
1.4433889 0.33987328 -0.18207282 4
1.4506937 0.34132612 -0.13038498 5
1.4913009 0.35033107 -0.080283366 6
1.5146581 0.35526022 -0.027155945 7
1.5171618 0.35333428 0.027190849 8
1.3703749 0.31889671 -0.32482934 1
1.5640706 0.36368269 0.084156223 9
1.3921111 0.3236981 -0.2778179 2
1.4142897 0.32833484 -0.22995868 3
1.440699 0.33393666 -0.18158534 4
1.4557586 0.33715886 -0.13073361 5
1.4808393 0.34242386 -0.079655334 6
1.515889 0.34997052 -0.027155945 7
1.518386 0.34803584 0.027190849 8
1.3695801 0.31367582 -0.32437941 1
1.5497551 0.35465679 0.083318852 9
1.3913186 0.31839907 -0.27743632 2
1.4192787 0.32427636 -0.23058443 3
1.4418559 0.32890528 -0.18158534 4
1.4646968 0.33384666 -0.13143085 5
1.4781307 0.33636597 -0.079445995 6
1.5249014 0.3464494 -0.027295565 7
1.5332464 0.34581363 0.027435182 8
1.3649635 0.30760822 -0.32302973 1
1.5470867 0.34836704 0.083109505 9
1.3885909 0.31267756 -0.27667305 2
1.4242564 0.320187 -0.23121016 3
1.4313737 0.32126153 -0.1801229 4
1.4697413 0.32960415 -0.13177948 5
1.4909899 0.33382207 -0.08007402 6
1.5104892 0.33763421 -0.027016325 7
1.540301 0.34175855 0.027539898 8
1.366029 0.30284137 -0.32302973 1
1.5580431 0.34512538 0.083632864 9
1.3877571 0.30740497 -0.27629143 2
1.5776483 0.34917855 0.14136662 10
1.4253656 0.31521311 -0.23121016 3
1.444117 0.31883124 -0.18158534 4
1.4631006 0.32275462 -0.13108224 5
1.496047 0.32947496 -0.080283366 6
1.5116584 0.33235985 -0.027016325 7
1.5278087 0.33339506 0.027295565 8
1.3670778 0.29807147 -0.32302973 1
1.5689361 0.34208378 0.084156223 9
1.3869034 0.30214065 -0.27590984 2
1.5788577 0.343669 0.14136662 10
1.418736 0.3085568 -0.22995868 3
1.4529806 0.31547272 -0.18256028 4
1.4564297 0.31595618 -0.13038498 5
1.5010922 0.32509586 -0.080492713 6
1.52057 0.32903722 -0.027155945 7
1.5269506 0.32790729 0.027260659 8
1.3604372 0.29190141 -0.32123011 1
1.5681679 0.33618599 0.084051557 9
1.391789 0.2981196 -0.27667305 2
1.5761509 0.3373228 0.14101799 10
1.4158882 0.30302387 -0.22933295 3
1.4540188 0.31065303 -0.18256028 4
1.4653181 0.3125324 -0.13108224 5
1.4904414 0.31761891 -0.079864673 6
1.5177975 0.32289481 -0.027086135 7
1.5300424 0.3229886 0.027295565 8
1.3614478 0.28715047 -0.32123011 1
1.5615146 0.32906225 0.083632864 9
1.4004543 0.29512158 -0.27819952 2
1.5909085 0.33496732 0.14223817 10
1.4208034 0.29889259 -0.22995868 3
1.4453806 0.30353609 -0.18134159 4
1.4702462 0.30849004 -0.13143085 5
1.4895861 0.31200522 -0.079760008 6
1.5228302 0.3184129 -0.027155945 7
1.5389925 0.31927013 0.027435182 8
1.3662581 0.28318769 -0.32212991 1
1.5528747 0.32158551 0.083109505 9
1.3937858 0.28863972 -0.27667305 2
1.5940191 0.32981521 0.14241248 10
1.429576 0.2955305 -0.23121016 3
1.4444873 0.29808733 -0.18109787 4
1.4752169 0.30416036 -0.13177948 5
1.4965351 0.3080112 -0.08007402 6
1.5200146 0.31229144 -0.027086135 7
1.5440164 0.31469592 0.027504994 8
1.3653289 0.27802762 -0.32168001 1
1.5618166 0.31775534 0.083528191 9
1.3909374 0.28298959 -0.27590984 2
1.5873507 0.32266185 0.14171523 10
1.4325348 0.29093197 -0.23152302 3
1.4513556 0.29422686 -0.18182908 4
1.4645532 0.29663625 -0.13073361 5
1.4995589 0.30318084 -0.080178693 6
1.513255 0.30540091 -0.026946515 7
1.3543555 0.2713649 -0.37011126 0
1.5313798 0.30655631 0.027260659 8
1.3873109 0.27746364 -0.32662892 1
1.5707504 0.31386742 0.083946884 9
1.395767 0.27890226 -0.27667305 2
1.5767443 0.31477901 0.14066936 10
1.4257929 0.28438383 -0.23027156 3
1.4582143 0.29032201 -0.18256028 4
1.4655797 0.29152182 -0.13073361 5
1.5045258 0.29872349 -0.080388032 6
1.530004 0.30322716 -0.027225753 7
1.3647722 0.26849988 -0.37269944 0
1.5304785 0.30082285 0.027225753 8
1.3825344 0.27149311 -0.32527924 1
1.5698766 0.30799764 0.08384221 9
1.3967321 0.27402803 -0.27667305 2
1.5856543 0.31080574 0.14136662 10
1.420961 0.27826655 -0.22933295 3
1.4533744 0.2840873 -0.18182908 4
1.4744102 0.28793198 -0.13143085 5
1.4977181 0.29194105 -0.079969354 6
1.5271275 0.29712039 -0.027155945 7
1.3638043 0.26336762 -0.3721818 0
1.5315192 0.29547897 0.027225753 8
1.373906 0.26482165 -0.32302973 1
1.5630972 0.30100477 0.083423525 9
1.401536 0.26989299 -0.27743632 2
1.5945556 0.30677485 0.14206386 10
1.4277434 0.27442366 -0.23027156 3
1.4504578 0.27826464 -0.18134159 4
1.4793198 0.28353399 -0.13177948 5
1.4908812 0.28521046 -0.079550661 6
1.5320839 0.29253757 -0.027225753 7
1.357123 0.25716704 -0.37011126 0
1.5502245 0.29347843 0.027539898 8
1.384396 0.26183528 -0.32527924 1
1.5661008 0.29591784 0.083528191 9
1.3986112 0.26427034 -0.27667305 2
1.5995324 0.30194569 0.14241248 10
1.4325749 0.27017 -0.23089729 3
1.4494697 0.2728323 -0.18109787 4
1.4763843 0.27763164 -0.13143085 5
1.5075716 0.28295156 -0.080388032 6
1.5291646 0.28645179 -0.027155945 7
1.3504151 0.25101635 -0.36804068 0
1.5433751 0.28660527 0.027400278 8
1.3929657 0.2584227 -0.32707885 1
1.5671242 0.29044965 0.083528191 9
1.3956643 0.2586714 -0.27590984 2
1.5888221 0.2941843 0.14136662 10
1.4393365 0.26624596 -0.23183592 3
1.4582216 0.26921293 -0.18207282 4
1.4695071 0.27103123 -0.13073361 5
1.5026574 0.27660233 -0.08007402 6
1.5222881 0.27966654 -0.027016325 7
1.3588853 0.24768694 -0.37011126 0
1.5423989 0.2808575 0.027365373 8
1.391942 0.25320962 -0.32662892 1
1.5759888 0.2864064 0.083946884 9
1.4042853 0.2552025 -0.27743632 2
1.5898393 0.28863609 0.14136662 10
1.4344261 0.26016214 -0.23089729 3
1.4630592 0.26482788 -0.18256028 4
1.4626019 0.26448151 -0.13003637 5
1.5114758 0.27277458 -0.080492713 6
1.531127 0.27576995 -0.027155945 7
1.3559381 0.24226211 -0.36907598 0
1.5354955 0.27406666 0.027225753 8
1.387062 0.24732336 -0.32527924 1
1.5789453 0.28125325 0.084051557 9
1.4051676 0.25029871 -0.27743632 2
1.5986835 0.28448132 0.14206386 10
1.4217112 0.25273362 -0.22870721 3
1.4639747 0.25971887 -0.18256028 4
1.4752871 0.2614609 -0.13108224 5
1.5006183 0.26540935 -0.079864673 6
1.5281417 0.26972803 -0.027086135 7
1.3643873 0.23885971 -0.3711465 0
1.5384126 0.26904994 0.027260659 8
1.3879169 0.24247974 -0.32527924 1
1.5660973 0.27360919 0.083318852 9
1.4099007 0.24606693 -0.27819952 2
1.5996667 0.27889946 0.14206386 10
1.4342614 0.24980271 -0.23058443 3
1.4511818 0.25222856 -0.18085413 4
1.4801168 0.25699085 -0.13143085 5
1.4936638 0.25880671 -0.079445995 6
1.5369095 0.26602286 -0.027225753 7
1.3633084 0.23376945 -0.37062889 0
1.553093 0.26631218 0.027504994 8
1.3752679 0.23557308 -0.32212991 1
1.5611366 0.26713133 0.083004832 9
1.39914 0.23915954 -0.27590984 2
1.6006305 0.27331346 0.14206386 10
1.4409233 0.24604288 -0.23152302 3
1.6280818 0.27770767 0.2027906 11
1.4520103 0.24741447 -0.18085413 4
1.4849333 0.25249031 -0.13177948 5
1.50239 0.25518951 -0.079864673 6
1.5338857 0.25998768 -0.027155945 7
1.3621712 0.22892737 -0.37011126 0
1.5540131 0.26088884 0.027504994 8
1.3837694 0.23206058 -0.32392952 1
1.5698929 0.26327381 0.083423525 9
1.3960527 0.23387001 -0.27514657 2
1.5936679 0.26668829 0.14136662 10
1.4417734 0.24101193 -0.23152302 3
1.642747 0.2743127 0.20449677 11
1.4587394 0.24332394 -0.18158534 4
1.4739705 0.24560089 -0.13073361 5
1.5111525 0.25125355 -0.080283366 6
1.5268486 0.25358945 -0.027016325 7
1.3572432 0.22323017 -0.36855832 0
1.5430306 0.25378722 0.027295565 8
1.3883773 0.22810271 -0.32482934 1
1.5845987 0.26005602 0.084156223 9
1.4046102 0.23026553 -0.27667305 2
1.5906564 0.26048085 0.14101799 10
1.4308683 0.23431444 -0.22964582 3
1.6397295 0.26822227 0.20400929 11
1.4614973 0.23880565 -0.18182908 4
1.4708861 0.23981267 -0.13038498 5
1.5218338 0.24784654 -0.080806725 6
1.531672 0.24890003 -0.027086135 7
1.3636979 0.21964939 -0.37011126 0
1.5399584 0.2477645 0.027225753 8
1.3737726 0.22078088 -0.32123011 1
1.5815529 0.25388959 0.083946884 9
1.4092431 0.22622839 -0.27743632 2
1.6052824 0.25741237 0.14223817 10
1.4355786 0.22994283 -0.23027156 3
1.6328154 0.261242 0.20303436 11
1.4682025 0.23464276 -0.18256028 4
1.4795845 0.23593144 -0.13108224 5
1.5049381 0.23970571 -0.079864673 6
1.5364815 0.24417929 -0.027155945 7
1.3644937 0.21465001 -0.37011126 0
1.5506909 0.24394089 0.027400278 8
1.3745351 0.21598379 -0.32123011 1
1.57651 0.24743943 0.083632864 9
1.4139417 0.2216702 -0.27819952 2
1.6081835 0.25183481 0.14241248 10
1.4383633 0.22498518 -0.23058443 3
1.6297946 0.25492838 0.20254686 11
1.4552836 0.22737093 -0.18085413 4
1.484336 0.23138003 -0.13143085 5
1.5018595 0.23357397 -0.079655334 6
1.5373244 0.2388148 -0.027155945 7
1.367144 0.21017957 -0.37062889 0
1.5594807 0.23947008 0.027539898 8
1.3791697 0.2115356 -0.32212991 1
1.5694674 0.24072325 0.083214179 9
1.4069444 0.21554433 -0.27667305 2
1.6090528 0.24621999 0.14241248 10
1.4449979 0.22085796 -0.23152302 3
1.6326805 0.24925159 0.2027906 11
1.4561071 0.22203584 -0.18085413 4
1.489074 0.22679693 -0.13177948 5
1.5125387 0.22983059 -0.080178693 6
1.5341945 0.23284727 -0.027086135 7
1.3564068 0.20368506 -0.36752307 0
1.5503786 0.23281287 0.027365373 8
1.3856453 0.20782773 -0.32347962 1
1.5762237 0.23613137 0.083528191 9
1.403805 0.21005113 -0.27590984 2
1.607932 0.24030696 0.14223817 10
1.4496298 0.21664855 -0.23214878 3
1.6433146 0.24530253 0.20400929 11
1.4607621 0.21779105 -0.18134159 4
1.4780324 0.2198393 -0.13073361 5
1.5132926 0.22481316 -0.080178693 6
1.5310417 0.22690381 -0.027016325 7
1.3551635 0.19890502 -0.36700544 0
1.5472248 0.22681911 0.027295565 8
1.3979313 0.20468387 -0.32617903 1
1.5849434 0.23178351 0.083946884 9
1.408379 0.20596257 -0.27667305 2
1.5968913 0.23324612 0.1411923 10
1.4425584 0.21044675 -0.23089729 3
1.6520184 0.24070923 0.20498425 11
1.4693712 0.21383452 -0.18231656 4
1.4787533 0.21493636 -0.13073361 5
1.5140681 0.21952972 -0.080178693 6
1.5377618 0.22241716 -0.027121039 7
1.3673236 0.19581626 -0.37011126 0
1.5420685 0.22056782 0.027190849 8
1.3832041 0.19759785 -0.3225798 1
1.5877202 0.2265313 0.084051557 9
1.4129767 0.2015994 -0.27743632 2
1.6036129 0.22851405 0.14171523 10
1.4354616 0.20429628 -0.22964582 3
1.6390913 0.2329852 0.20327808 11
1.4760048 0.20954154 -0.18304777 4
1.4873852 0.21089162 -0.13143085 5
1.5069147 0.21312486 -0.079760008 6
1.5444691 0.21788563 -0.027225753 7
1.3718252 0.19157688 -0.3711465 0
1.5487705 0.21601194 0.027295565 8
1.3819553 0.1924998 -0.32212991 1
1.5786101 0.21961205 0.083528191 9
1.4175607 0.19720729 -0.27819952 2
1.6083478 0.22346295 0.14206386 10
1.4400793 0.19982767 -0.23027156 3
1.6359618 0.22671762 0.2027906 11
1.4590302 0.20193824 -0.18085413 4
1.4901218 0.20571147 -0.13160518 5
1.5076495 0.20786305 -0.079760008 6
1.5531445 0.21358314 -0.027365373 7
1.3725182 0.18654791 -0.3711465 0
1.561404 0.21222061 0.027504994 8
1.3806877 0.18741289 -0.32168001 1
1.5754089 0.21356332 0.083318852 9
1.406601 0.19043033 -0.27590984 2
1.6131048 0.21810083 0.14241248 10
1.4525477 0.19613378 -0.23214878 3
1.6406779 0.2215365 0.20327808 11
1.4597262 0.19684367 -0.18085413 4
1.6718787 0.2251561 0.2671901 12
1.4928055 0.20077388 -0.13177948 5
1.5123603 0.20286725 -0.079969354 6
1.5459526 0.20709789 -0.027225753 7
1.3655006 0.18074146 -0.36907598 0
1.5542415 0.20544775 0.027365373 8
1.3890933 0.18337162 -0.32347962 1
1.5840648 0.20910944 0.083737537 9
1.4072572 0.18551885 -0.27590984 2
1.6079303 0.2116881 0.14188954 10
1.4610574 0.19209324 -0.23340026 3
1.6493516 0.21655567 0.20425305 11
1.4683108 0.19252481 -0.18182908 4
1.6530685 0.21675022 0.26406142 12
1.4836196 0.19426943 -0.13090792 5
1.5170201 0.19810371 -0.080178693 6
1.5387344 0.20066547 -0.027086135 7
1.3661232 0.17597349 -0.36907598 0
1.5489644 0.1995257 0.027260659 8
1.3935593 0.17926106 -0.32437941 1
1.5927092 0.20459622 0.084156223 9
1.4156855 0.18160428 -0.27743632 2
1.6047069 0.20556809 0.14154093 10
1.4440522 0.18498772 -0.23058443 3
1.6559677 0.21184103 0.20498425 11
1.4669721 0.18740271 -0.18158534 4
1.6636125 0.21222885 0.26562575 12
1.4803357 0.18858549 -0.1305593 5
1.5216314 0.1935757 -0.080388032 6
1.5473607 0.19630079 -0.027225753 7
1.3666991 0.17144258 -0.36907598 0
1.5516356 0.19436723 0.027295565 8
1.3864419 0.17342766 -0.3225798 1
1.5933788 0.19931304 0.084156223 9
1.4201759 0.17739566 -0.27819952 2
1.6093339 0.20073912 0.14188954 10
1.4446892 0.17994553 -0.23058443 3
1.6468475 0.20483381 0.20376556 11
1.4735271 0.1830159 -0.18231656 4
1.6760688 0.20817211 0.26750296 12
1.488862 0.18465598 -0.13125655 5
1.5183334 0.18777381 -0.080178693 6
1.5519725 0.19165824 -0.027295565 7
1.3749598 0.1676062 -0.3711465 0
1.5562416 0.18970425 0.027365373 8
1.385075 0.16859391 -0.32212991 1
1.5841516 0.19254455 0.083632864 9
1.4207865 0.17243753 -0.27819952 2
1.6120028 0.19535954 0.14206386 10
1.4511609 0.17586702 -0.23152302 3
1.6376642 0.19817868 0.20254686 11
1.4741259 0.17812809 -0.18231656 4
1.6728631 0.20184657 0.26687723 12
1.4954318 0.18017232 -0.13177948 5
1.5110159 0.18178314 -0.079760008 6
1.5526321 0.18623927 -0.027295565 7
1.3793449 0.16350082 -0.3721818 0
1.5608659 0.18474047 0.027435182 8
1.3837197 0.16352965 -0.32168001 1
1.5867975 0.18724881 0.083737537 9
1.4135516 0.16680507 -0.27667305 2
1.6185777 0.19071184 0.14258678 10
1.4556897 0.1712624 -0.23214878 3
1.6541183 0.19431491 0.20449677 11
1.4668524 0.17205591 -0.18134159 4
1.6657097 0.19508637 0.26562575 12
1.496021 0.17521261 -0.13177948 5
1.5076739 0.17604393 -0.079550661 6
1.5453274 0.17989458 -0.027155945 7
1.368392 0.15736043 -0.36907598 0
1.563488 0.17951934 0.027470089 8
1.3958985 0.16002992 -0.32437941 1
1.5894258 0.18193544 0.08384221 9
1.4180264 0.16231602 -0.27743632 2
1.6172541 0.1848349 0.14241248 10
1.4582413 0.16640362 -0.23246165 3
1.6547865 0.18853933 0.20449677 11
1.4713889 0.16738367 -0.18182908 4
1.662455 0.18882528 0.26500002 12
1.4926641 0.16954006 -0.13143085 5
1.5281248 0.17302752 -0.080597378 6
1.5419718 0.17405029 -0.027086135 7
1.368933 0.15258318 -0.36907598 0
1.5581428 0.17339747 0.027365373 8
1.4022592 0.15580158 -0.32572913 1
1.5940213 0.17682695 0.084051557 9
1.4185843 0.15736549 -0.27743632 2
1.6099683 0.17831154 0.14171523 10
1.4509597 0.16044357 -0.23121016 3
1.6613538 0.18341576 0.205228 11
1.4739373 0.16246434 -0.18207282 4
1.667031 0.18345279 0.26562575 12
1.4853252 0.1634565 -0.13073361 5
1.5247487 0.16725706 -0.080388032 6
1.5465457 0.16910179 -0.027155945 7
1.3732986 0.14821802 -0.37011126 0
1.5507858 0.16710013 0.027225753 8
1.3911691 0.14965552 -0.32302973 1
1.6045581 0.17232765 0.084574915 9
1.4191251 0.15241237 -0.27743632 2
1.6185051 0.17353985 0.14241248 10
1.439726 0.15411657 -0.22933295 3
1.6521146 0.17656025 0.20400929 11
1.4843649 0.15837096 -0.18329151 4
1.6755184 0.1784699 0.26687723 12
1.4977738 0.15953721 -0.13177948 5
1.517379 0.16108988 -0.079969354 6
1.5511037 0.16412272 -0.027225753 7
1.3814933 0.14422607 -0.3721818 0
1.5573263 0.16230807 0.027330469 8
1.3858682 0.14419381 -0.32168001 1
1.5932305 0.16548717 0.083946884 9
1.4313908 0.14842524 -0.279726 2
1.6210828 0.16809498 0.14258678 10
1.4520444 0.15031074 -0.23121016 3
1.6408734 0.16956747 0.20254686 11
1.473061 0.15196665 -0.18182908 4
1.6839908 0.17342998 0.26812872 12
1.4983485 0.15404615 -0.13177948 5
1.5139854 0.15512051 -0.079760008 6
1.5556459 0.15911388 -0.027295565 7
1.3858569 0.13954841 -0.37321708 0
1.5658695 0.15739943 0.027470089 8
1.3883263 0.13930759 -0.32212991 1
1.5858771 0.15885068 0.083528191 9
1.416297 0.14161558 -0.27667305 2
1.6296179 0.16294557 0.14328404 10
1.460448 0.14577213 -0.23246165 3
1.6533358 0.16473347 0.20400929 11
1.4716328 0.14636974 -0.18158534 4
1.672821 0.16608526 0.26625147 12
1.5068337 0.14933972 -0.13247673 5
1.5244818 0.15055147 -0.080283366 6
1.5522383 0.15301907 -0.027225753 7
1.3786677 0.13372235 -0.3711465 0
1.5704166 0.15204418 0.027539898 8
1.4062848 0.13590559 -0.32617903 1
1.5943737 0.15408279 0.083946884 9
1.4206911 0.13704759 -0.27743632 2
1.6242547 0.15639833 0.14276111 10
1.4668714 0.14098562 -0.23340026 3
1.6618326 0.15943125 0.20498425 11
1.4760867 0.14161135 -0.18207282 4
1.6694579 0.15986797 0.26562575 12
1.4954456 0.14294183 -0.13143085 5
1.5289747 0.14560741 -0.080492713 6
1.5487818 0.14722094 -0.027155945 7
1.3752568 0.12878916 -0.37011126 0
1.5669302 0.14646302 0.027470089 8
1.4009069 0.13069865 -0.32482934 1
1.6008419 0.14935173 0.084260903 9
1.4211378 0.13233525 -0.27743632 2
1.6168292 0.15027326 0.14206386 10
1.4594631 0.13539095 -0.23214878 3
1.6643289 0.1541021 0.205228 11
1.4785249 0.13689831 -0.18231656 4
1.6719457 0.15451308 0.26593861 12
1.4919436 0.13761628 -0.13108224 5
1.529449 0.14053665 -0.080492713 6
1.553244 0.1424505 -0.027225753 7
1.3795244 0.1245757 -0.3711465 0
1.5594407 0.14054839 0.027330469 8
1.3935691 0.12535362 -0.32302973 1
1.6033428 0.143941 0.084365569 9
1.4254795 0.12797323 -0.27819952 2
1.6212873 0.145266 0.14241248 10
1.4500664 0.12967034 -0.23058443 3
1.6549444 0.14770016 0.20400929 11
1.4888802 0.13261665 -0.18353525 4
1.6862482 0.1499007 0.26812872 12
1.5003299 0.13337331 -0.13177948 5
1.5219488 0.13475901 -0.08007402 6
1.5577158 0.13737874 -0.027295565 7
1.3837999 0.12009386 -0.3721818 0
1.5619141 0.13527696 0.027365373 8
1.3920566 0.1203202 -0.3225798 1
1.5998555 0.13800046 0.084156223 9
1.4259175 0.1229969 -0.27819952 2
1.6257546 0.13994862 0.14276111 10
1.4564146 0.12511469 -0.23152302 3
1.6514943 0.14158286 0.20352182 11
1.4814223 0.12674284 -0.18256028 4
1.6867613 0.14401324 0.26812872 12
1.5007864 0.12813497 -0.13177948 5
1.7214267 0.14667033 0.33582386 13
1.5204198 0.12927742 -0.079969354 6
1.5581859 0.13194004 -0.027295565 7
1.3880612 0.115583 -0.37321708 0
1.5683553 0.13032039 0.027470089 8
1.4002362 0.11610538 -0.32437941 1
1.5963467 0.13208526 0.083946884 9
1.4224253 0.11769462 -0.27743632 2
1.6302046 0.1346003 0.14310972 10
1.4647173 0.12067992 -0.23277451 3
1.6559353 0.13614286 0.20400929 11
1.4778988 0.12124593 -0.18207282 4
1.6793785 0.13748094 0.26687723 12
1.5091676 0.12354676 -0.13247673 5
1.731712 0.14146011 0.33773196 13
1.5288243 0.12461802 -0.080388032 6
1.5546505 0.12617695 -0.027225753 7
1.3807532 0.11012235 -0.3711465 0
1.5767741 0.12547988 0.027609706 8
1.3986905 0.11106231 -0.32392952 1
1.60078 0.12682723 0.084156223 9
1.418913 0.1124182 -0.27667305 2
1.6266921 0.12859531 0.14276111 10
1.4769453 0.11649797 -0.23465173 3
1.6682744 0.13129579 0.20547174 11
1.482271 0.11639747 -0.18256028 4
1.6798482 0.13161753 0.26687723 12
1.4976716 0.11734384 -0.13143085 5
1.7321953 0.13541397 0.33773196 13
1.5372149 0.11990225 -0.080806725 6
1.5510942 0.12043941 -0.027155945 7
1.3734424 0.10447509 -0.36907598 0
1.5712417 0.11924549 0.027504994 8
1.4107472 0.10681821 -0.32662892 1
1.6012341 0.12095959 0.084156223 9
1.4271462 0.10780872 -0.27819952 2
1.6192055 0.12203297 0.14206386 10
1.457664 0.1096031 -0.23152302 3
1.6687443 0.12518075 0.20547174 11
1.4965446 0.11200056 -0.18426646 4
1.6842589 0.12575422 0.26750296 12
1.4980917 0.11185415 -0.13143085 5
1.7326798 0.12906463 0.33773196 13
1.537644 0.11426687 -0.080806725 6
1.5555137 0.11504889 -0.027225753 7
1.381506 0.10023909 -0.3711465 0
1.5636704 0.11318298 0.027365373 8
1.3955622 0.10076998 -0.32302973 1
1.609615 0.11594304 0.084574915 9
1.4314302 0.10310812 -0.27896276 2
1.6275706 0.11695168 0.14276111 10
1.4580377 0.10451385 -0.23152302 3
1.6612509 0.11878821 0.20449677 11
1.5008866 0.10705875 -0.18475394 4
1.690599 0.12029445 0.26844159 12
1.5024478 0.10690657 -0.13177948 5
1.7292032 0.1227372 0.33696869 13
1.5220954 0.10777064 -0.079969354 6
1.5598954 0.1098991 -0.027295565 7
1.3934109 0.096215554 -0.37425235 0
1.5700409 0.10813584 0.027470089 8
1.3959053 0.095898233 -0.32302973 1
1.6020395 0.10977867 0.084156223 9
1.4317814 0.098111853 -0.27896276 2
1.6319444 0.11154097 0.14310972 10
1.4702187 0.10022946 -0.23340026 3
1.6576943 0.11271963 0.20400929 11
1.4873874 0.10087835 -0.18304777 4
1.6910086 0.11439198 0.26844159 12
1.5107633 0.10219889 -0.13247673 5
1.7335387 0.1169651 0.33773196 13
1.5224624 0.10245647 -0.079969354 6
1.5642599 0.10472085 -0.027365373 7
1.3937384 0.091350675 -0.37425235 0
1.5803859 0.10330724 0.027644612 8
1.4020653 0.091404982 -0.32437941 1
1.5984269 0.10392625 0.083946884 9
1.4321152 0.09311302 -0.27896276 2
1.6323237 0.10584409 0.14310972 10
1.4646457 0.094714724 -0.23246165 3
1.6640207 0.10731614 0.20474051 11
1.4837685 0.095431276 -0.18256028 4
1.6854835 0.10810958 0.26750296 12
1.5130991 0.097052574 -0.13265103 5
1.7378548 0.11116423 0.33849517 13
1.5307835 0.097649649 -0.080388032 6
1.5566331 0.098753825 -0.027225753 7
1.3863361 0.086006872 -0.3721818 0
1.5807369 0.097789615 0.027644612 8
1.4043211 0.08662992 -0.32482934 1
1.6067367 0.099116556 0.084365569 9
1.4245933 0.087631598 -0.27743632 2
1.6306947 0.10002315 0.14293543 10
1.4708825 0.089962967 -0.23340026 3
1.6742922 0.10211153 0.2059592 11
1.4880555 0.09049198 -0.18304777 4
1.6858327 0.10251926 0.26750296 12
1.5074624 0.091408104 -0.1321281 5
1.7460711 0.10557162 0.34002164 13
1.5351024 0.092546321 -0.080597378 6
1.556952 0.093590863 -0.027225753 7
1.3827708 0.080940984 -0.3711465 0
1.5730674 0.092080072 0.027504994 8
1.4084914 0.082199901 -0.32572913 1
1.6150484 0.093971796 0.084784262 9
1.4327303 0.083112709 -0.27896276 2
1.6250666 0.093985587 0.14241248 10
1.4652565 0.084742978 -0.23246165 3
1.6785852 0.096786894 0.20644669 11
1.4962745 0.0860129 -0.18402272 4
1.6861802 0.096634328 0.26750296 12
1.5018048 0.085804887 -0.13160518 5
1.730731 0.098884471 0.33696869 13
1.5433769 0.087909855 -0.081016071 6
1.5612624 0.088381894 -0.027295565 7
1.3907472 0.076780692 -0.37321708 0
1.5733793 0.086588062 0.027504994 8
1.4009864 0.076856166 -0.32392952 1
1.6153666 0.088333219 0.084784262 9
1.4329981 0.078360744 -0.27896276 2
1.6313379 0.088921025 0.14293543 10
1.4576534 0.079199381 -0.23121016 3
1.6690019 0.090389751 0.205228 11
1.4985479 0.080896005 -0.18426646 4
1.692425 0.091066651 0.26844159 12
1.5080638 0.080881804 -0.1321281 5
1.7349865 0.093052328 0.33773196 13
1.5317079 0.081881814 -0.080388032 6
1.5655551 0.083143212 -0.027365373 7
1.3948779 0.071881987 -0.37425235 0
1.577666 0.08130157 0.027574802 8
1.4012462 0.071964964 -0.32392952 1
1.6076864 0.082286745 0.084365569 9
1.437197 0.073308364 -0.279726 2
1.6356324 0.083143927 0.14328404 10
1.4658253 0.074255675 -0.23246165 3
1.6673247 0.084463209 0.20498425 11
1.4908909 0.075264581 -0.18329151 4
1.6927327 0.085157983 0.26844159 12
1.5123167 0.075817019 -0.13247673 5
1.7431593 0.087084867 0.33925843 13
1.5319977 0.076267608 -0.080388032 6
1.5658357 0.077678226 -0.027365373 7
1.3951204 0.067012146 -0.37425235 0
1.5799507 0.075614534 0.027609706 8
1.399554 0.066736154 -0.32347962 1
1.6039739 0.076483682 0.084156223 9
1.4296 0.067918114 -0.27819952 2
1.6438733 0.077811152 0.14398128 10
1.4719952 0.069418006 -0.23340026 3
1.667623 0.07835117 0.20498425 11
1.4891739 0.0697072 -0.18304777 4
1.6870998 0.078971975 0.26750296 12
1.5165526 0.070723526 -0.13282534 5
1.7473749 0.08118134 0.34002164 13
1.53824 0.071196102 -0.080702052 6
1.5621022 0.072028086 -0.027295565 7
1.3837661 0.061627105 -0.3711465 0
1.5861858 0.070642032 0.027714422 8
1.4172891 0.062871568 -0.32752874 1
1.616203 0.071412861 0.084784262 9
1.4298283 0.062928446 -0.27819952 2
1.6341825 0.071635783 0.14310972 10
1.4781377 0.064795427 -0.23433885 3
1.679773 0.073340565 0.20644669 11
1.4953464 0.065027565 -0.18377897 4
1.6873652 0.073081963 0.26750296 12
1.5088282 0.065085478 -0.1321281 5
1.7515575 0.075555958 0.34078491 13
1.5424584 0.066267215 -0.080911398 6
1.5663399 0.066744745 -0.027365373 7
1.3878232 0.057196751 -0.3721818 0
1.5784309 0.064776376 0.027574802 8
1.4291826 0.058400936 -0.33022815 1
1.6284045 0.066541776 0.085412286 9
1.4378756 0.058505487 -0.279726 2
1.6364018 0.066297226 0.14328404 10
1.4704599 0.059316505 -0.23308739 3
1.6800187 0.067476965 0.20644669 11
1.5015148 0.060044993 -0.1845102 4
1.6935197 0.0677232 0.26844159 12
1.5090357 0.060081251 -0.1321281 5
1.7361166 0.068819687 0.33773196 13
1.5506631 0.061197262 -0.081330083 6
1.7797753 0.069927283 0.41121054 14
1.5665526 0.061549772 -0.027365373 7
1.3995973 0.052788496 -0.37528762 0
1.578637 0.059541322 0.027574802 8
1.4176842 0.05322291 -0.32752874 1
1.624635 0.06070913 0.08520294 9
1.4380711 0.053485628 -0.279726 2
1.6366233 0.060584277 0.14328404 10
1.4667004 0.054294102 -0.23246165 3
1.6722983 0.061613441 0.20547174 11
1.4937706 0.054774079 -0.18353525 4
1.699668 0.06202697 0.26938018 12
1.5092362 0.054814406 -0.1321281 5
1.7324115 0.062919974 0.33696869 13
1.5428739 0.055765741 -0.080911398 6
1.7936299 0.064515658 0.41435984 14
1.5667579 0.056082185 -0.027365373 7
1.3997647 0.048147254 -0.37528762 0
1.5808337 0.05409921 0.027609706 8
1.4159138 0.048207931 -0.32707885 1
1.6168528 0.054766841 0.084784262 9
1.4460891 0.048982654 -0.28125247 2
1.6427889 0.055358335 0.14380698 10
1.4728038 0.049372893 -0.23340026 3
1.6705192 0.055709049 0.205228 11
1.4880009 0.049361676 -0.18280403 4
1.705797 0.056289446 0.27031878 12
1.5173836 0.049806904 -0.13282534 5
1.7443937 0.057258334 0.33925843 13
1.5390667 0.05024901 -0.080702052 6
1.5749388 0.050870646 -0.027504994 7
1.3999317 0.043016847 -0.37528762 0
1.5830116 0.048642494 0.027644612 8
1.4219168 0.043443333 -0.32842854 1
1.611045 0.048941042 0.084470242 9
1.4384096 0.043445382 -0.279726 2
1.6449723 0.049396228 0.14398128 10
1.4828473 0.044269521 -0.23496459 3
1.6726876 0.049937095 0.20547174 11
1.4901482 0.044227194 -0.18304777 4
1.6961105 0.05004302 0.26875445 12
1.5215313 0.044627089 -0.13317397 5
1.7524415 0.051093671 0.34078491 13
1.5432334 0.044723768 -0.080911398 6
1.5711089 0.045257196 -0.027435182 7
1.3962113 0.038024355 -0.37425235 0
1.5911752 0.043056097 0.027784232 8
1.4337548 0.038546007 -0.33112797 1
1.6211886 0.043585099 0.084993601 9
1.4346273 0.038318906 -0.27896276 2
1.6431429 0.043601397 0.14380698 10
1.4829929 0.039092757 -0.23496459 3
1.6807971 0.044013482 0.20644669 11
1.4962535 0.038919698 -0.18377897 4
1.6923255 0.044019811 0.26812872 12
1.5176942 0.039212354 -0.13282534 5
1.7565345 0.045076463 0.34154812 13
1.5513663 0.039540485 -0.081330083 6
1.5672593 0.039671853 -0.027365373 7
1.3924727 0.033059023 -0.37321708 0
1.5813135 0.037542339 0.027609706 8
1.4280301 0.03365384 -0.32977825 1
1.6253242 0.038018811 0.08520294 9
1.4386778 0.033402331 -0.279726 2
1.6432852 0.037865836 0.14380698 10
1.4732401 0.033947527 -0.23340026 3
1.688872 0.038620576 0.20742163 11
1.512251 0.034318328 -0.18572889 4
1.7003684 0.038290471 0.26938018 12
1.5118464 0.033780456 -0.13230242 5
1.7488233 0.039075427 0.34002164 13
1.551489 0.03439606 -0.081330083 6
1.5713866 0.034287684 -0.027435182 7
1.3964376 0.028519746 -0.37425235 0
1.581435 0.032021876 0.027609706 8
1.4222939 0.028551167 -0.32842854 1
1.6314377 0.032464687 0.085516959 9
1.446632 0.02878716 -0.28125247 2
1.6434016 0.032415845 0.14380698 10
1.4753245 0.028842971 -0.23371312 3
1.6810578 0.032571614 0.20644669 11
1.5143462 0.029077083 -0.18597263 4
1.7064166 0.032467123 0.27031878 12
1.517926 0.028880809 -0.13282534 5
1.7450231 0.032897014 0.33925843 13
1.5476058 0.028905135 -0.081120737 6
1.5714967 0.028802641 -0.027435182 7
1.4003917 0.023710797 -0.37528762 0
1.5915343 0.026669297 0.027784232 8
1.4184879 0.023521937 -0.32752874 1
1.6235532 0.02663899 0.085098274 9
1.4545758 0.023866436 -0.28277895 2
1.6494813 0.026776465 0.14432991 10
1.4734411 0.023661546 -0.23340026 3
1.6771915 0.026640728 0.2059592 11
1.5005447 0.023572186 -0.18426646 4
1.7065196 0.026510779 0.27031878 12
1.5259863 0.023706194 -0.1335226 5
1.7529794 0.02692569 0.34078491 13
1.5437033 0.023441745 -0.080911398 6
1.5795857 0.023435161 -0.027574802 7
1.4043294 0.018874595 -0.37632293 0
1.5956166 0.021166269 0.02785404 8
1.4263557 0.018672004 -0.32932836 1
1.6236362 0.020971911 0.085098274 9
1.4467978 0.018687755 -0.28125247 2
1.6495647 0.021018099 0.14432991 10
1.4794403 0.018592205 -0.23433885 3
1.6832291 0.020860225 0.20669043 11
1.4986329 0.018310228 -0.18402272 4
1.7046266 0.02052951 0.27000591 12
1.5260628 0.018113354 -0.1335226 5
1.760915 0.020900894 0.34231135 13
1.5457728 0.018076751 -0.081016071 6
1.5716594 0.017830824 -0.027435182 7
1.4121161 0.013802509 -0.37839344 0
1.5976804 0.015616278 0.027888944 8
1.4283608 0.013711986 -0.32977825 1
1.6217024 0.015284979 0.084993601 9
1.4429302 0.01334747 -0.28048924 2
1.645646 0.0149362 0.14398128 10
1.4854245 0.013222739 -0.23527746 3
1.6852766 0.015001753 0.20693417 11
1.5066278 0.013147803 -0.18499769 4
1.706663 0.01459638 0.27031878 12
1.5181475 0.012719115 -0.13282534 5
1.7688327 0.014509802 0.34383783 13
1.5538175 0.012475573 -0.081434757 6
1.5717123 0.012344933 -0.027435182 7
1.5877286 0.0096988967 0.027714422 8
1.4303502 0.0084878886 -0.33022815 1
1.6297364 0.0093874149 0.085412286 9
1.442968 0.0083116135 -0.28048924 2
1.6456881 0.0091912942 0.14398128 10
1.4775602 0.0079944124 -0.23402599 3
1.6932606 0.0088667572 0.20790912 11
1.510636 0.0076460759 -0.18548515 4
1.7067051 0.0083406139 0.27031878 12
1.5141993 0.0071362974 -0.13247673 5
1.7531668 0.0082625318 0.34078491 13
1.5618405 0.0070875003 -0.081853449 6
1.5797457 0.0066180928 -0.027574802 7
1.5897526 0.0041614426 0.027749326 8
1.4284223 0.0034905223 -0.32977825 1
1.6437401 0.0037298058 0.086144991 9
1.4469153 0.0030299809 -0.28125247 2
1.6496955 0.0031674993 0.14432991 10
1.4775796 0.0025791561 -0.23402599 3
1.6853408 0.0029418091 0.20693417 11
1.5146235 0.002378759 -0.18597263 4
1.7126501 0.002391685 0.2712574 12
1.5181996 0.0018551783 -0.13282534 5
1.7531853 0.0018355147 0.34078491 13
1.553867 0.0013563925 -0.081434757 6
1.5797591 0.0011032906 -0.027574802 7
1.593757 -0.0011126525 0.027819136 8
1.4264774 -0.0012448366 -0.32932836 1
1.6317599 -0.0017087754 0.085516959 9
1.4528074 -0.0015213769 -0.28239733 2
1.6516896 -0.0020179206 0.14450422 10
1.4795557 -0.0020658507 -0.23433885 3
1.6873263 -0.0026504481 0.20717789 11
1.5046976 -0.0026261953 -0.18475394 4
1.7146238 -0.0032918456 0.27157027 12
1.5341367 -0.0032130927 -0.13421984 5
1.7610352 -0.0036883086 0.34231135 13
1.5458746 -0.003507484 -0.081016071 6
1.5877528 -0.0041567362 -0.027714422 7
1.5937434 -0.0066758958 0.027819136 8
1.4303617 -0.0062411698 -0.33022815 1
1.6257521 -0.0073774797 0.08520294 9
1.4469024 -0.0068184175 -0.28125247 2
1.6576482 -0.0081008617 0.14502715 10
1.483489 -0.0075086765 -0.23496459 3
1.691277 -0.0085603958 0.20766538 11
1.5106345 -0.0079097357 -0.18548515 4
1.70275 -0.0092128534 0.26969305 12
1.5301312 -0.0085459538 -0.13387121 5
1.7767158 -0.010233261 0.3453643 13
1.5538403 -0.0092207817 -0.081434757 6
1.5757307 -0.0096257105 -0.027504994 7
1.5997113 -0.012005923 0.02792385 8
1.4361793 -0.011029282 -0.33157787 1
1.6257188 -0.012768626 0.08520294 9
1.4468739 -0.011363953 -0.28125247 2
1.6496454 -0.013244485 0.14432991 10
1.4893841 -0.012217761 -0.23590319 3
1.6971943 -0.014218715 0.20839658 11
1.508615 -0.01290216 -0.18524142 4
1.7066605 -0.0148938 0.27031878 12
1.5261122 -0.01331818 -0.1335226 5
1.7845275 -0.015884819 0.34689078 13
1.5577979 -0.014138512 -0.081644095 6
1.5756902 -0.014850968 -0.027504994 7
1.5936611 -0.017523924 0.027819136 8
1.436132 -0.016042415 -0.33157787 1
1.6416413 -0.01862463 0.086040318 9
1.4468254 -0.016414417 -0.28125247 2
1.6495892 -0.019002741 0.14432991 10
1.4834065 -0.01734731 -0.23496459 3
1.6991194 -0.020166503 0.20864034 11
1.5125307 -0.018215941 -0.18572889 4
1.7105486 -0.020899335 0.27094454 12
1.5180875 -0.018547861 -0.13282534 5
1.5617332 -0.019626351 -0.081853449 6
1.5836267 -0.020454368 -0.027644612 7
1.5935901 -0.023086732 0.027819136 8
1.4321702 -0.020998215 -0.33067805 1
1.6455605 -0.024414172 0.086249664 9
1.4546114 -0.021581179 -0.28277895 2
1.6574813 -0.024880381 0.14502715 10
1.4853122 -0.022555254 -0.23527746 3
1.6910992 -0.025975462 0.20766538 11
1.5203973 -0.023618886 -0.18670385 4
1.7144154 -0.026932189 0.27157027 12
1.5259778 -0.024238376 -0.1335226 5
1.5516702 -0.024917353 -0.081330083 6
1.5835457 -0.025982132 -0.027644612 7
1.5994979 -0.028757097 0.02792385 8
1.4281913 -0.025926553 -0.32977825 1
1.6294898 -0.029865302 0.085412286 9
1.4545226 -0.026912447 -0.28277895 2
1.6653472 -0.03110401 0.1457244 10
1.4871945 -0.028036276 -0.23559032 3
1.6909983 -0.031878341 0.20766538 11
1.5083972 -0.028699346 -0.18524142 4
1.7162861 -0.03295438 0.27188313 12
1.5338521 -0.029719271 -0.13421984 5
1.5595559 -0.030761894 -0.081748769 6
1.5954411 -0.031748287 -0.02785404 7
1.6073787 -0.034792457 0.028063469 8
1.4280866 -0.031160962 -0.32977825 1
1.6333691 -0.03564024 0.085621633 9
1.452457 -0.031946346 -0.28239733 2
1.6672204 -0.036961127 0.1458987 10
1.4910374 -0.033315636 -0.23621608 3
1.6928546 -0.038120639 0.20790912 11
1.5162203 -0.03440785 -0.18621638 4
1.7161607 -0.038945131 0.27188313 12
1.5436983 -0.035300981 -0.13509139 5
1.5594391 -0.036205571 -0.081748769 6
1.587324 -0.037130166 -0.027714422 7
1.6112527 -0.040222332 0.028133281 8
1.4221312 -0.035749581 -0.32842854 1
1.6392248 -0.041493166 0.085935652 9
1.4641123 -0.037316304 -0.28468704 2
1.6571225 -0.042525027 0.14502715 10
1.4988177 -0.038462613 -0.23746756 3
1.7026411 -0.043990489 0.20912781 11
1.5121288 -0.039332394 -0.18572889 4
1.7081155 -0.044728581 0.27063167 12
1.5316155 -0.040374264 -0.13404553 5
1.5672966 -0.041588575 -0.082167462 6
1.5751909 -0.042348292 -0.027504994 7
1.5991091 -0.045505118 0.02792385 8
1.6450592 -0.047387403 0.086249664 9
1.4600557 -0.042058211 -0.2839238 2
1.6529893 -0.047904581 0.14467853 10
1.4868269 -0.043348815 -0.23559032 3
1.7084299 -0.050108142 0.20985903 11
1.5159509 -0.044727556 -0.18621638 4
1.7158469 -0.050925147 0.27188313 12
1.5294737 -0.045660894 -0.13387121 5
1.5671419 -0.047059204 -0.082167462 6
1.5830286 -0.048089348 -0.027644612 7
1.5989404 -0.051086769 0.02792385 8
1.6488762 -0.053258393 0.086459011 9
1.4677405 -0.047664192 -0.28545028 2
1.6567851 -0.054092795 0.14502715 10
1.486658 -0.048798021 -0.23559032 3
1.6983244 -0.055745754 0.20864034 11
1.5217376 -0.050215349 -0.18694758 4
1.717633 -0.056979761 0.27219599 12
1.5332876 -0.051132292 -0.13421984 5
1.5629667 -0.052668225 -0.081958115 6
1.5948424 -0.054021027 -0.02785404 7
1.6067362 -0.057231572 0.028063469 8
1.6466739 -0.059229683 0.086354338 9
1.4734513 -0.052998986 -0.28659514 2
1.6605686 -0.060019661 0.14537577 10
1.4904269 -0.054130521 -0.23621608 3
1.6921574 -0.06175286 0.20790912 11
1.5096407 -0.055356007 -0.18548515 4
1.7253088 -0.063565731 0.27344745 12
1.5450461 -0.056924291 -0.13526571 5
1.5627733 -0.058123678 -0.081958115 6
1.5946336 -0.059866052 -0.02785404 7
1.6085248 -0.06291794 0.028098376 8
1.6384743 -0.06466224 0.085935652 9
1.4595251 -0.057600029 -0.2839238 2
1.6663213 -0.066052504 0.1458987 10
1.4941764 -0.059489924 -0.23684181 3
1.6978821 -0.067897178 0.20864034 11
1.5094383 -0.060625304 -0.18548515 4
1.7171812 -0.069269307 0.27219599 12
1.5488194 -0.062477767 -0.13561434 5
1.566552 -0.063740812 -0.082167462 6
1.5864228 -0.065104023 -0.027714422 7
1.6222806 -0.06912829 0.028342709 8
1.6462326 -0.070436776 0.086354338 9
1.4593152 -0.062694371 -0.2839238 2
1.6601092 -0.071611062 0.14537577 10
1.5077744 -0.065303542 -0.2390319 3
1.7115172 -0.074427173 0.21034651 11
1.5171504 -0.066240214 -0.18646011 4
1.7169422 -0.074963309 0.27219599 12
1.528687 -0.06701123 -0.13387121 5
1.5743014 -0.069561377 -0.082586147 6
1.5782074 -0.070009954 -0.027574802 7
1.6080593 -0.073865272 0.028098376 8
1.6579474 -0.076736823 0.086982369 9
1.4688931 -0.068243511 -0.28583187 2
1.6658196 -0.077683918 0.1458987 10
1.493737 -0.069659002 -0.23684181 3
1.7053123 -0.079823896 0.20961528 11
1.5189053 -0.071364067 -0.18670385 4
1.7206163 -0.081142209 0.27282172 12
1.5324242 -0.072535351 -0.13421984 5
1.5740621 -0.074781567 -0.082586147 6
1.5939326 -0.076283246 -0.02785404 7
1.6037971 -0.07928054 0.028028565 8
1.6476955 -0.082027137 0.086459011 9
1.4647372 -0.072918929 -0.28506866 2
1.6695328 -0.083406374 0.14624733 10
1.4855931 -0.074477062 -0.23559032 3
1.697093 -0.085377112 0.20864034 11
1.5345073 -0.077466279 -0.18865377 4
1.7242682 -0.087347664 0.27344745 12
1.5441142 -0.078221455 -0.13526571 5
1.5658127 -0.07986863 -0.082167462 6
1.5976508 -0.082051761 -0.02792385 7
1.615492 -0.085512564 0.028237993 8
1.6513882 -0.087990716 0.086668357 9
1.4781969 -0.078762591 -0.28773996 2
1.6692315 -0.089233629 0.14624733 10
1.4932141 -0.080085471 -0.23684181 3
1.7027311 -0.091620527 0.20937155 11
1.5183699 -0.081966199 -0.18670385 4
1.716063 -0.092938647 0.27219599 12
1.5438318 -0.083610937 -0.13526571 5
1.5615358 -0.085116439 -0.081958115 6
1.6053414 -0.08806625 -0.028063469 7
1.6191769 -0.091376513 0.028307803 8
1.6470828 -0.093528137 0.086459011 9
1.4681125 -0.083365463 -0.28583187 2
1.6768664 -0.095512986 0.14694458 10
1.5008142 -0.085747987 -0.23809329 3
1.7083465 -0.097904347 0.21010277 11
1.5180746 -0.087265797 -0.18670385 4
1.5514868 -0.089458168 -0.13596295 5
1.5692049 -0.091029376 -0.082376808 6
1.5890539 -0.092737369 -0.027784232 7
1.6228402 -0.097267203 0.028377613 8
1.6507336 -0.099517331 0.086668357 9
1.6685678 -0.1008848 0.14624733 10
1.5044492 -0.091225415 -0.23871902 3
1.7079945 -0.10386699 0.21010277 11
1.5256865 -0.093047708 -0.1876788 4
1.5471879 -0.09463007 -0.13561434 5
1.5768515 -0.096996859 -0.082795486 6
1.5927122 -0.098530583 -0.02785404 7
1.6184994 -0.10267817 0.028307803 8
1.6583488 -0.10578745 0.087087035 9
1.6721821 -0.10696293 0.14659595 10
1.4962363 -0.095970578 -0.23746756 3
1.7155454 -0.110338 0.21107772 11
1.5293143 -0.09862829 -0.18816628 4
1.536907 -0.099387303 -0.13474278 5
1.5844755 -0.10301886 -0.083214179 6
1.6003404 -0.10461134 -0.02799366 7
1.618131 -0.10832717 0.028307803 8
1.669926 -0.11238018 0.087715074 9
1.6797501 -0.11333579 0.1472932 10
1.4958923 -0.10119283 -0.23746756 3
1.7032665 -0.11551976 0.20961528 11
1.5368828 -0.10450467 -0.18914123 4
1.5464896 -0.10542908 -0.13561434 5
1.5801212 -0.10827599 -0.083004832 6
1.6079453 -0.11074654 -0.028133281 7
1.6177431 -0.11397484 0.028307803 8
1.649601 -0.11679799 0.086668357 9
1.6793442 -0.11919852 0.1472932 10
1.5034114 -0.10697466 -0.23871902 3
1.7127532 -0.12217075 0.21083398 11
1.5305685 -0.109444 -0.18841003 4
1.5540613 -0.1113965 -0.13631159 5
1.5677811 -0.11293003 -0.082376808 6
1.6155268 -0.1169361 -0.028272899 7
1.6233181 -0.12006362 0.028412517 8
1.6451997 -0.12225945 0.086459011 9
1.6868654 -0.12565178 0.14799045 10
1.5010589 -0.11207481 -0.23840615 3
1.7123163 -0.12814863 0.21083398 11
1.5281976 -0.11463753 -0.18816628 4
1.56161 -0.11741804 -0.13700882 5
1.5833098 -0.11960547 -0.083214179 6
1.603145 -0.12166666 -0.028063469 7
1.6328578 -0.1265016 0.028587043 8
1.6567327 -0.12864216 0.087087035 9
1.6804574 -0.13107449 0.14746751 10
1.5144442 -0.1183915 -0.24059623 3
1.7177956 -0.13459013 0.2115652 11
1.5297672 -0.12012663 -0.18841003 4
1.5512593 -0.12208676 -0.13613726 5
1.5828828 -0.12513153 -0.083214179 6
1.6027328 -0.12698221 -0.028063469 7
1.6164837 -0.13062711 0.028307803 8
1.6642364 -0.13507071 0.087505728 9
1.6780039 -0.13677771 0.1472932 10
1.504199 -0.12261051 -0.2390319 3
1.7173398 -0.1402858 0.2115652 11
1.5333173 -0.12552279 -0.18889751 4
1.5508238 -0.12750092 -0.13613726 5
1.5944023 -0.13136388 -0.08384221 6
1.6102513 -0.13323562 -0.028203089 7
1.6160179 -0.1362689 0.028307803 8
1.6597991 -0.14025246 0.087296382 9
1.677541 -0.14234142 0.1472932 10
1.4919522 -0.12685624 -0.23715468 3
1.7168397 -0.14627957 0.2115652 11
1.5407814 -0.13154981 -0.18987246 4
1.558333 -0.13332228 -0.13683452 5
1.5740346 -0.1352191 -0.082795486 6
1.6098006 -0.13857467 -0.028203089 7
1.6255174 -0.14250022 0.028482327 8
1.6632785 -0.14639559 0.087505728 9
1.6869571 -0.14907315 0.14816476 10
1.7143677 -0.15179694 0.21132146 11
1.5324273 -0.13595676 -0.18889751 4
1.5618272 -0.1391146 -0.13718314 5
1.5775563 -0.14079314 -0.083004832 6
1.6172738 -0.14490689 -0.028342709 7
1.6309584 -0.14900288 0.028587043 8
1.6587794 -0.15183653 0.087296382 9
1.6943626 -0.15569007 0.148862 10
1.7138 -0.15807939 0.21132146 11
1.529942 -0.14138979 -0.18865377 4
1.5593482 -0.14438185 -0.13700882 5
1.5849844 -0.14731357 -0.083423525 6
1.6167582 -0.15055135 -0.028342709 7
1.6344368 -0.15478759 0.028656852 8
1.6582394 -0.15762582 0.087296382 9
1.6858754 -0.16084661 0.14816476 10
1.7231468 -0.1647061 0.21254015 11
1.5334169 -0.14684094 -0.18914123 4
1.5509018 -0.14906166 -0.13631159 5
1.5924394 -0.15333448 -0.08384221 6
1.6042805 -0.15503985 -0.028133281 7
1.6279162 -0.15990543 0.028552137 8
1.6656296 -0.16419694 0.087715074 9
1.6873153 -0.16663209 0.14833906 10
1.5467227 -0.15356557 -0.19084741 4
1.5523546 -0.15467197 -0.13648589 5
1.5918945 -0.1588922 -0.08384221 6
1.6156678 -0.16183469 -0.028342709 7
1.6253587 -0.16538453 0.028517231 8
1.672994 -0.17082159 0.08813376 9
1.6827295 -0.17240915 0.14799045 10
1.5521013 -0.15957275 -0.19157861 4
1.5597327 -0.16090757 -0.13718314 5
1.5793816 -0.1634918 -0.083214179 6
1.6230493 -0.16829844 -0.028482327 7
1.628719 -0.1717601 0.028587043 8
1.6644427 -0.17582113 0.087715074 9
1.6959864 -0.17975186 0.14921063 10
1.5436103 -0.1644194 -0.19060367 4
1.567086 -0.16719656 -0.13788037 5
1.5827731 -0.16942905 -0.083423525 6
1.6304051 -0.17481567 -0.028621947 7
1.6440442 -0.17889068 0.02886628 8
1.6677896 -0.18206353 0.087924413 9
1.7012902 -0.18632159 0.14973356 10
1.547003 -0.16997088 -0.19109115 4
1.5704536 -0.17310226 -0.13822901 5
1.5861729 -0.17511511 -0.083632864 6
1.6317724 -0.1807259 -0.028656852 7
1.647384 -0.18507487 0.02893609 8
1.6730981 -0.18855512 0.088238433 9
1.6887841 -0.19062142 0.14868769 10
1.5444279 -0.17514622 -0.19084741 4
1.5619214 -0.17768231 -0.13753176 5
1.5934896 -0.18155521 -0.084051557 6
1.6132507 -0.18437716 -0.028342709 7
1.6387825 -0.18990344 0.028796472 8
1.6763976 -0.19485536 0.088447772 9
1.6880741 -0.19680984 0.14868769 10
1.537892 -0.1798445 -0.1901162 4
1.5573339 -0.18266915 -0.13718314 5
1.5967808 -0.18786117 -0.084260903 6
1.624513 -0.19141133 -0.028552137 7
1.6301332 -0.19495873 0.028656852 8
1.6776551 -0.20123623 0.088552445 9
1.6992458 -0.20412691 0.14973356 10
1.5645988 -0.18906018 -0.13788037 5
1.5921496 -0.19295324 -0.084051557 6
1.631741 -0.1983293 -0.028691756 7
1.6373816 -0.20162538 0.028796472 8
1.6709958 -0.20635675 0.088238433 9
1.7064322 -0.21103527 0.15043081 10
1.571838 -0.19550419 -0.13857763 5
1.5875027 -0.19801529 -0.08384221 6
1.6310387 -0.20402391 -0.028691756 7
1.6386517 -0.207591 0.028831376 8
1.674228 -0.21269177 0.088447772 9
1.7056851 -0.21699055 0.15043081 10
1.579051 -0.20200101 -0.13927487 5
1.594726 -0.20457201 -0.084260903 6
1.6263499 -0.20920584 -0.028621947 7
1.6498146 -0.21485914 0.029040804 8
1.6794168 -0.21931049 0.088761792 9
1.697015 -0.22190984 0.14973356 10
1.5664841 -0.2059534 -0.13822901 5
1.6019225 -0.21118152 -0.084679581 6
1.61768 -0.21383336 -0.028482327 7
1.6450906 -0.22008643 0.028970996 8
1.6825999 -0.22570246 0.088971131 9
1.6982049 -0.22809739 0.14990787 10
1.5618066 -0.21088697 -0.13788037 5
1.6051341 -0.21730793 -0.084888928 6
