# .PCD v0.7 - Point Cloud Data file format
VERSION 0.7
FIELDS x y z intensity
SIZE 4 4 4 4
TYPE F F F F
COUNT 1 1 1 1
WIDTH 682
HEIGHT 1
VIEWPOINT 0 0 0 1 0 0 0
POINTS 682
DATA ascii
2.2910371 0.81805551 -0.21283433 5
2.2694557 0.80142909 -0.21056828 5
2.2684777 0.79218799 -0.21021965 5
2.2674625 0.78296465 -0.20987104 5
2.273953 0.77633172 -0.21021965 5
2.2765145 0.76878721 -0.21021965 5
2.2716246 0.758313 -0.2095224 5
2.2666898 0.74788123 -0.20882516 5
2.2665079 0.73949653 -0.29273018 4
2.2654982 0.73872852 -0.20847654 5
2.2464037 0.72427016 -0.28980532 4
2.2756484 0.73326063 -0.20917378 5
2.2487934 0.71681625 -0.28980532 4
2.2781944 0.72531205 -0.20917378 5
2.3392129 0.74384069 -0.1286418 6
2.2511575 0.70935655 -0.28980532 4
2.2691836 0.71416491 -0.2081279 5
2.3016546 0.72350144 -0.12644368 6
2.2574112 0.70267367 -0.2902928 4
2.2678578 0.70505714 -0.20777929 5
2.315485 0.71942097 -0.12707172 6
2.2598503 0.69478893 -0.2902928 4
2.2703052 0.69713598 -0.20777929 5
2.3028302 0.70624506 -0.12623434 6
2.247185 0.68189067 -0.28834289 4
2.2803516 0.69151908 -0.20847654 5
2.3014586 0.69704396 -0.12602501 6
2.2495518 0.67404181 -0.28834289 4
2.2789338 0.6824134 -0.2081279 5
2.3077049 0.69015002 -0.12623434 6
2.2517741 0.66657984 -0.28834289 4
2.2736597 0.67219424 -0.20743066 5
2.3215928 0.68548429 -0.12686236 6
2.2539723 0.6591084 -0.28834289 4
2.2682266 0.66241616 -0.20673342 5
2.3161836 0.67554545 -0.12644368 6
2.2355018 0.64608991 -0.36855966 3
2.2562594 0.65123594 -0.28834289 4
2.2742393 0.65599561 -0.20708205 5
2.3107345 0.66564894 -0.12602501 6
2.2244458 0.63449025 -0.36636955 3
2.2470641 0.64009255 -0.28688046 4
2.2803473 0.64914447 -0.20743066 5
2.3092017 0.65648592 -0.12581564 6
2.2323518 0.62832659 -0.36730817 3
2.2416406 0.63009673 -0.28590551 4
2.2825997 0.64117998 -0.20743066 5
2.3114791 0.64842176 -0.12581564 6
2.3722923 0.66458815 -0.043002732 7
2.2288213 0.61894524 -0.36636955 3
2.2553034 0.62545151 -0.28736794 4
2.2733037 0.63001615 -0.20638479 5
2.3137283 0.64034975 -0.12581564 6
2.3572507 0.65150934 -0.042688586 7
2.2195375 0.60802943 -0.36449236 3
2.2613025 0.61862344 -0.28785542 4
2.2754893 0.62207645 -0.20638479 5
2.3236563 0.63437402 -0.12623434 6
2.3574688 0.64316177 -0.04265368 7
2.2215416 0.60066622 -0.36449236 3
2.2671745 0.6121555 -0.28834289 4
2.2776468 0.6141302 -0.20638479 5
2.3083911 0.62198776 -0.12529229 6
2.3674238 0.63700765 -0.0427933 7
2.2236249 0.59290737 -0.36449236 3
2.2539518 0.60015112 -0.28639299 4
2.279671 0.60657322 -0.20638479 5
2.314409 0.61495131 -0.12550163 6
2.3696327 0.62874043 -0.0427933 7
2.2256808 0.58514231 -0.36449236 3
2.2483521 0.59026492 -0.285418 4
2.2856288 0.59962368 -0.20673342 5
2.3146093 0.60636312 -0.12539697 6
2.3602054 0.61742777 -0.042583872 7
2.2353587 0.57935143 -0.36574382 3
2.2542427 0.58340728 -0.28590551 4
2.2799921 0.58964556 -0.20603617 5
2.3225131 0.59977865 -0.12571098 6
2.3507283 0.60618997 -0.042374443 7
2.2220554 0.56763518 -0.36324087 3
2.2562656 0.57553434 -0.28590551 4
2.2743134 0.57971644 -0.20533893 5
2.3265281 0.59215987 -0.12581564 6
2.3644583 0.6009354 -0.042583872 7
2.2239258 0.56026286 -0.36324087 3
2.2620122 0.56901705 -0.28639299 4
2.2839525 0.57411355 -0.20603617 5
2.3187933 0.58200985 -0.12529229 6
2.3625588 0.59211951 -0.042514063 7
2.1967742 0.54608959 -0.44000554 2
2.2258682 0.55249596 -0.36324087 3
2.2562768 0.55920905 -0.285418 4
2.2898109 0.56709492 -0.20638479 5
2.3188715 0.57343435 -0.12518762 6
2.368494 0.58482713 -0.042583872 7
2.1853189 0.53514868 -0.43733424 2
2.2354586 0.54660004 -0.36449236 3
2.2505016 0.54944587 -0.28444308 4
2.287905 0.55815458 -0.20603617 5
2.3208592 0.56533587 -0.12518762 6
2.3588629 0.57372099 -0.042374443 7
2.3908615 0.57752776 0.04293292 8
2.181448 0.52613574 -0.43618938 2
2.2354321 0.53833151 -0.36417946 3
2.2562659 0.54251546 -0.28493056 4
2.2820904 0.5483036 -0.20533893 5
2.3305869 0.55909526 -0.12560631 6
2.3530724 0.56361967 -0.042234823 7
2.383136 0.56686419 0.042758394 8
2.179451 0.51761103 -0.43542615 2
2.2238433 0.52733409 -0.36198941 3
2.2619159 0.53594518 -0.285418 4
2.2742963 0.53804028 -0.20446737 5
2.3286371 0.55003768 -0.12539697 6
2.366606 0.55857009 -0.042444255 7
2.3966842 0.56169653 0.042967826 8
2.1849787 0.51127589 -0.43618938 2
2.2217326 0.51905721 -0.36136368 3
2.2636805 0.52844185 -0.285418 4
2.281889 0.53185153 -0.2049903 5
2.3226669 0.54050231 -0.12497827 6
2.3723407 0.55162418 -0.042514063 7
2.3809979 0.54969662 0.04265368 8
2.1924016 0.50534976 -0.43733424 2
2.2272916 0.51257437 -0.36198941 3
2.2539034 0.51786923 -0.2839556 4
2.2914991 0.52566546 -0.20568755 5
2.3205531 0.53190404 -0.12476893 6
2.3742516 0.54334033 -0.042514063 7
2.3965523 0.54448378 0.042898018 8
2.1846654 0.49514151 -0.43542615 2
2.2330086 0.50527883 -0.36261514 3
2.2556973 0.50999892 -0.2839556 4
2.2972074 0.5185402 -0.20603617 5
2.3302808 0.52515215 -0.12518762 6
2.3644288 0.53241301 -0.042304631 7
2.3946288 0.53482395 0.04282821 8
2.1787162 0.48580298 -0.4338997 2
2.2347586 0.49748158 -0.36261514 3
2.2574639 0.50212139 -0.2839556 4
2.283443 0.50706458 -0.20464167 5
2.3359995 0.51787865 -0.12539697 6
2.3701773 0.52502292 -0.042374443 7
2.3846705 0.52430415 0.042618778 8
2.180315 0.47857586 -0.4338997 2
2.228678 0.48837614 -0.36136368 3
2.2629948 0.49548221 -0.28444308 4
2.2851121 0.49948901 -0.20464167 5
2.3338015 0.50927711 -0.12518762 6
2.3679979 0.51630759 -0.042304631 7
2.3805325 0.5151251 0.042514063 8
2.193404 0.47382969 -0.43618938 2
2.2225614 0.47931764 -0.36011216 3
2.2685919 0.48841485 -0.28493056 4
2.2907376 0.49234614 -0.2049903 5
2.3198555 0.49818084 -0.12435025 6
2.3736963 0.50887632 -0.042374443 7
2.3862281 0.50764388 0.042583872 8
2.1520498 0.45743245 -0.50793946 1
2.1874437 0.4641577 -0.43466291 2
2.224303 0.47116882 -0.36011216 3
2.2586308 0.47802737 -0.28346813 4
2.2924423 0.48434636 -0.2049903 5
2.3216658 0.48967531 -0.12435025 6
2.3715448 0.49976215 -0.042304631 7
2.3939452 0.50012189 0.042688586 8
2.1556191 0.44994032 -0.50838935 1
2.1852071 0.45571712 -0.4338997 2
2.2298021 0.46420625 -0.36073789 3
2.2564802 0.46893853 -0.28298062 4
2.2980206 0.47715297 -0.20533893 5
2.3311834 0.48319012 -0.12476893 6
2.3694439 0.49025679 -0.042234823 7
2.4015529 0.49296805 0.0427933 8
2.155268 0.44202104 -0.50793946 1
2.4438002 0.50075257 0.13073523 9
2.1829376 0.44729987 -0.43313646 2
2.2391503 0.45800281 -0.36198941 3
2.2619936 0.46185276 -0.28346813 4
2.2879591 0.46673843 -0.20429306 5
2.3367701 0.47584623 -0.12497827 6
2.3633025 0.48039007 -0.042095207 7
2.3856168 0.48102409 0.042479157 8
2.1682599 0.43680459 -0.51063889 1
2.4356577 0.49067298 0.13021187 9
2.1844857 0.4396767 -0.43313646 2
2.2329884 0.44862798 -0.36073789 3
2.2713771 0.45551476 -0.28444308 4
2.2856669 0.45796674 -0.20394444 5
2.3305831 0.46611911 -0.12455959 6
2.3688042 0.47333461 -0.042165015 7
2.3793523 0.47155708 0.042339537 8
2.1544034 0.4265843 -0.50703967 1
2.4451928 0.48371768 0.13063055 9
2.193711 0.43357071 -0.43466291 2
2.2208982 0.43854243 -0.35854784 3
2.26898 0.44721282 -0.2839556 4
2.2872517 0.44998488 -0.20394444 5
2.3281965 0.45761815 -0.12435025 6
2.3704422 0.46506244 -0.042165015 7
2.3907986 0.46515763 0.042514063 8
2.1520534 0.41831717 -0.50613987 1
2.4310989 0.47255817 0.12979318 9
2.1951368 0.42629418 -0.43466291 2
2.2321122 0.43266633 -0.36011216 3
2.2588336 0.43702793 -0.28249314 4
2.2965562 0.44391054 -0.20464167 5
2.3219352 0.44797546 -0.12393155 6
2.3798254 0.45871356 -0.042304631 7
2.3942921 0.45760277 0.042548969 8
2.1591713 0.4122743 -0.50748956 1
2.4229243 0.46219847 0.12926982 9
2.1850402 0.41642329 -0.4323732 2
2.2354751 0.42563084 -0.36042506 3
2.2622206 0.42990494 -0.2827369 4
2.3020065 0.43663439 -0.2049903 5
2.327333 0.44101626 -0.1241409 6
2.3617632 0.44668791 -0.041955583 7
2.3998058 0.44997874 0.042618778 8
2.1663435 0.40581176 -0.50883931 1
2.4284494 0.45447227 0.12947917 9
2.1825495 0.40845332 -0.43160996 2
2.2447143 0.41927624 -0.36167651 3
2.269562 0.42309761 -0.28346813 4
2.2878466 0.42568001 -0.20359582 5
2.3367124 0.43435013 -0.12455959 6
2.3633082 0.43844044 -0.041955583 7
2.3915284 0.43979132 0.042444255 8
2.1658301 0.39789462 -0.50838935 1
2.4339499 0.44671306 0.12968852 9
2.1917562 0.4018679 -0.43313646 2
2.2287481 0.40784538 -0.3588607 3
2.27493 0.41588718 -0.2839556 4
2.2932386 0.41840592 -0.20394444 5
2.3382888 0.42578214 -0.12455959 6
2.3766291 0.43233505 -0.042165015 7
2.3852518 0.42960563 0.042304631 8
2.1596022 0.38857388 -0.50658977 1
2.435571 0.43778971 0.12968852 9
2.1970105 0.39490888 -0.4338997 2
2.2301581 0.40006357 -0.3588607 3
2.2764392 0.40754575 -0.2839556 4
2.2946851 0.41039899 -0.20394444 5
2.3279636 0.41551226 -0.12393155 6
2.3781977 0.42362189 -0.042165015 7
2.3946142 0.42266664 0.042444255 8
2.1609457 0.38103256 -0.50658977 1
2.4252822 0.42720693 0.12906048 9
2.1964419 0.38689733 -0.43351805 2
2.2354321 0.39295983 -0.35948643 3
2.2622063 0.39685354 -0.2820057 4
2.296104 0.40238592 -0.20394444 5
2.3215301 0.40600783 -0.12351287 6
2.3836014 0.41600484 -0.042234823 7
2.3921342 0.41362324 0.042374443 8
2.1622622 0.37348861 -0.50658977 1
2.4267588 0.41873789 0.12906048 9
2.1881056 0.37755823 -0.43160996 2
2.4680374 0.42541695 0.21910954 10
2.2406836 0.38582629 -0.36011216 3
2.2557521 0.38760918 -0.28103071 4
2.3014216 0.39504433 -0.20429306 5
2.3268704 0.39857545 -0.12372221 6
2.3732128 0.40566093 -0.042025398 7
2.1427715 0.36319143 -0.58234286 0
2.3975065 0.4059388 0.042444255 8
2.1673958 0.36658803 -0.50748956 1
2.4282057 0.41026372 0.12906048 9
2.1894102 0.36991742 -0.43160996 2
2.4636133 0.41580507 0.21858659 10
2.2381208 0.37734509 -0.35948643 3
2.2649217 0.38105068 -0.2820057 4
2.2909975 0.38502654 -0.20324717 5
2.3321869 0.39111188 -0.12393155 6
2.3667252 0.39605358 -0.041885775 7
2.1344352 0.35450158 -0.57975465 0
2.3909483 0.39667746 0.042304631 8
2.1705222 0.35971668 -0.50793946 1
2.4334936 0.40286213 0.12926982 9
2.1944988 0.36329678 -0.4323732 2
2.4728413 0.40893391 0.21928383 10
2.2354622 0.36927661 -0.3588607 3
2.2779248 0.37547541 -0.28346813 4
2.2922618 0.37742656 -0.20324717 5
2.3374128 0.38402402 -0.1241409 6
2.3719718 0.38885051 -0.041955583 7
2.1451936 0.34859863 -0.58234286 0
2.3923185 0.3883284 0.042304631 8
2.158299 0.34995613 -0.50479019 1
2.434885 0.3943657 0.12926982 9
2.1957533 0.35563481 -0.4323732 2
2.4663866 0.39902616 0.21858659 10
2.2328374 0.36084023 -0.35823497 3
2.2753019 0.366889 -0.28298062 4
2.2974997 0.37005585 -0.20359582 5
2.3269074 0.37396047 -0.12351287 6
2.3812129 0.38183537 -0.042095207 7
2.3916845 0.37966228 0.042269729 8
2.1595075 0.34241956 -0.50479019 1
2.4323015 0.38523847 0.12906048 9
2.1969814 0.34796745 -0.4323732 2
2.4717 0.39103761 0.21893522 10
2.2340832 0.35304552 -0.35823497 3
2.2687254 0.35770833 -0.2820057 4
2.2987771 0.36203539 -0.20359582 5
2.3242528 0.36521509 -0.12330353 6
2.3904335 0.37475932 -0.042234823 7
2.3969474 0.37192401 0.042339537 8
2.1645412 0.33547571 -0.50568998 1
2.4217892 0.37491301 0.12843245 9
2.1923623 0.33939585 -0.43122834 2
2.4848642 0.38423353 0.21998109 10
2.2392066 0.34584743 -0.3588607 3
2.2660363 0.34918156 -0.28151822 4
2.3079038 0.35522074 -0.20429306 5
2.3373578 0.35891902 -0.12393155 6
2.3759139 0.36399075 -0.041955583 7
2.4021852 0.36415365 0.042409346 8
2.1734061 0.32908544 -0.50748956 1
2.4349318 0.36824957 0.12906048 9
2.1935337 0.33174148 -0.43122834 2
2.4704299 0.37317598 0.21858659 10
2.2501662 0.33950302 -0.36042506 3
2.2672415 0.34126887 -0.28151822 4
2.2933674 0.34479323 -0.20289856 5
2.3425472 0.35134983 -0.1241409 6
2.3692594 0.35451192 -0.041815966 7
2.3955293 0.35459551 0.042269729 8
2.1745417 0.32149625 -0.50748956 1
2.4401541 0.3603307 0.12926982 9
2.1966205 0.32436877 -0.43160996 2
2.4756596 0.36513221 0.21893522 10
2.2337492 0.32905483 -0.35760921 3
2.2782388 0.33479619 -0.2827369 4
2.2866724 0.33562785 -0.20220132 5
2.3437591 0.34317118 -0.1241409 6
2.3704827 0.34623888 -0.041815966 7
2.3888357 0.34508827 0.042130109 8
2.1679356 0.31279108 -0.50568998 1
2.4413967 0.35181129 0.12926982 9
2.1977394 0.31669965 -0.43160996 2
2.4690309 0.35535356 0.21823798 10
2.2309735 0.32069287 -0.35698348 3
2.2813585 0.32712385 -0.28298062 4
2.2996633 0.32933789 -0.20324717 5
2.3291254 0.33272761 -0.12330353 6
2.3835547 0.3396554 -0.042025398 7
2.3999262 0.33814305 0.042304631 8
2.1612952 0.30413488 -0.50389034 1
2.4267876 0.34106272 0.12843245 9
2.1988313 0.30902559 -0.43160996 2
2.4801211 0.3481181 0.21910954 10
2.235992 0.3134523 -0.35760921 3
2.2706907 0.31750953 -0.28151822 4
2.3007987 0.32130903 -0.20324717 5
2.3342288 0.325147 -0.12351287 6
2.3807642 0.33078209 -0.041955583 7
2.4010921 0.32976305 0.042304631 8
2.1662052 0.29711878 -0.50479019 1
2.4279633 0.3325901 0.12843245 9
2.1940615 0.30054948 -0.4304651 2
2.4793472 0.33918801 0.21893522 10
2.2449014 0.30671439 -0.3588607 3
2.2678514 0.30904472 -0.28103071 4
2.3098032 0.31434992 -0.20394444 5
2.3313913 0.31646025 -0.12330353 6
2.3739781 0.32139707 -0.041815966 7
2.4022286 0.32137901 0.042304631 8
2.1749551 0.29058823 -0.50658977 1
2.433069 0.32464057 0.1286418 9
2.1950972 0.29288837 -0.4304651 2
2.4745915 0.32974127 0.21841228 10
2.2498744 0.29939902 -0.35948643 3
2.5404189 0.33761039 0.31466666 11
2.2728522 0.30164832 -0.28151822 4
2.2950854 0.3041926 -0.20254995 5
2.3483222 0.31041348 -0.1241409 6
2.3711207 0.31258506 -0.041746158 7
2.391438 0.31144276 0.042095207 8
2.1798213 0.28349653 -0.50748956 1
2.4341321 0.31657091 0.1286418 9
2.1980534 0.28547657 -0.43084675 2
2.4698 0.32033306 0.21788934 10
2.2313156 0.2890057 -0.35635775 3
2.5297699 0.32721213 0.31320426 11
2.2797461 0.29487288 -0.28224945 4
2.2882292 0.29515922 -0.20185271 5
2.3454292 0.30170524 -0.12393155 6
2.376111 0.30523047 -0.041815966 7
2.3865063 0.30275622 0.041990492 8
2.4430943 0.30950063 0.12906048 9
2.2028832 0.27868024 -0.43160996 2
2.474802 0.31264108 0.21823798 10
2.2322619 0.2816042 -0.35635775 3
2.5170546 0.31708506 0.31149808 11
2.2748027 0.28656748 -0.28151822 4
2.2971032 0.28856227 -0.20254995 5
2.3345265 0.29243687 -0.12330353 6
2.3929837 0.29933426 -0.042095207 7
2.3914666 0.29533017 0.042060301 8
2.4283011 0.29901966 0.12822311 9
2.203795 0.27137411 -0.43160996 2
2.4758253 0.30443195 0.21823798 10
2.2371044 0.2746821 -0.35698348 3
2.5042994 0.3070471 0.30979189 11
2.2718482 0.2781432 -0.28103071 4
2.3020513 0.28102657 -0.20289856 5
2.3315179 0.28420967 -0.12309418 6
2.3900442 0.29049617 -0.042025398 7
2.40241 0.28817073 0.042234823 8
2.4352794 0.29125237 0.12853712 9
2.1911292 0.26166382 -0.42893866 2
2.480881 0.2958279 0.21858659 10
2.2459426 0.26741558 -0.35823497 3
2.5290101 0.30111933 0.31271678 11
2.268863 0.26974195 -0.28054324 4
2.3148897 0.27439573 -0.20394444 5
2.3365111 0.27613166 -0.12330353 6
2.3751562 0.28027847 -0.041746158 7
2.4054365 0.27959493 0.042269729 8
2.4382656 0.28297952 0.1286418 9
2.1959298 0.25446722 -0.42970186 2
2.4779403 0.28670755 0.21823798 10
2.2429376 0.25912011 -0.35760921 3
2.5202367 0.29071122 0.31149808 11
2.2698364 0.26142484 -0.28054324 4
2.2999988 0.26449206 -0.20254995 5
2.3414292 0.26842836 -0.12351287 6
2.3721466 0.27153045 -0.041676346 7
2.398402 0.27071998 0.042130109 8
2.4432077 0.27491382 0.12885113 9
2.2026577 0.24745744 -0.43084675 2
2.474966 0.27761132 0.21788934 10
2.2359324 0.25079945 -0.35635775 3
2.5211871 0.28235152 0.31149808 11
2.2785821 0.25477919 -0.28151822 4
2.2929873 0.25557959 -0.20185271 5
2.3462765 0.2611047 -0.12372221 6
2.3770549 0.26368994 -0.041746158 7
2.3834295 0.26060799 0.041850869 8
2.4441526 0.26638311 0.12885113 9
2.1976109 0.23951304 -0.42970186 2
2.4758728 0.2694042 0.21788934 10
2.2367942 0.24299355 -0.35635775 3
2.5142629 0.27269235 0.31052312 11
2.2834046 0.24725068 -0.2820057 4
2.3017893 0.24842857 -0.20254995 5
2.3392305 0.25205657 -0.12330353 6
2.3819375 0.25581729 -0.041815966 7
2.3962564 0.25354856 0.042060301 8
2.4331501 0.25659353 0.12822311 9
2.2043316 0.23207395 -0.43084675 2
2.4867511 0.26136854 0.21876092 10
2.2376697 0.23479415 -0.35635775 3
2.2822793 0.23907225 -0.28176194 4
2.3026423 0.24039282 -0.20254995 5
2.3361657 0.24306829 -0.12309418 6
2.3867939 0.24791376 -0.041885775 7
2.399159 0.24496779 0.042095207 8
2.4301002 0.24726887 0.12801376 9
2.2031751 0.22417866 -0.4304651 2
2.485666 0.25248575 0.21858659 10
2.2424061 0.22737975 -0.35698348 3
2.2653649 0.22891003 -0.27956831 4
2.3113966 0.23315282 -0.20324717 5
2.3449488 0.2357116 -0.12351287 6
2.3757482 0.23796877 -0.041676346 7
2.4159198 0.23816046 0.042374443 8
2.4349239 0.23917572 0.12822311 9
2.1961286 0.21571954 -0.42893866 2
2.4726524 0.24244599 0.21736643 10
2.253016 0.22051348 -0.35854784 3
2.2740531 0.22177115 -0.28054324 4
2.3002987 0.2239254 -0.20220132 5
2.3417816 0.22713852 -0.12330353 6
2.376564 0.22967491 -0.041676346 7
2.3968294 0.22783293 0.042025398 8
2.4476335 0.23223233 0.12885113 9
2.1988227 0.20823683 -0.42932025 2
2.479434 0.23437518 0.21788934 10
2.2419724 0.2115348 -0.35667065 3
2.274776 0.21422827 -0.28054324 4
2.2931311 0.21515049 -0.20150407 5
2.3505144 0.21970567 -0.12372221 6
2.385277 0.22253619 -0.041815966 7
2.3935885 0.21951985 0.041955583 8
2.4444125 0.22374962 0.1286418 9
2.4801974 0.22615346 0.21788934 10
2.2367597 0.20356125 -0.35573202 3
2.2833819 0.20740241 -0.28151822 4
2.305738 0.20862161 -0.20254995 5
2.3472517 0.21155177 -0.12351287 6
2.3820186 0.21426614 -0.041746158 7
2.4062552 0.21263672 0.042165015 8
2.4371827 0.21494104 0.12822311 9
2.4849036 0.21827561 0.21823798 10
2.2413583 0.19648825 -0.35635775 3
2.2801018 0.19948262 -0.28103071 4
2.3064172 0.20097482 -0.20254995 5
2.3360016 0.20273121 -0.12288483 6
2.3906848 0.20705655 -0.041885775 7
2.4109321 0.20499542 0.042234823 8
2.4358921 0.20668834 0.12811844 9
2.4816427 0.20969912 0.21788934 10
2.2557762 0.1902158 -0.35854784 3
2.2767947 0.19158798 -0.28054324 4
2.3229542 0.19465569 -0.20394444 5
2.3406415 0.19531626 -0.12309418 6
2.3794014 0.19813132 -0.041676346 7
2.4077494 0.1949923 0.042165015 8
2.4446995 0.19712582 0.12853712 9
2.4824646 0.19973494 0.21788934 10
2.2545526 0.18100043 -0.35823497 3
2.2815347 0.18236622 -0.28103071 4
2.3078284 0.18406147 -0.20254995 5
2.3453889 0.18623443 -0.12330353 6
2.3802106 0.1881634 -0.041676346 7
2.4064214 0.18643254 0.042130109 8
2.4453728 0.18859038 0.12853712 9
2.4752007 0.19045623 0.2171921 10
2.2433531 0.17222376 -0.35635775 3
2.2880952 0.17485423 -0.28176194 4
2.3044834 0.17570318 -0.20220132 5
2.3579738 0.17895257 -0.12393155 6
2.3808529 0.17985314 -0.041676346 7
2.3950925 0.17714579 0.041920681 8
2.4539521 0.18106858 0.12895581 9
2.4877727 0.18269105 0.21823798 10
2.2459109 0.1645357 -0.35667065 3
2.2867122 0.16672237 -0.28151822 4
2.3050828 0.16765736 -0.20220132 5
2.3426478 0.1695676 -0.12309418 6
2.3894143 0.17253353 -0.041815966 7
2.4056401 0.16990732 0.042095207 8
2.442615 0.17166199 0.12832777 9
2.4864078 0.17386633 0.21806367 10
2.2405324 0.15667307 -0.35573202 3
2.2832916 0.15886332 -0.28103071 4
2.3136044 0.16016096 -0.20289856 5
2.3392122 0.16152348 -0.12288483 6
2.3939917 0.16446646 -0.041885775 7
2.4122043 0.16191016 0.042199921 8
2.4431708 0.16356036 0.12832777 9
2.4909465 0.16588542 0.21841228 10
2.2489495 0.14937532 -0.35698348 3
2.27789 0.15049897 -0.28029951 4
2.3141227 0.15248723 -0.20289856 5
2.347734 0.153879 -0.12330353 6
2.3785605 0.15548261 -0.041606538 7
2.4147234 0.15403675 0.042234823 8
2.443727 0.15503164 0.12832777 9
2.483557 0.15668811 0.21771504 10
2.2612615 0.14266345 -0.3588607 3
2.2803578 0.14306806 -0.28054324 4
2.3066871 0.14391276 -0.20220132 5
2.3562047 0.14658819 -0.12372221 6
2.3830807 0.14742525 -0.041676346 7
2.4092581 0.14524633 0.042130109 8
2.4522278 0.14697897 0.12874646 9
2.4701409 0.14761882 0.21649487 10
2.28877 0.13557728 -0.28151822 4
2.2991955 0.1357922 -0.20150407 5
2.3567021 0.13836312 -0.12372221 6
2.3835807 0.13910635 -0.041676346 7
2.3997681 0.13626923 0.041955583 8
2.4527259 0.13841756 0.12874646 9
2.285265 0.1273656 -0.28103071 4
2.3155704 0.12865037 -0.20289856 5
2.3412168 0.12925445 -0.12288483 6
2.3920388 0.1312239 -0.041815966 7
2.4102132 0.12842415 0.042130109 8
2.4531715 0.13028258 0.12874646 9
2.277766 0.11897516 -0.28005576 4
2.312026 0.12035896 -0.20254995 5
2.3496323 0.12149544 -0.12330353 6
2.4004486 0.12370187 -0.041955583 7
2.4106262 0.12043022 0.042130109 8
2.4456322 0.12132331 0.12832777 9
2.2821136 0.11161447 -0.28054324 4
2.3243723 0.11286692 -0.20359582 5
2.3500223 0.11370246 -0.12330353 6
2.3848867 0.11455383 -0.041676346 7
2.4170244 0.1122926 0.042234823 8
2.4460406 0.11278624 0.12832777 9
2.2805061 0.10355707 -0.28029951 4
2.3088291 0.10403677 -0.20220132 5
2.3584042 0.10544467 -0.12372221 6
2.3812766 0.10605202 -0.041606538 7
2.4074304 0.10300614 0.042060301 8
2.4504285 0.10399019 0.12853712 9
2.2907875 0.09561231 -0.28151822 4
2.3052135 0.095407315 -0.20185271 5
2.3587747 0.096800491 -0.12372221 6
2.3896415 0.097648337 -0.041746158 7
2.4137864 0.09441679 0.042165015 8
2.4627512 0.095901616 0.12916516 9
2.2990417 0.087918207 -0.28249314 4
2.3174782 0.087814279 -0.20289856 5
2.3431313 0.087966189 -0.12288483 6
2.4019575 0.089756005 -0.041955583 7
2.4140861 0.086412348 0.042165015 8
2.4510796 0.087307043 0.12853712 9
2.2854333 0.079809323 -0.28078699 4
2.3257215 0.08040347 -0.20359582 5
2.3434103 0.080196068 -0.12288483 6
2.3982449 0.08165358 -0.041885775 7
2.4183567 0.078535616 0.042234823 8
2.4433846 0.078493483 0.12811844 9
2.3219924 0.072566643 -0.20324717 5
2.3516488 0.072671838 -0.12330353 6
2.3865228 0.072914608 -0.041676346 7
2.4226139 0.070208706 0.042304631 8
2.4496331 0.070137173 0.12843245 9
2.310282 0.06412863 -0.20220132 5
2.355881 0.064571425 -0.12351287 6
2.3827648 0.064475961 -0.041606538 7
2.4048526 0.061293732 0.041990492 8
2.4578495 0.061786041 0.12885113 9
2.2985506 0.055373192 -0.20115545 5
2.3600852 0.056442346 -0.12372221 6
2.3949704 0.056441352 -0.041815966 7
2.4050519 0.052899361 0.041990492 8
2.4620438 0.053293128 0.12906048 9
2.3146658 0.04767815 -0.20254995 5
2.3522892 0.047630612 -0.12330353 6
2.3951528 0.048080366 -0.041815966 7
2.4092286 0.044156723 0.042060301 8
2.4502335 0.044480506 0.12843245 9
2.3188021 0.039665703 -0.20289856 5
2.3484468 0.039352864 -0.12309418 6
2.4033034 0.039852545 -0.041955583 7
2.419359 0.036317743 0.042234823 8
2.3229108 0.031624962 -0.20324717 5
2.3565528 0.031672753 -0.12351287 6
2.3914311 0.031305522 -0.041746158 7
2.4234703 0.027917812 0.042304631 8
2.3150339 0.023840137 -0.20254995 5
2.3646376 0.023525504 -0.12393155 6
2.3875265 0.022919789 -0.041676346 7
2.4115551 0.019362332 0.042095207 8
2.3111184 0.01573238 -0.20220132 5
2.3726943 0.015322197 -0.12435025 6
2.403589 0.014682713 -0.041955583 7
2.411608 0.010943673 0.042095207 8
2.3171365 0.00768418 -0.20272426 5
2.3487663 0.0069692391 -0.12309418 6
2.4036257 0.0062918914 -0.041955583 7
2.4176309 0.0025311625 0.042199921 8
2.3567655 -0.0012339996 -0.12351287 6
2.4116318 -0.0021045462 -0.042095207 7
2.4296229 -0.0059367004 0.042409346 8
2.3567467 -0.0094606383 -0.12351287 6
2.391613 -0.010435447 -0.041746158 7
2.4295874 -0.014417631 0.042409346 8
2.3646882 -0.017747117 -0.12393155 6
2.3995607 -0.018846489 -0.041885775 7
2.4215238 -0.022822998 0.042269729 8
2.3646119 -0.026001312 -0.12393155 6
2.4034791 -0.027267775 -0.041955583 7
2.4154308 -0.031198075 0.042165015 8
2.3525245 -0.034081601 -0.12330353 6
2.4033694 -0.035657316 -0.041955583 7
2.415307 -0.039629314 0.042165015 8
2.352391 -0.042293236 -0.12330353 6
2.4072368 -0.043699574 -0.042025398 7
2.4251587 -0.047835719 0.042339537 8
2.3562315 -0.050178863 -0.12351287 6
2.3990726 -0.051929038 -0.041885775 7
2.4329736 -0.056486469 0.042479157 8
2.3640285 -0.058601312 -0.12393155 6
2.3908806 -0.060102038 -0.041746158 7
2.410773 -0.064391471 0.042095207 8
2.3638093 -0.066852957 -0.12393155 6
2.4026494 -0.068790779 -0.041955583 7
2.4103892 -0.077433996 -0.042095207 7
2.4141014 -0.085989729 -0.042165015 7
2.4017971 -0.093947031 -0.041955583 7
2.397459 -0.10216004 -0.041885775 7
2.4090734 -0.11108074 -0.042095207 7
2.4126654 -0.11968746 -0.042165015 7
2.4202204 -0.12853271 -0.042304631 7
2.4117708 -0.13652799 -0.042165015 7
