# .PCD v0.7 - Point Cloud Data file format
VERSION 0.7
FIELDS x y z intensity
SIZE 4 4 4 4
TYPE F F F F
COUNT 1 1 1 1
WIDTH 454
HEIGHT 1
VIEWPOINT 0 0 0 1 0 0 0
POINTS 454
DATA ascii
3.0177085 -0.61395973 0.053753413 8
2.9893832 -0.62397021 -0.16004337 6
2.9928117 -0.62577611 -0.053369459 7
2.9984329 -0.63788354 -0.053509079 7
3.0111141 -0.64552689 0.053753413 8
3.0000968 -0.64919198 -0.053578887 7
2.9900002 -0.65794128 -0.053439267 7
2.9915886 -0.66924751 -0.053509079 7
2.9970336 -0.68145943 -0.053648699 7
2.9985335 -0.69281721 -0.053718507 7
3.0155647 -0.70784956 -0.054067552 7
2.9431405 0.21148404 -0.25815532 5
2.9557872 0.20202366 -0.25920117 5
2.9425569 0.19080298 -0.25798097 5
2.9471824 0.18077354 -0.25832963 5
2.9537623 0.17083058 -0.25885254 5
2.9503617 0.16030341 -0.25850391 5
2.9429445 0.14959839 -0.25780669 5
2.9573796 0.13998471 -0.25902686 5
2.9706419 0.13957186 -0.15585649 6
2.9578502 0.12965989 -0.25902686 5
2.9671202 0.12903003 -0.15564716 6
2.9582849 0.11933348 -0.25902686 5
2.9795055 0.11967009 -0.15627518 6
2.9507003 0.1092286 -0.25832963 5
2.9819009 0.10934134 -0.15637985 6
2.9490724 0.098861933 -0.25815532 5
2.9902318 0.099719271 -0.15679854 6
2.9445188 0.089449905 -0.36170825 4
2.951391 0.088626161 -0.25832963 5
2.9706132 0.088166997 -0.15575182 6
2.9408581 0.078550346 -0.36122078 4
2.9556794 0.077913828 -0.25867823 5
2.9828961 0.0775894 -0.15637985 6
2.9292188 0.067497306 -0.35975835 4
2.9639008 0.067777522 -0.25937548 5
2.9791553 0.067087382 -0.15617052 6
3.0227852 0.067540631 -0.05277608 7
2.9373651 0.057939071 -0.36073327 4
2.9422073 0.057007227 -0.25745806 5
2.983355 0.05728364 -0.15637985 6
3.0010097 0.056574758 -0.052392125 7
2.9454889 0.047814898 -0.36170825 4
2.9463644 0.047314774 -0.25780669 5
2.9915249 0.046994124 -0.15679854 6
3.0031884 0.046128847 -0.052427031 7
2.9456379 0.037532151 -0.36170825 4
2.950496 0.03707904 -0.25815532 5
2.9836824 0.036454495 -0.15637985 6
3.0133288 0.035766214 -0.052601553 7
2.9338362 0.027652189 -0.36024579 4
2.9605689 0.026870692 -0.25902686 5
2.9758029 0.02596877 -0.15596117 6
3.0094316 0.02573842 -0.052531745 7
2.9339116 0.017922275 -0.36024579 4
2.9566572 0.017030586 -0.25867823 5
2.9838612 0.01614433 -0.15637985 6
3.0015016 0.015717359 -0.052392125 7
2.9458656 0.0082268231 -0.36170825 4
2.9507201 0.00721044 -0.25815532 5
2.9838984 0.0062485728 -0.15637985 6
3.0015373 0.0057631037 -0.052392125 7
2.9458768 -0.0015424575 -0.36170825 4
2.9487355 -0.0025732575 -0.25798097 5
2.9958863 -0.0036601676 -0.15700789 6
3.0015399 -0.0041909427 -0.052392125 7
2.9498167 -0.013385936 -0.36219573 4
2.9566734 -0.013933098 -0.25867823 5
2.9838669 -0.015102836 -0.15637985 6
3.005501 -0.01573691 -0.052461933 7
2.9954743 -0.02038986 0.052287407 8
2.9378459 -0.02307426 -0.36073327 4
2.9605913 -0.024286414 -0.25902686 5
2.9798059 -0.024964148 -0.15617052 6
3.0174255 -0.026332673 -0.052671362 7
3.0153811 -0.031051809 0.052636456 8
2.9293065 -0.032210708 -0.46398467 3
2.9337776 -0.033284079 -0.36024579 4
2.9604883 -0.034620654 -0.25902686 5
2.9797006 -0.035365462 -0.15617052 6
3.0013189 -0.03666985 -0.052392125 7
3.0332496 -0.041825403 0.052950602 8
2.9390447 -0.043091733 -0.46554902 3
2.9415832 -0.043642465 -0.36122078 4
2.9503887 -0.044803221 -0.25815532 5
2.991533 -0.046472508 -0.15679854 6
3.0011725 -0.047146183 -0.052392125 7
3.0250785 -0.052802943 0.052810986 8
2.9132009 -0.052884549 -0.46148172 3
2.9493425 -0.0545705 -0.36219573 4
2.9502144 -0.055101722 -0.25815532 5
2.9913526 -0.056914624 -0.15679854 6
3.0089769 -0.058300667 -0.052531745 7
3.0108807 -0.063068956 0.052566648 8
2.9149733 -0.06309595 -0.46179458 3
2.9531031 -0.064952597 -0.36268318 4
2.9539878 -0.065487877 -0.25850391 5
2.9871423 -0.067266122 -0.1565892 6
3.0127535 -0.068895042 -0.052601553 7
3.0126417 -0.073627375 0.052601553 8
2.9147353 -0.073270716 -0.46179458 3
2.9449205 -0.075058147 -0.36170825 4
2.9637001 -0.076054379 -0.25937548 5
2.9789031 -0.077485047 -0.15617052 6
3.0124948 -0.079411089 -0.052601553 7
3.0163641 -0.084254667 0.052671362 8
2.9263096 -0.083783813 -0.46367183 3
2.9367034 -0.085107356 -0.36073327 4
2.9673996 -0.086515285 -0.25972411 5
2.9905925 -0.088236295 -0.15679854 6
3.0002062 -0.089568131 -0.052392125 7
3.0240464 -0.095034488 0.052810986 8
2.937845 -0.094378561 -0.46554902 3
2.9403567 -0.095486715 -0.36122078 4
2.9551313 -0.096482828 -0.25867823 5
2.9982512 -0.098938368 -0.15721723 6
3.0038724 -0.10017356 -0.052461933 7
3.0117054 -0.10517107 0.052601553 8
3.0379393 -0.10714893 0.15931067 9
2.9256532 -0.10421109 -0.46367183 3
2.9479408 -0.10603532 -0.36219573 4
2.9507945 -0.10665364 -0.25832963 5
2.9938958 -0.10925794 -0.15700789 6
3.0075014 -0.11080568 -0.052531745 7
3.0113201 -0.11568324 0.052601553 8
3.0515172 -0.11829423 0.16004337 9
2.9213235 -0.11426847 -0.46304604 3
2.955487 -0.11663803 -0.36317068 4
2.9543858 -0.11711101 -0.25867823 5
2.9855132 -0.1193887 -0.1565892 6
3.0150883 -0.12162553 -0.052671362 7
3.0228856 -0.12669642 0.052810986 8
3.053081 -0.12902962 0.16014804 9
2.9209068 -0.1244651 -0.46304604 3
2.9471288 -0.12661307 -0.36219573 4
2.9619212 -0.12776649 -0.25937548 5
2.9810877 -0.12963583 -0.15637985 6
3.0146453 -0.13214943 -0.052671362 7
3.0224247 -0.1372475 0.052810986 8
3.0426607 -0.13869855 0.15962468 9
2.9283481 -0.13502415 -0.46429756 3
2.942703 -0.13671546 -0.36170825 4
2.9654379 -0.13829038 -0.25972411 5
2.9846072 -0.14022844 -0.1565892 6
3.0022056 -0.14158043 -0.052461933 7
3.0299423 -0.14765881 0.052950602 8
3.0501373 -0.14971022 0.16004337 9
2.9278841 -0.14473416 -0.46429756 3
2.9461987 -0.14667045 -0.36219573 4
2.9529977 -0.14804228 -0.25867823 5
3.0000837 -0.15092778 -0.15742657 6
3.0056875 -0.15226157 -0.052531745 7
3.0174265 -0.15760855 0.05274117 8
3.0436125 -0.16004163 0.15972935 9
2.927361 -0.15495349 -0.46429756 3
2.9456687 -0.15695372 -0.36219573 4
2.9524627 -0.15834928 -0.25867823 5
3.0035272 -0.16161373 -0.15763591 6
3.0091314 -0.16296872 -0.052601553 7
3.0108683 -0.16780652 0.052636456 8
3.051012 -0.17111222 0.16014804 9
2.9188843 -0.16523518 -0.46304604 3
2.9530308 -0.16768523 -0.36317068 4
2.9598486 -0.16910891 -0.25937548 5
2.9909511 -0.1719334 -0.15700789 6
3.0125368 -0.17370178 -0.052671362 7
3.0182176 -0.17931516 0.05277608 8
3.0344145 -0.18134041 0.15931067 9
2.9161198 -0.17427097 -0.56784761 2
2.926177 -0.17589711 -0.46429756 3
2.9405072 -0.17778867 -0.36170825 4
2.9552627 -0.1791985 -0.25902686 5
2.9863455 -0.18212955 -0.15679854 6
3.0198638 -0.18523183 -0.052810986 7
3.0235608 -0.1902263 0.052880794 8
3.0377495 -0.19218358 0.15952002 9
2.9056969 -0.18382926 -0.56593949 2
3.0720661 -0.19489296 0.26931125 10
2.9255452 -0.18611029 -0.46429756 3
2.9398687 -0.18805186 -0.36170825 4
2.9705257 -0.19053344 -0.26042137 5
2.9896779 -0.19280982 -0.15700789 6
3.0032349 -0.19473684 -0.052531745 7
3.0228784 -0.20077938 0.052880794 8
3.0370955 -0.20225608 0.15952002 9
2.8913255 -0.19305535 -0.56326818 2
3.0654032 -0.20521604 0.26878831 10
2.9288199 -0.1965858 -0.46492329 3
2.9471166 -0.19884732 -0.36268318 4
2.9539397 -0.19982557 -0.25902686 5
2.9969573 -0.20378654 -0.15742657 6
3.0025725 -0.20469487 -0.052531745 7
3.0142164 -0.21024589 0.05274117 8
3.0483253 -0.2136943 0.16014804 9
2.8984675 -0.20369734 -0.56479466 2
3.0686429 -0.21619508 0.26913694 10
2.9281518 -0.20629705 -0.46492329 3
2.9504015 -0.2088996 -0.36317068 4
2.9532242 -0.21013553 -0.25902686 5
3.0002491 -0.2140079 -0.15763591 6
3.0138071 -0.21603237 -0.05274117 7
3.0094755 -0.22047397 0.052671362 8
3.0475609 -0.22433366 0.16014804 9
2.9075661 -0.21402851 -0.56670272 2
3.0698962 -0.2265165 0.26931125 10
2.9234738 -0.21622555 -0.46429756 3
2.9615321 -0.22007984 -0.36463311 4
2.960459 -0.22051963 -0.25972411 5
2.9875338 -0.22358507 -0.15700789 6
3.0130346 -0.2265512 -0.05274117 7
3.0166628 -0.23158994 0.052810986 8
3.0467591 -0.23497026 0.16014804 9
2.9048438 -0.22402555 -0.56632113 2
3.0770326 -0.23784523 0.27000847 10
2.9305792 -0.22703937 -0.46554902 3
2.9488714 -0.22949205 -0.36317068 4
2.9636436 -0.2311621 -0.26007274 5
2.9827528 -0.23370014 -0.15679854 6
3.0241866 -0.23800866 -0.052950602 7
3.0277956 -0.24307877 0.05302041 8
3.0439296 -0.24544349 0.16004337 9
2.8962164 -0.23353283 -0.56479466 2
3.0841277 -0.24922656 0.27070573 10
2.9297688 -0.23726761 -0.46554902 3
2.9401379 -0.23914042 -0.36219573 4
2.9667902 -0.24182947 -0.26042137 5
2.9938626 -0.2450882 -0.15742657 6
3.0073936 -0.24725278 -0.052671362 7
3.0309141 -0.25398025 0.053090218 8
3.0549958 -0.25707212 0.1606714 9
2.8953836 -0.24364106 -0.56479466 2
3.073312 -0.25915357 0.26983419 10
2.9289227 -0.24749297 -0.46554902 3
2.9471972 -0.25007331 -0.36317068 4
2.9540167 -0.25117123 -0.25937548 5
2.9969687 -0.25587708 -0.15763591 6
3.0025275 -0.2574074 -0.052601553 7
3.0180566 -0.26351494 0.052880794 8
3.0541265 -0.26720142 0.1606714 9
2.898427 -0.25408924 -0.5655579 2
3.074373 -0.27005419 0.27000847 10
2.9241056 -0.25736892 -0.46492329 3
2.9542158 -0.26105836 -0.36414564 4
2.9491525 -0.26112968 -0.25902686 5
3.000036 -0.26669055 -0.15784526 6
3.0096247 -0.26807237 -0.05274117 7
3.0211489 -0.27388281 0.052950602 8
3.0571532 -0.27822271 0.16088074 9
2.9014328 -0.26456165 -0.56632113 2
3.0734117 -0.28078413 0.27000847 10
2.9271703 -0.26742363 -0.46554902 3
2.9572875 -0.27121606 -0.36463311 4
2.9640951 -0.27288377 -0.26042137 5
2.9911799 -0.27590379 -0.15742657 6
3.0206177 -0.27968252 -0.052950602 7
3.0201745 -0.28442693 0.052950602 8
3.0521867 -0.28851658 0.1606714 9
2.9083576 -0.27492073 -0.56784761 2
3.0784144 -0.29153794 0.27053142 10
2.926219 -0.27763972 -0.46554902 3
2.9523704 -0.28116089 -0.36414564 4
2.9591582 -0.28284958 -0.26007274 5
2.9901989 -0.28634328 -0.15742657 6
3.0236039 -0.29060733 -0.05302041 7
3.0231438 -0.29535645 0.05302041 8
3.0332713 -0.29741484 0.15972935 9
2.8995152 -0.28481087 -0.56632113 2
3.0832739 -0.3034043 0.27105436 10
2.9212501 -0.2879754 -0.46492329 3
2.9434693 -0.29068449 -0.36317068 4
2.9740138 -0.29474926 -0.26146722 5
2.993104 -0.29769632 -0.15763591 6
3.0106323 -0.29997039 -0.052810986 7
3.029999 -0.3072418 0.05316003 8
3.0579917 -0.31115872 0.16109009 9
2.9102223 -0.29612279 -0.56861085 2
3.0742676 -0.31335694 0.2703571 10
2.932018 -0.29937464 -0.46680051 3
2.9522579 -0.30248252 -0.36438939 4
2.9610751 -0.30390817 -0.26042137 5
2.9960201 -0.30855161 -0.15784526 6
3.0055342 -0.31059176 -0.05274117 7
3.0209527 -0.31698185 0.05302041 8
3.0509281 -0.32120383 0.16077606 9
3.0672104 -0.32345936 0.26983419 10
2.9270265 -0.30919245 -0.46617478 3
2.9531579 -0.3129952 -0.36463311 4
2.9560337 -0.31382176 -0.26007274 5
3.0028691 -0.31985399 -0.15826395 6
3.0123854 -0.32193112 -0.052880794 7
3.015852 -0.32709381 0.052950602 8
3.0617597 -0.33261353 0.1614041 9
3.0739856 -0.3350274 0.27053142 10
2.9259293 -0.31940782 -0.46617478 3
2.9619136 -0.32438231 -0.36585179 4
2.9628422 -0.32500732 -0.26076996 5
2.993793 -0.32946008 -0.15784526 6
3.0113013 -0.33191878 -0.052880794 7
3.0226998 -0.33798173 0.053090218 8
3.048671 -0.34196323 0.16077606 9
3.0747774 -0.34597838 0.27070573 10
2.924854 -0.3291088 -0.46617478 3
2.9489863 -0.33286667 -0.36438939 4
2.9735682 -0.3366926 -0.26181585 5
2.9887149 -0.33893597 -0.15763591 6
3.0220454 -0.34378427 -0.053090218 7
3.0254748 -0.34898916 0.05316003 8
3.0395226 -0.35168478 0.16035739 9
3.087467 -0.35777816 0.2719259 10
2.9354603 -0.34068277 -0.46805197 3
2.9478066 -0.34315851 -0.36438939 4
2.9684772 -0.34608999 -0.26146722 5
2.9954486 -0.35029441 -0.15805461 6
3.0089107 -0.35293341 -0.052880794 7
3.0282097 -0.3600201 0.053229842 8
3.0521593 -0.36394793 0.16109009 9
3.0763078 -0.36737204 0.27105436 10
2.9303303 -0.3504582 -0.46742624 3
2.9485617 -0.35368261 -0.36463311 4
2.9553821 -0.35502398 -0.26042137 5
3.010071 -0.36265957 -0.15889199 6
3.0116308 -0.36391404 -0.052950602 7
3.0189948 -0.3696163 0.053090218 8
3.0587997 -0.3755734 0.16150878 9
3.0710516 -0.37762183 0.27070573 10
2.9290891 -0.36068484 -0.46742624 3
2.9551899 -0.36494607 -0.36560807 4
2.9541249 -0.36533803 -0.26042137 5
3.0087869 -0.37316447 -0.15889199 6
3.0182798 -0.37541166 -0.053090218 7
3.0216544 -0.38065216 0.05316003 8
3.0574703 -0.38624826 0.16150878 9
3.077621 -0.38933969 0.27140298 10
2.9317319 -0.3714036 -0.46805197 3
2.9578364 -0.37575972 -0.36609554 4
2.9646904 -0.37715623 -0.26146722 5
3.0074658 -0.38366482 -0.15889199 6
3.0209179 -0.38645265 -0.05316003 7
3.0203073 -0.39119738 0.05316003 8
3.0481806 -0.39588949 0.16109009 9
3.0821707 -0.40085107 0.2719259 10
2.9466648 -0.38479698 -0.36487687 4
2.9673071 -0.38801932 -0.26181585 5
2.9902658 -0.3920832 -0.15805461 6
3.0274811 -0.39803791 -0.053299651 7
3.0228879 -0.40226543 0.053229842 8
3.0428207 -0.40599898 0.16088074 9
2.9472709 -0.39534432 -0.36512056 4
2.9738331 -0.39943567 -0.2625131 5
3.0007553 -0.40411818 -0.15868263 6
3.0141828 -0.40699783 -0.053090218 7
3.0333526 -0.41443896 0.053439267 8
3.0532579 -0.4182443 0.16150878 9
2.9576724 -0.40725446 -0.36658302 4
2.9684732 -0.40926966 -0.26216447 5
3.0072401 -0.41568431 -0.15910132 6
3.0167055 -0.41806582 -0.05316003 7
3.0239663 -0.4239144 0.053299651 8
3.0577126 -0.42973351 0.1618228 9
2.9562328 -0.41757622 -0.36658302 4
2.9591355 -0.41851306 -0.26146722 5
3.0136807 -0.42730048 -0.15952002 6
3.0191875 -0.42915642 -0.053229842 7
3.0145509 -0.43332928 0.05316003 8
3.0641015 -0.44154376 0.16224147 9
2.9645801 -0.42931536 -0.3678017 4
2.9694872 -0.43055516 -0.2625131 5
3.0003121 -0.4360939 -0.15889199 6
3.0255861 -0.44084603 -0.053369459 7
3.0248899 -0.44559801 0.053369459 8
3.0506864 -0.45048615 0.16161345 9
2.9512818 -0.43791291 -0.36633927 4
2.9719076 -0.44150352 -0.2628617 5
2.9948204 -0.44597596 -0.15868263 6
3.0319402 -0.45258549 -0.053509079 7
3.0272706 -0.45675078 0.053439267 8
3.0451455 -0.46053499 0.1614041 9
2.9516978 -0.44851035 -0.36658302 4
2.9703484 -0.4518747 -0.2628617 5
2.9971943 -0.45702922 -0.15889199 6
3.0184813 -0.46135336 -0.053299651 7
3.0355392 -0.46884134 0.053613789 8
3.047467 -0.47177282 0.16161345 9
2.9559989 -0.45972618 -0.36731425 4
2.9687529 -0.46224037 -0.2628617 5
3.007421 -0.46933633 -0.15952002 6
3.0168524 -0.47188702 -0.053299651 7
3.0240083 -0.4778738 0.053439267 8
3.061583 -0.48490715 0.16245082 9
2.9631863 -0.47197372 -0.2625131 5
3.0175982 -0.48172045 -0.16014804 6
3.0191362 -0.48304683 -0.053369459 7
3.0302181 -0.48970279 0.053578887 8
3.0677581 -0.4968684 0.16286951 9
2.9693866 -0.48359534 -0.26321036 5
2.9843593 -0.48710316 -0.15847328 6
3.0292723 -0.49551952 -0.053578887 7
3.0245445 -0.4996255 0.053509079 8
3.0541823 -0.50561661 0.16224147 9
2.9716113 -0.49461168 -0.26355895 5
2.9826407 -0.49751756 -0.15847328 6
3.0275242 -0.50609064 -0.053578887 7
3.0385563 -0.51284242 0.053788319 8
3.0563374 -0.51694071 0.16245082 9
2.9777234 -0.5063175 -0.26425621 5
2.9848237 -0.5085969 -0.15868263 6
3.0178545 -0.51530921 -0.053439267 7
3.040689 -0.52412516 0.053858127 8
3.0564826 -0.52794617 0.1625555 9
2.9720118 -0.51602691 -0.26390758 5
2.9948363 -0.5210669 -0.15931067 6
3.0160372 -0.52584034 -0.053439267 7
3.0349019 -0.53404284 0.053788319 8
2.9662688 -0.52570266 -0.26355895 5
2.9969323 -0.53221607 -0.15952002 6
3.025996 -0.53846711 -0.053648699 7
3.0271146 -0.54357308 0.053683605 8
2.9722581 -0.53747177 -0.26425621 5
2.9911258 -0.54196197 -0.15931067 6
3.028033 -0.54974097 -0.053718507 7
3.0330667 -0.55557758 0.053823221 8
2.9852879 -0.55167371 -0.15910132 6
3.0339608 -0.5617637 -0.053858127 7
3.0350404 -0.56689584 0.05389303 8
2.9911947 -0.5635702 -0.15952002 6
3.0201914 -0.5701251 -0.053648699 7
3.042865 -0.57935673 0.054067552 8
2.9970551 -0.57551455 -0.15993871 6
3.0181828 -0.5806641 -0.053648699 7
3.0310087 -0.58807051 0.05389303 8
2.9950278 -0.58597273 -0.15993871 6
3.0200622 -0.59196532 -0.053718507 7
3.0308993 -0.59903479 0.053927936 8
2.9929643 -0.59642369 -0.15993871 6
3.0336654 -0.60563558 -0.053997744 7
3.0307503 -0.61000562 0.053962842 8
2.9869492 -0.60607308 -0.15972935 6
3.031533 -0.61622137 -0.053997744 7
3.0325203 -0.62138397 0.05403265 8
2.9965513 -0.61891985 -0.16035739 6
3.0254471 -0.62598926 -0.053927936 7
3.0440357 -0.63482332 0.054276984 8
3.0217364 -0.63512743 -0.1618228 6
3.0232434 -0.63654625 -0.053927936 7
3.0261521 -0.64212453 0.053997744 8
3.0288243 -0.64877081 -0.054067552 7
3.025847 -0.65310574 0.05403265 8
3.0305645 -0.65966183 -0.054137368 7
3.0275712 -0.66399306 0.054102462 8
3.0322652 -0.67057151 -0.054207176 7
3.0260043 -0.68027484 -0.054137368 7
3.0275099 -0.69172418 -0.054207176 7
3.0328684 -0.70409679 -0.054346792 7
3.0264995 -0.71376115 -0.054276984 7
