# .PCD v0.7 - Point Cloud Data file format
VERSION 0.7
FIELDS x y z intensity
SIZE 4 4 4 4
TYPE F F F F
COUNT 1 1 1 1
WIDTH 1389
HEIGHT 1
VIEWPOINT 0 0 0 1 0 0 0
POINTS 1389
DATA ascii
1.4702977 -4.6490364 -1.3065187 22
3.8515444 -12.185868 0.22307666 70
1.5801246 -5.0023808 -1.2111365 13
3.8486173 -12.19141 0.67000502 72
1.8492883 -5.8580599 -1.1940827 3
3.8455024 -12.188957 1.1182082 82
2.4556262 -7.7882509 -1.2934003 1
3.8456719 -12.204344 1.5711397 78
3.8262513 -12.150105 -1.5640713 12
3.8303213 -12.170442 2.0208206 60
3.8348632 -12.192308 -1.1182082 62
3.8288548 -12.173205 2.4805171 88
3.8373127 -12.207534 -0.67063302 65
3.6853619 -11.731295 2.8388824 34
3.82934 -12.197056 -0.22314647 87
3.2803779 -10.454909 2.9360435 30
1.4555511 -4.6617708 -1.3085891 24
3.8125613 -12.210691 0.22328609 70
1.5684587 -5.0264688 -1.2156355 12
3.8131709 -12.22765 0.67126101 72
1.8330623 -5.8816681 -1.1975174 3
3.8067274 -12.221991 1.1199512 84
2.4282382 -7.800971 -1.294026 1
3.8083582 -12.234752 1.5733334 73
3.7973785 -12.206985 -1.5696774 17
3.7954388 -12.208261 2.0248878 66
3.7964199 -12.218938 -1.1194284 56
3.7894526 -12.204031 2.4839516 82
3.7990537 -12.242499 -0.6717844 65
3.6250229 -11.688885 2.8253851 18
3.7920732 -12.227538 -0.22346061 83
3.2101219 -10.357426 2.9055028 50
1.4438242 -4.681591 -1.3127302 19
3.773082 -12.241781 0.22360022 70
1.5483041 -5.0265965 -1.2142857 12
3.7786977 -12.267609 0.67272645 72
1.820029 -5.9124231 -1.2024784 4
3.7728276 -12.26377 1.122566 87
2.4126041 -7.8471627 -1.3002834 1
3.7681541 -12.263807 1.5752833 73
3.7623239 -12.244833 -1.5728458 22
3.7603385 -12.245983 2.0289552 66
3.7636824 -12.264494 -1.1223916 62
3.7508585 -12.230323 2.486623 88
3.7609797 -12.270963 -0.67262173 65
3.5908091 -11.715747 2.8289843 16
3.7604952 -12.277029 -0.22412381 83
3.186388 -10.409207 2.9168906 61
1.4333607 -4.7029843 -1.317389 18
3.7400401 -12.279094 0.22405399 70
1.5361664 -5.046617 -1.217885 10
3.7391591 -12.283893 0.67293578 75
1.8015543 -5.9221826 -1.2032416 4
3.7408326 -12.304807 1.1251806 82
2.3957567 -7.8853617 -1.3052894 1
3.7315021 -12.289533 1.5769894 65
3.7257347 -12.270538 -1.5745521 20
3.7300346 -12.292411 2.0345869 66
3.7316635 -12.305508 -1.1250063 59
3.72053 -12.276514 2.4934921 78
3.7260561 -12.302482 -0.6736685 65
3.5654953 -11.772352 2.839782 28
3.7243979 -12.304743 -0.22440305 79
3.1613607 -10.451152 2.9256907 63
1.4222137 -4.7225108 -1.3215301 16
3.7067919 -12.316323 0.22450775 70
1.5261581 -5.0740776 -1.2232838 12
3.7020078 -12.315997 0.6739825 77
1.7852979 -5.939405 -1.2055314 4
3.7068858 -12.340042 1.1272724 81
2.3957212 -7.9802928 -1.3196814 1
3.6992853 -12.330359 1.5806454 63
3.6902924 -12.308187 -1.5777208 22
3.6888039 -12.311033 2.0355256 66
3.699414 -12.346444 -1.1276209 62
3.6859937 -12.309471 2.4976897 80
3.692111 -12.337731 -0.67492455 65
3.5026052 -11.711911 2.8222358 26
3.6865754 -12.334912 -0.22471718 79
3.1348126 -10.495441 2.935008 67
1.4062709 -4.7292981 -1.3220477 18
3.670614 -12.352188 0.22492662 70
1.5123209 -5.0924506 -1.2264332 12
3.6703577 -12.367139 0.67607594 72
1.7673466 -5.9550114 -1.2074393 4
3.665489 -12.358636 1.1277953 79
2.3712177 -7.99997 -1.3215585 1
3.6658061 -12.375555 1.584789 65
3.656321 -12.351449 -1.5816205 22
3.6525316 -12.346564 2.0392799 66
3.6619458 -12.378387 -1.129364 65
3.6524665 -12.354269 2.5041773 78
3.6592081 -12.385021 -0.67680866 72
3.442939 -11.660522 2.8069394 18
3.6485906 -12.364967 -0.22503133 79
3.1052597 -10.530409 2.9417374 71
1.3968277 -4.7582755 -1.3287771 18
3.6325402 -12.382195 0.22524075 70
1.4989218 -5.112659 -1.2300324 13
3.6339059 -12.402876 0.67733198 72
1.7471015 -5.9630284 -1.207821 4
3.6296036 -12.396214 1.1300614 81
2.349936 -8.0309486 -1.3253129 1
3.6270432 -12.403516 1.5867389 65
3.6204226 -12.388907 -1.584789 22
3.6188257 -12.391474 2.0445988 61
3.6221359 -12.410851 -1.1311072 65
3.6126213 -12.378251 2.5064671 78
3.622664 -12.420727 -0.6780647 65
3.3978522 -11.657502 2.8033402 8
3.6143525 -12.408346 -0.22558981 83
3.0312278 -10.413198 2.9060204 22
1.3820651 -4.7726407 -1.3313652 18
3.5965269 -12.41977 0.22569451 70
1.4843163 -5.1290917 -1.2327318 13
3.5994673 -12.446183 0.67900676 70
1.7312303 -5.9901381 -1.2120188 2
3.5918858 -12.436232 1.1325017 87
2.3281536 -8.0660791 -1.3296931 1
3.5892282 -12.435175 1.5891764 68
3.5848587 -12.428171 -1.5882014 20
3.5788331 -12.415419 2.0464759 61
3.5876136 -12.454052 -1.1338961 62
3.571573 -12.406502 2.5095201 78
3.5826387 -12.453116 -0.67911142 65
3.5010231 -12.177426 2.9252634 70
3.579859 -12.451636 -0.22614828 87
2.9783225 -10.366157 2.8899736 52
1.3685827 -4.7885809 -1.334471 19
3.5619657 -12.471326 0.22639263 70
1.4692512 -5.147615 -1.2358811 16
3.559289 -12.470195 0.67963481 67
1.7151566 -6.0131369 -1.2154534 4
3.5550075 -12.471687 1.1345935 87
2.3173015 -8.1349497 -1.3397049 1
3.549063 -12.467339 1.5916138 65
3.5441716 -12.450155 -1.5894201 22
3.5462832 -12.465837 2.0527334 61
3.5484796 -12.481832 -1.1352907 62
3.5346811 -12.441556 2.5140994 78
3.5456917 -12.488603 -0.68036753 65
3.3701408 -11.870279 2.8487802 26
3.5451071 -12.494838 -0.22670676 87
2.9494972 -10.40251 2.8972204 71
1.3584673 -4.8135448 -1.3401651 18
3.5249312 -12.498466 0.22667186 70
1.4569304 -5.1693397 -1.2399302 26
3.523334 -12.501154 0.68068153 76
1.6994652 -6.0339088 -1.2185063 4
3.5244257 -12.521765 1.1380796 89
2.3074279 -8.2034407 -1.3497167 1
3.5157585 -12.507704 1.5952698 63
3.4282005 -12.196206 -1.5555404 19
3.5070624 -12.485135 2.0539849 61
3.5049143 -12.485857 -1.1345935 37
3.5024183 -12.485345 2.520587 85
3.5080333 -12.513753 -0.68110019 65
3.3176095 -11.834479 2.8375325 36
3.5085075 -12.523854 -0.2270209 90
2.9222758 -10.438278 2.9044673 63
1.3440528 -4.8236055 -1.341718 18
3.4920504 -12.540908 0.22723033 70
1.4450049 -5.1929164 -1.2444292 22
3.4893084 -12.548013 0.68256563 76
1.6831285 -6.0527515 -1.2211776 2
3.4892836 -12.556419 1.1401714 87
2.2886693 -8.2415009 -1.3547227 1
3.4816937 -12.546074 1.5986823 63
3.3829527 -12.198535 -1.5543218 21
3.4713728 -12.525856 2.0586779 61
3.3911231 -12.236288 -1.1108871 21
3.4688582 -12.52527 2.5263112 82
3.420701 -12.359776 -0.67209846 21
3.2570586 -11.776493 2.8208864 30
3.4429283 -12.457001 -0.22558981 36
2.8935375 -10.476348 2.9122322 63
1.3307914 -4.8413072 -1.3453414 15
3.4450734 -12.541451 0.2270209 52
1.4320278 -5.2167215 -1.2489282 21
3.4507694 -12.579376 0.68361229 76
1.6671836 -6.0775228 -1.2249938 2
3.4464869 -12.572365 1.14052 87
2.2692814 -8.2837324 -1.3603542 1
3.4473126 -12.592614 1.6030694 63
3.3508284 -12.248564 -1.5591965 21
3.4344013 -12.562667 2.0627451 61
3.355221 -12.273034 -1.1131531 25
3.4292531 -12.552454 2.5293641 82
3.3743815 -12.360081 -0.6714704 21
3.2025955 -11.73891 2.8091888 32
3.3862743 -12.42071 -0.22471718 32
2.8630443 -10.508752 2.9184437 58
1.3194445 -4.8664327 -1.3510355 24
3.3772197 -12.464616 0.22541527 29
1.4143186 -5.2235694 -1.2493782 17
3.4162273 -12.626048 0.68549639 73
1.6490355 -6.0946765 -1.2272835 2
3.4103818 -12.613169 1.1431347 85
2.2516875 -8.3335571 -1.3672374 1
3.4054048 -12.612237 1.6040444 60
3.3152905 -12.287017 -1.5626088 22
3.4013276 -12.614631 2.0693154 67
3.3201399 -12.313527 -1.1157678 21
3.3935897 -12.594678 2.5354702 78
3.3343303 -12.383355 -0.67209846 21
3.1453977 -11.689799 2.7947919 33
3.3465333 -12.445972 -0.22496152 32
2.7807257 -10.348905 2.8713386 20
1.3084383 -4.8934045 -1.3572472 26
3.3471093 -12.526559 0.2263228 29
1.4006013 -5.245419 -1.2534273 14
3.3772838 -12.657194 0.68654317 76
1.6307884 -6.1117768 -1.2295732 2
3.3745439 -12.655799 1.1459237 84
2.2307215 -8.3719063 -1.3722433 1
3.3674893 -12.647066 1.6069694 63
3.2734027 -12.302351 -1.5630963 22
3.3608263 -12.639791 2.0715053 61
3.2843049 -12.351999 -1.1182082 25
3.3556545 -12.629215 2.5400493 72
3.2992859 -12.425805 -0.67377317 21
3.0895798 -11.6442 2.7812948 22
3.3117788 -12.490438 -0.2255549 32
2.7411215 -10.345476 2.8677151 56
1.2952892 -4.9128861 -1.3613882 26
3.3140626 -12.578773 0.2270558 35
1.3882365 -5.2728906 -1.2588261 16
3.3371463 -12.684359 0.68738055 73
1.6174365 -6.1478109 -1.2356791 2
3.33744 -12.694477 1.1483641 85
2.211524 -8.4178534 -1.3785007 1
3.3308814 -12.687545 1.6106254 65
3.2344708 -12.329064 -1.5650463 22
3.3241985 -12.680107 2.0761983 63
3.2502623 -12.398078 -1.1213458 21
3.323988 -12.688331 2.5495899 80
3.261961 -12.460432 -0.67502922 21
3.0380647 -11.613438 2.7713971 15
3.2727115 -12.519334 -0.22586904 32
2.7162223 -10.397971 2.8796208 61
1.2776459 -4.9155083 -1.3608706 22
3.2756655 -12.611556 0.22743976 29
1.3752072 -5.2984529 -1.263775 16
3.2998688 -12.722995 0.68884593 76
1.5939951 -6.1458178 -1.2341527 2
3.3006036 -12.73498 1.1509787 87
2.1910415 -8.4599428 -1.3841324 1
3.2965219 -12.737529 1.6155001 65
3.202347 -12.38256 -1.5704085 22
3.2828832 -12.703109 2.0780756 63
3.2119515 -12.428638 -1.1230888 21
3.2840965 -12.716965 2.5530245 74
3.229425 -12.514288 -0.67733198 21
3.0466547 -11.81456 2.8168371 14
3.2319863 -12.542299 -0.22607847 32
2.685209 -10.427969 2.8853149 63
1.2657542 -4.9405231 -1.3665646 26
3.234597 -12.634537 0.2276492 29
1.3615336 -5.3221006 -1.2682741 19
3.2685492 -12.776437 0.6911487 65
1.5764229 -6.1665606 -1.2372056 2
3.2610629 -12.765728 1.1527219 89
2.1614969 -8.4675398 -1.3841324 1
3.2569458 -12.768195 1.6179376 68
3.1649895 -12.416746 -1.5733334 22
3.2465944 -12.736896 2.08183 63
3.1744487 -12.462943 -1.1251806 21
3.2459793 -12.753085 2.5579855 80
3.1950772 -12.562261 -0.67932075 14
3.0087569 -11.838343 2.8199863 32
3.1977649 -12.58202 -0.22660203 29
2.6567953 -10.461157 2.8920441 69
1.2537023 -4.9655151 -1.3722585 22
3.1995347 -12.672338 0.22813785 35
1.3453079 -5.3322549 -1.2696238 16
3.2278388 -12.803262 0.69198608 65
1.5606425 -6.1948714 -1.241785 2
3.2213471 -12.796354 1.154465 87
2.148838 -8.5359602 -1.3941442 1
3.2213662 -12.805877 1.6213499 65
3.1315391 -12.457976 -1.5772332 22
3.2107766 -12.782636 2.0874617 57
3.1367459 -12.497139 -1.1272724 21
3.2070174 -12.777107 2.560657 74
3.1568027 -12.586349 -0.68005347 14
2.9562173 -11.795328 2.807389 38
3.16257 -12.628021 -0.22723033 32
2.6277676 -10.500352 2.9003263 69
1.2418965 -4.9883919 -1.377435 22
3.1620398 -12.710596 0.22862652 29
1.3299769 -5.3501568 -1.2727731 16
3.1879416 -12.833835 0.6930328 68
1.541038 -6.2038236 -1.2425482 2
3.1889744 -12.847574 1.1581255 84
2.1237829 -8.562582 -1.3972728 1
3.1799881 -12.830529 1.6230561 63
3.0956702 -12.499661 -1.581133 22
3.1737294 -12.824446 2.0924675 63
3.1019869 -12.534548 -1.1297127 21
3.1694667 -12.816813 2.5663812 72
3.1200366 -12.626374 -0.68162352 21
2.8996098 -11.743142 2.7925425 35
3.1270928 -12.673931 -0.22785862 29
2.5430021 -10.314389 2.8464918 22
1.2281573 -5.0077066 -1.3815762 21
3.1224136 -12.740978 0.22897558 29
1.3145384 -5.3680162 -1.2759224 14
3.1497695 -12.872045 0.69449818 65
1.5259061 -6.2358627 -1.2478909 2
3.15026 -12.883787 1.1603916 80
2.1220129 -8.6850796 -1.4160448 1
3.143187 -12.874335 1.6271995 66
3.0581338 -12.535463 -1.5843016 22
3.1364312 -12.866154 2.0974736 63
3.0667088 -12.580141 -1.1328503 21
3.1312144 -12.854502 2.5717237 65
3.0801928 -12.654655 -0.68256563 14
2.8447843 -11.696386 2.7790453 30
3.0894463 -12.711973 -0.22834729 29
2.5074399 -10.325082 2.8470097 54
1.2124846 -5.019474 -1.3836466 19
3.0910556 -12.806229 0.2299529 29
1.3044741 -5.4085655 -1.2844704 16
3.1123056 -12.914028 0.69617295 68
1.5078092 -6.2564197 -1.2509438 2
3.1094658 -12.912139 1.1619604 82
2.097229 -8.7154799 -1.4197993 1
3.106117 -12.91804 1.6313431 63
3.0199242 -12.569221 -1.5872264 22
3.0928838 -12.882785 2.098412 57
3.0266218 -12.616484 -1.1351163 25
3.093194 -12.89399 2.5774479 68
3.0434513 -12.696405 -0.68424034 21
2.7912283 -11.653181 2.766448 35
3.0478451 -12.734349 -0.22855672 29
2.4799216 -10.369468 2.8568447 71
1.1980995 -5.0407996 -1.3883054 19
3.0481856 -12.824722 0.23009254 29
1.2909895 -5.4358387 -1.2898693 16
3.0745864 -12.955906 0.69784772 65
1.4903045 -6.2848272 -1.2555233 2
3.0662537 -12.940897 1.1635292 78
2.0698218 -8.7423306 -1.4229281 1
3.0678654 -12.957779 1.6349993 68
2.9819732 -12.6048 -1.590395 22
3.0569839 -12.931951 2.1046696 63
2.9876015 -12.648301 -1.1370338 21
3.0513246 -12.928171 2.5820274 68
3.0051479 -12.742466 -0.68612444 21
2.7368782 -11.614017 2.7547505 35
3.009798 -12.772159 -0.22904538 29
2.4494648 -10.402507 2.863574 75
1.1840171 -5.0599999 -1.3924465 19
3.0061677 -12.857227 0.23047648 35
1.2723882 -5.4462266 -1.291219 16
3.0338902 -12.996262 0.69941777 63
1.4719268 -6.3052864 -1.2585762 2
3.0296633 -12.988387 1.166841 82
2.0491581 -8.7918253 -1.4298111 1
3.025305 -12.990203 1.6376804 77
2.9420516 -12.642714 -1.5938075 22
3.0162776 -12.971929 2.1093626 64
2.9484372 -12.690218 -1.1398228 21
3.0128438 -12.967426 2.5877516 72
2.9642632 -12.768442 -0.68696183 14
2.6835501 -11.568447 2.7417035 18
2.9697382 -12.812325 -0.22956894 33
2.4187324 -10.44341 2.8723738 69
1.1710961 -5.0887794 -1.3991758 17
2.9715841 -12.912464 0.2312793 29
1.256863 -5.4658284 -1.2948182 14
2.9911909 -13.018452 0.70004582 63
1.4584723 -6.3527355 -1.2669718 2
2.9900551 -13.03436 1.1699786 82
2.0283954 -8.8493385 -1.4379457 1
2.9808304 -13.004554 1.6381679 60
2.9763436 -12.995399 -1.6369492 18
2.9775867 -13.011263 2.1140556 58
2.9747391 -13.009252 -1.1675383 52
2.9722919 -13.009006 2.5938578 76
2.9330029 -12.847372 -0.69062537 29
2.6367977 -11.559206 2.7372043 9
2.9370041 -12.875253 -0.23051138 30
2.3878443 -10.476274 2.8791032 54
1.1580946 -5.1056218 -1.4027992 19
2.9349375 -12.94955 0.23176797 29
1.2413131 -5.48137 -1.2975177 14
2.9546154 -13.057521 0.70161593 65
1.44024 -6.3649449 -1.2684983 2
2.9552455 -13.070894 1.1724191 85
2.0092897 -8.8942041 -1.4442031 1
2.9490533 -13.064713 1.644505 71
2.9402201 -13.036181 -1.640849 21
2.9387674 -13.040336 2.1171842 58
2.9456804 -13.071012 -1.1722448 55
2.9383099 -13.048923 2.5999634 76
2.9412899 -13.07281 -0.70224392 65
2.6513336 -11.793686 2.7907426 20
2.9350519 -13.066372 -0.23375754 75
2.3082452 -10.28433 2.8242335 32
1.1411076 -5.1134043 -1.4038346 21
2.9193087 -13.092437 0.23414148 64
1.2276815 -5.5103965 -1.3033664 16
2.9159629 -13.098947 0.70329064 65
1.421427 -6.3852649 -1.2715513 2
2.9130602 -13.09669 1.1738135 82
1.9825165 -8.9204473 -1.4473319 1
2.9081657 -13.096245 1.6471862 68
2.9032989 -13.085125 -1.6457237 21
2.8987882 -13.075586 2.1212516 58
2.9047794 -13.102612 -1.1741621 58
2.8991113 -13.087853 2.6056879 72
2.90082 -13.106399 -0.70349997 65
2.6021562 -11.766717 2.7821946 37
2.8963251 -13.10778 -0.23431601 71
2.2760813 -10.309302 2.8288922 62
1.1261506 -5.1305642 -1.4074581 19
2.8761616 -13.114266 0.23435092 70
1.2130276 -5.5355883 -1.3083154 16
2.8779087 -13.144165 0.70517474 65
1.4041674 -6.4132013 -1.2761306 2
2.8724372 -13.130135 1.1759052 90
1.9572715 -8.9543304 -1.451712 1
2.867938 -13.131529 1.6503549 63
2.864378 -13.126209 -1.6496235 18
2.8611231 -13.122295 2.1271961 58
2.8641176 -13.13603 -1.1762538 58
2.8592587 -13.124748 2.6110306 63
2.8626983 -13.151573 -0.70538408 65
2.5478137 -11.714793 2.7677979 33
2.8539507 -13.133442 -0.23459524 75
2.2462296 -10.345504 2.836657 78
1.1151637 -5.1665664 -1.4162579 19
2.8354249 -13.147684 0.23476978 64
1.1969811 -5.5550289 -1.3119146 14
2.8387365 -13.185369 0.70684952 71
1.385079 -6.4334183 -1.2791836 2
2.8353841 -13.180986 1.1795658 84
1.9426073 -9.0383587 -1.4642268 1
2.8291695 -13.174454 1.6544983 68
2.8293674 -13.186593 -1.6559607 18
2.8223393 -13.165039 2.132515 58
2.8261819 -13.182963 -1.1795658 65
2.8171294 -13.151927 2.614465 69
2.820117 -13.17711 -0.70622146 65
2.4767509 -11.582596 2.7345049 24
2.8172822 -13.186347 -0.23536316 78
2.2165561 -10.38351 2.844939 76
1.1011326 -5.1893253 -1.4214342 19
2.7969787 -13.192713 0.23539807 70
1.1787944 -5.5648923 -1.3132643 16
2.7976575 -13.218647 0.70810556 71
1.3666793 -6.4574203 -1.2829998 2
2.7930677 -13.208347 1.1811346 82
1.9298294 -9.1339903 -1.4786187 1
2.7876732 -13.205614 1.6571795 71
2.7853699 -13.2061 -1.6571795 27
2.782886 -13.205736 2.1375208 64
2.787544 -13.227839 -1.1827034 68
2.7695835 -13.153996 2.6129384 45
2.7798605 -13.214236 -0.70768684 65
2.4294918 -11.55875 2.7268567 16
2.7786319 -13.231327 -0.23599143 78
2.188231 -10.428998 2.8552918 75
1.086955 -5.2120485 -1.4266106 19
2.75703 -13.231759 0.23592164 70
1.1641289 -5.591867 -1.3186631 16
2.7547507 -13.243975 0.70894295 68
1.3465283 -6.4736848 -1.2852895 2
2.7542431 -13.253128 1.1842722 82
1.9011465 -9.1561432 -1.4811217 1
2.748013 -13.246365 1.6610793 60
2.7444923 -13.241012 -1.6603481 22
2.7403777 -13.23278 2.1403368 60
2.7478173 -13.268704 -1.1854924 68
2.7109227 -13.102063 2.6007268 22
2.7430165 -13.268846 -0.71009433 58
2.393858 -11.590063 2.7322555 35
2.7368758 -13.262488 -0.23637539 86
2.1525936 -10.440356 2.8563271 48
1.0706943 -5.2252746 -1.4291989 21
2.7180431 -13.276567 0.23654993 70
1.1508505 -5.6264434 -1.3258615 16
2.7149034 -13.28482 0.71061772 68
1.323137 -6.4744983 -1.2845262 2
2.7143397 -13.293896 1.1870612 91
1.8747015 -9.1898212 -1.4855019 1
2.7100842 -13.296721 1.6661978 68
2.6891451 -13.205772 -1.6547421 10
2.6992888 -13.267427 2.1444039 60
2.7042639 -13.291882 -1.1867125 61
2.683162 -13.199944 2.6182814 24
2.7030427 -13.309656 -0.71176904 66
2.3452499 -11.558242 2.7228076 37
2.6973169 -13.30528 -0.23696879 86
2.0751038 -10.245213 2.8009398 38
1.0558794 -5.2460241 -1.4338576 19
2.6772032 -13.313419 0.23703858 70
1.1369612 -5.6590858 -1.33261 14
2.6763735 -13.33338 0.71271116 68
1.3043915 -6.4983263 -1.2883424 2
2.6718378 -13.322824 1.1888043 90
1.8651211 -9.3086472 -1.5036483 1
2.6702754 -13.339192 1.6703414 71
2.6262927 -13.131377 -1.6442614 5
2.6579936 -13.301951 2.1484711 60
2.6422358 -13.223091 -1.1797401 6
2.6559007 -13.303568 2.6369805 49
2.6608639 -13.340555 -0.71292049 66
2.2949872 -11.516667 2.7111101 28
2.6543715 -13.332264 -0.23728292 86
2.0446045 -10.278919 2.8081868 62
1.0405567 -5.2648396 -1.4379987 19
2.6334257 -13.336417 0.23728292 70
1.1175773 -5.6649313 -1.3330599 16
2.6356096 -13.372033 0.7142812 74
1.2877752 -6.533659 -1.2944483 2
2.6330144 -13.371166 1.1922905 90
1.8326162 -9.3151016 -1.5036483 1
2.6263778 -13.362065 1.6720475 66
2.5639915 -13.056706 -1.6337806 5
2.6195295 -13.351856 2.1550415 66
2.5822518 -13.161849 -1.1734649 6
2.5973632 -13.251106 2.6247687 45
2.6108255 -13.332124 -0.71197844 7
2.249908 -11.499746 2.7052615 11
2.6151071 -13.378736 -0.23794611 86
2.0175982 -10.331498 2.82061 64
1.0276924 -5.2968869 -1.4457633 19
2.5948477 -13.386753 0.23801592 70
1.1007601 -5.684104 -1.3366592 17
2.5938497 -13.406644 0.71564192 68
1.2724198 -6.576664 -1.3020806 2
2.5916176 -13.407662 1.1947309 90
1.8000891 -9.3214417 -1.5036483 1
2.5838559 -13.392592 1.6747286 63
2.5078788 -13.010998 -1.6269559 5
2.5788844 -13.391954 2.1600473 60
2.5257444 -13.116002 -1.1685842 6
2.5418179 -13.211896 2.6152282 42
2.5484395 -13.258779 -0.70758218 7
2.2483408 -11.708476 2.7525012 24
2.5631139 -13.360289 -0.23745745 11
1.9884313 -10.374529 2.8304453 68
1.0110024 -5.3099313 -1.4483514 19
2.5540833 -13.427162 0.2385744 52
1.0852785 -5.710885 -1.3420579 16
2.5531056 -13.434793 0.71668863 71
1.2567781 -6.6196423 -1.309713 2
2.551856 -13.453819 1.1980428 84
1.7748967 -9.3664856 -1.5099056 1
2.5437374 -13.43664 1.679116 66
2.4499488 -12.941226 -1.6172063 5
2.5370302 -13.414019 2.1622374 60
2.46663 -13.05426 -1.1623089 6
2.4876735 -13.178245 2.6068327 47
2.4925182 -13.216563 -0.70486069 7
2.2087789 -11.712037 2.7516012 37
2.4954691 -13.244912 -0.23525845 7
1.9604502 -10.415237 2.8397627 72
0.99445397 -5.3189516 -1.4499043 14
2.494489 -13.354963 0.23714329 5
1.069909 -5.7336092 -1.3465569 17
2.5133023 -13.468709 0.71804935 52
1.2362593 -6.6314931 -1.3112395 4
2.5097806 -13.475919 1.199263 82
1.7546664 -9.4305811 -1.5192918 1
2.507509 -13.489888 1.6847219 71
2.399039 -12.906342 -1.6118441 5
2.5008299 -13.467028 2.1694334 60
2.4080608 -12.980092 -1.1549879 3
2.4346569 -13.136232 2.5969105 47
2.4261329 -13.102996 -0.69837105 7
2.158221 -11.656064 2.7367544 35
2.4388046 -13.184294 -0.23403677 7
1.9318689 -10.453976 2.8485625 39
0.97959989 -5.3374209 -1.4540454 15
2.4379263 -13.296287 0.23595653 5
1.0551037 -5.760128 -1.3519558 16
2.4490154 -13.383098 0.71302515 5
1.2177954 -6.6548681 -1.3150556 4
2.4679451 -13.499847 1.2006575 82
1.7411283 -9.5335093 -1.5349351 1
2.4698884 -13.537187 1.6895967 71
2.3454311 -12.867767 -1.6059943 5
2.4591124 -13.504827 2.1741264 61
2.3535819 -12.925281 -1.1494099 6
2.3791366 -13.078562 2.5839355 44
2.3783827 -13.087388 -0.697115 7
2.111253 -11.629013 2.7286563 33
2.3799202 -13.121892 -0.23278019 7
1.8499031 -10.209737 2.7802343 24
0.96506858 -5.3636236 -1.4602571 17
2.3801794 -13.241735 0.23483957 5
1.0377452 -5.7791204 -1.3555551 16
2.3913522 -13.330623 0.70978028 5
1.1973312 -6.6745377 -1.3181087 2
1.7148014 -9.5784187 -1.5411925 1
2.4254155 -13.561358 1.6915467 77
2.2900269 -12.817252 -1.5986823 5
2.4182057 -13.548332 2.1797581 61
2.30425 -12.90988 -1.1473181 3
2.3238194 -13.032669 2.5732503 38
2.3235762 -13.044487 -0.69439352 7
2.0624547 -11.590266 2.7178588 41
2.3271031 -13.090742 -0.2320821 7
1.819994 -10.248468 2.7890344 52
0.95304924 -5.4050093 -1.4706099 19
2.3228412 -13.186942 0.23372263 5
1.0209439 -5.8019004 -1.3600541 17
2.3313205 -13.262172 0.70569807 5
1.1794645 -6.7096138 -1.3242146 2
2.351239 -13.389194 1.1893272 7
1.6799918 -9.5765629 -1.5399411 1
2.2346585 -12.764551 -1.5911263 5
2.3777041 -13.595609 2.1860156 67
2.2475019 -12.851116 -1.1413916 3
2.2681761 -12.982682 2.5618017 25
2.2581129 -12.938402 -0.68832254 7
2.0122776 -11.54172 2.7048113 41
2.2683551 -13.023926 -0.23075573 7
1.7911642 -10.294727 2.7999046 58
0.93779331 -5.429244 -1.4763039 21
2.2645552 -13.12403 0.23246606 5
1.0039953 -5.8246331 -1.3645531 17
2.2755222 -13.215117 0.70276725 5
1.158035 -6.7252989 -1.3265042 2
2.2950318 -13.34234 1.1844466 9
1.6579256 -9.6485615 -1.5505786 1
2.3051584 -13.429268 1.6730225 5
2.1961284 -12.807491 -1.5955136 7
2.3215604 -13.553203 2.177881 6
2.1959014 -12.819608 -1.1379054 6
2.2264862 -13.011806 2.5659995 14
2.2075529 -12.914707 -0.68664783 7
1.9637766 -11.500651 2.6935639 33
2.2087567 -12.948973 -0.22928971 7
1.7600839 -10.329483 2.8076692 32
0.91980237 -5.438199 -1.4778568 19
2.2100694 -13.080589 0.23155853 5
0.98690039 -5.8473177 -1.3690522 16
2.2214098 -13.175713 0.70025522 5
1.1410801 -6.7680187 -1.3341365 4
2.2352092 -13.27168 1.177474 7
1.6353794 -9.7205219 -1.5612161 1
2.2493839 -13.384377 1.6664416 5
2.1596229 -12.864022 -1.601607 7
2.2644367 -13.502779 2.1684947 6
2.1577308 -12.866493 -1.1413916 6
2.2092743 -13.187956 2.5992002 36
2.1624565 -12.922335 -0.68664783 7
1.9159098 -11.461306 2.6827662 35
2.1582744 -12.925045 -0.22873124 7
1.7942623 -10.756684 2.9220672 28
0.90333861 -5.4566236 -1.481998 19
2.1539538 -13.025091 0.23044157 5
0.97251856 -5.8872576 -1.3776002 14
2.1617465 -13.10062 0.69585896 5
1.1209642 -6.7932687 -1.3383343 4
2.1772017 -13.208632 1.1711988 8
1.6014383 -9.7261715 -1.5612161 1
2.1858971 -13.290291 1.6537671 5
2.120822 -12.9087 -1.606238 5
2.1980944 -13.393642 2.1497226 6
2.1140954 -12.881812 -1.1420889 6
2.1594145 -13.172338 2.5946209 47
2.1173375 -12.929803 -0.68664783 7
1.869284 -11.427537 2.6733184 22
2.1066933 -12.893031 -0.22803316 10
1.6748598 -10.26144 2.7859285 40
0.88830101 -5.4845343 -1.4887272 21
2.0957012 -12.953569 0.22904538 5
0.95351589 -5.9002357 -1.3798498 16
2.1051817 -13.041048 0.69230008 5
1.102563 -6.8300891 -1.3448219 2
2.1228366 -13.165009 1.1666667 7
1.5725034 -9.7629061 -1.566222 1
2.1328697 -13.256682 1.6486486 5
2.0820501 -12.955222 -1.6111128 5
2.1381779 -13.319316 2.1365821 5
2.0748007 -12.924522 -1.1452264 6
2.1028523 -13.113887 2.581646 44
2.0747161 -12.952892 -0.68748522 7
1.8343086 -11.464781 2.6805167 16
2.0654635 -12.924001 -0.228452 10
1.6320245 -10.223348 2.7740226 12
0.87247515 -5.5085907 -1.4944212 17
2.0485985 -12.948955 0.22883596 5
0.93626088 -5.9247017 -1.3847986 14
2.0468805 -12.96743 0.68800855 5
1.0836132 -6.8649235 -1.3509278 2
2.0663171 -13.105426 1.1607401 10
1.5470209 -9.8229723 -1.5749824 1
2.0736272 -13.181685 1.6384115 5
2.0395865 -12.980062 -1.6133065 5
2.0873835 -13.299379 2.1322021 5
2.03338 -12.955306 -1.1473181 6
2.050679 -13.080416 2.573632 40
2.0319626 -12.975842 -0.68832254 7
1.8195747 -11.632842 2.7183084 33
2.026511 -12.970647 -0.2291501 7
1.5957335 -10.225163 2.7729874 48
0.85737938 -5.5383296 -1.5016681 14
2.0082731 -12.987648 0.22939444 5
0.91914344 -5.9510446 -1.3901975 16
2.0073886 -13.012001 0.68999732 7
1.0626366 -6.8880682 -1.354744 4
2.0096354 -13.041669 1.154465 8
1.5193336 -9.8712654 -1.5818655 1
2.0200608 -13.139792 1.6323181 5
1.9990873 -13.018495 -1.6172063 5
2.032563 -13.251912 2.1234417 5
1.9947914 -13.00565 -1.151153 6
1.9981674 -13.042861 2.5648546 46
1.994512 -13.034185 -0.69104403 7
1.774835 -11.612154 2.7120099 39
1.9836366 -12.993456 -0.22942933 7
1.5530419 -10.184836 2.7605641 44
0.83861876 -5.5451093 -1.5027034 17
1.9694976 -13.038078 0.23016234 5
0.90301639 -5.9850478 -1.397396 14
1.9667177 -13.050529 0.69167209 7
1.040634 -6.9053245 -1.3574153 4
1.9635074 -13.044663 1.1541163 12
1.4995511 -9.9741802 -1.597509 1
1.9659274 -13.091797 1.6254934 8
1.9583427 -13.056804 -1.6211061 5
1.976927 -13.196412 2.1134298 5
1.9541037 -13.044061 -1.153942 6
1.9462367 -13.00704 2.5564592 46
1.9537235 -13.072675 -0.6927188 7
1.7270986 -11.570093 2.7007623 43
1.9418087 -13.024035 -0.22984821 7
1.5143505 -10.169178 2.7548699 26
0.82151586 -5.563292 -1.5068446 17
1.9251394 -13.052787 0.23030196 5
0.88495976 -6.0074425 -1.4018949 14
1.922315 -13.065217 0.69209075 7
1.0173815 -6.9147415 -1.3585601 4
1.9202764 -13.067208 1.1555108 12
1.47161 -10.02626 -1.6050178 1
1.9187782 -13.088759 1.6242748 8
1.91678 -13.091059 -1.6245185 5
1.919417 -13.125049 2.100915 5
1.9091357 -13.054745 -1.1542907 6
1.8925931 -12.957418 2.5453923 42
1.9144236 -13.122894 -0.69502157 7
1.681362 -11.539412 2.6922143 39
1.9043958 -13.086142 -0.23082553 11
1.4766221 -10.159107 2.7507288 22
0.80484658 -5.585247 -1.5120209 14
1.8892517 -13.126723 0.23148872 5
0.86453879 -6.0143528 -1.4027947 14
1.8826559 -13.113364 0.69428885 7
0.99909645 -6.9590607 -1.366574 4
1.8808744 -13.11722 1.1593457 12
1.4422046 -10.070444 -1.6112752 1
1.8750439 -13.109134 1.625981 8
1.8758456 -13.131076 -1.628662 5
1.8719159 -13.119936 2.0990379 11
1.8686198 -13.096833 -1.1574283 6
1.8390424 -12.905638 2.5339437 40
1.8742326 -13.169043 -0.697115 7
1.6355865 -11.506624 2.6832161 41
1.8637657 -13.128346 -0.23145382 7
1.4408799 -10.162288 2.7502112 22
0.79278129 -5.6337972 -1.5244442 14
1.8457111 -13.132916 0.23148872 5
0.84892428 -6.0480633 -1.4099932 14
1.84332 -13.149204 0.69585896 7
0.97955757 -6.9876108 -1.3715351 4
1.8439953 -13.170741 1.1635292 12
1.4137253 -10.110385 -1.6169068 1
1.8365049 -13.150666 1.6303681 8
1.8353068 -13.158852 -1.6313431 5
1.8327585 -13.157376 2.1040437 5
1.830676 -13.142426 -1.1609144 6
1.7910954 -12.874719 2.5266929 25
1.8360504 -13.21475 -0.69920844 7
1.5896522 -11.456007 2.6701691 43
1.8251605 -13.170107 -0.2320821 11
1.4061137 -10.159354 2.7481406 24
0.77704895 -5.6652389 -1.5322088 12
1.8069147 -13.19079 0.23239625 5
0.83150452 -6.078021 -1.4162918 14
1.803898 -13.203052 0.69837105 7
0.95675468 -7.0026584 -1.3738248 2
1.8036675 -13.218552 1.1671896 10
1.3912272 -10.209208 -1.6319245 1
1.794872 -13.188469 1.634268 8
1.7957803 -13.212386 -1.637193 2
1.7905405 -13.191096 2.1084239 5
1.7949739 -13.223758 -1.1675383 6
1.7448256 -12.871163 2.5247848 14
1.7899091 -13.22108 -0.69920844 7
1.5433881 -11.415138 2.6593714 45
1.780784 -13.18829 -0.23229153 7
1.3678013 -10.143143 2.7424467 12
0.75880373 -5.6794062 -1.5353146 12
1.7693202 -13.260445 0.23351321 5
0.81337249 -6.1040664 -1.4216906 14
1.7630702 -13.248864 0.70046449 7
0.93385959 -7.0176325 -1.3761146 2
1.759088 -13.236618 1.1682355 10
1.3605211 -10.251209 -1.637869 3
1.7529976 -13.226139 1.6381679 8
2.3966811 -18.106909 -2.2426398 4
1.7475899 -13.220766 2.1121783 11
3.0485253 -23.062529 -2.0352609 9
1.7222394 -13.046511 2.5579855 23
1.749492 -13.270809 -0.7015112 7
1.499208 -11.38761 2.6517229 39
1.7433391 -13.259851 -0.23344338 3
1.7377876 -13.235499 3.5768793 27
0.74121648 -5.6992617 -1.5399734 14
1.7245685 -13.278438 0.23372263 5
0.79632121 -6.1397214 -1.4293389 16
1.7224559 -13.298512 0.70276725 7
0.91440111 -7.0597892 -1.3837469 4
1.7149189 -13.258487 1.1696301 12
1.3308011 -10.302915 -1.6453779 11
1.7129138 -13.279429 1.6440176 8
2.349694 -18.241167 -2.258239 4
1.7074785 -13.273808 2.1196871 5
2.969274 -23.082909 -2.0361323 54
1.6749368 -13.038812 2.5553141 38
1.7178982 -13.391735 -0.70758218 7
1.4557341 -11.36378 2.6449745 31
1.6937776 -13.258732 3.581538 38
0.72374225 -5.7209797 -1.5451498 14
1.6837225 -13.328023 0.23449054 5
0.77659202 -6.1559982 -1.4324883 16
1.6787705 -13.326243 0.7039187 7
0.89122444 -7.0746255 -1.3860366 2
1.6758373 -13.321719 1.1746851 12
1.2908906 -10.276136 -1.6403719 15
1.6685272 -13.301085 1.6459675 8
2.3017948 -18.37532 -2.2738385 4
1.6655484 -13.314968 2.1253188 5
1.6226002 -12.990032 2.5446289 36
1.4122041 -11.337852 2.6377761 15
2.8734694 -23.10244 -0.40636182 8
1.6532017 -13.310574 3.5939615 14
0.70659769 -5.7464805 -1.5513614 19
1.6405988 -13.361607 0.2349792 5
0.75794518 -6.1818824 -1.4378871 13
1.6356406 -13.359776 0.70538408 7
0.86986387 -7.1049752 -1.3913792 2
1.6341623 -13.36704 1.1781713 13
1.2528577 -10.262933 -1.6375562 22
1.6259305 -13.338357 1.6498674 8
2.2582686 -18.552711 -2.2948 4
1.6219201 -13.344233 2.1290734 5
1.5713313 -12.946893 2.5350883 34
2.8198102 -23.267591 -1.228325 23
1.3829211 -11.427835 2.6575716 22
2.7820106 -23.022993 -0.40479112 24
1.3595766 -11.267903 3.0411241 14
0.68928307 -5.7719302 -1.5575731 21
2.7614722 -23.158388 0.40709481 22
0.73912573 -6.2077112 -1.4432859 13
1.5925329 -13.395152 0.70695418 8
0.84691161 -7.1235642 -1.3944323 2
1.5921913 -13.412233 1.1816576 13
1.2137702 -10.239781 -1.633176 22
1.5828605 -13.37352 1.6535234 8
1.5790337 -13.381201 2.1340792 5
2.7367325 -23.191883 -2.0431049 100
1.522454 -12.921103 2.5289826 31
2.7434714 -23.318949 -1.2305231 12
1.3264244 -11.291307 2.6247289 15
2.6902158 -22.935247 -0.40308076 32
1.3186613 -11.25915 3.0375006 19
0.67224425 -5.8011675 -1.5648201 15
2.6700416 -23.076509 0.40548921 22
0.7205838 -6.2373557 -1.4495846 14
2.6795728 -23.229874 1.2254988 23
0.82249105 -7.1303773 -1.3951955 2
1.5483258 -13.44344 1.1839236 11
1.1744094 -10.212557 -1.6281701 22
1.5411514 -13.422351 1.6588856 8
1.5354598 -13.414108 2.1384594 5
2.6346881 -23.017204 -2.0268939 9
1.4719925 -12.879524 2.5198238 38
2.6620584 -23.328382 -1.2305231 12
1.2876639 -11.301679 2.6260786 22
2.595222 -22.813362 -0.40077707 32
1.2806605 -11.275199 3.0406063 52
0.65328419 -5.8149972 -1.5679258 21
2.5787759 -22.990301 0.40381378 22
0.70271081 -6.2746925 -1.4576828 14
2.5880373 -23.145798 1.2205793 31
0.80414104 -7.1917381 -1.406644 2
2.3250344 -20.826574 1.8334082 7
1.1345959 -10.179293 -1.6222256 15
1.5013131 -13.490783 1.6666852 8
1.4912411 -13.442945 2.1422138 6
2.535877 -22.859921 -2.0122519 17
1.422053 -12.839705 2.5110466 36
1.2509855 -11.331285 2.6319275 45
2.5063703 -22.738802 -0.39931107 32
1.2431966 -11.296884 3.045265 47
0.6361165 -5.8460503 -1.5756904 21
2.4864171 -22.887835 0.4018591 22
0.68206429 -6.2887311 -1.4603822 13
2.4954016 -23.045481 1.2148224 31
0.78177965 -7.2198749 -1.411605 4
2.2495372 -20.808811 1.8311421 11
1.0956647 -10.151767 -1.6172197 15
1.8642346 -17.301172 2.1366136 43
1.1456885 -10.650112 -1.315214 6
1.4514791 -13.514849 2.1528513 6
2.3969183 -22.317917 -1.9637932 8
1.3711567 -12.78798 2.4999795 30
1.2147372 -11.366586 2.6391258 33
2.4180739 -22.663898 -0.39784506 40
1.3852495 -13.005069 3.50441 12
0.61833614 -5.8732109 -1.5824198 15
2.3952177 -22.788982 0.39997426 22
0.66214252 -6.3104544 -1.4648812 13
2.4043326 -22.952745 1.2094841 30
0.7590279 -7.2459912 -1.4161844 4
2.172328 -20.772945 1.8273073 10
1.0577601 -10.131953 -1.6134652 15
1.8011574 -17.281906 2.1334448 30
1.1068633 -10.63825 -1.3132643 18
1.5177641 -14.612265 2.3268065 6
2.3109713 -22.248859 -1.956995 33
1.3228633 -12.757539 2.4931104 20
1.3677582 -13.235515 3.0719316 29
2.3315566 -22.600594 -0.39658847 31
1.3348985 -12.961782 3.4914691 16
0.60017765 -5.8983965 -1.5886314 15
2.3075736 -22.717627 0.39857808 22
0.64227325 -6.334054 -1.4698302 11
2.313735 -22.857666 1.2040411 30
0.73728788 -7.2837553 -1.4230535 5
2.0957992 -20.740753 1.8238209 10
1.0204051 -10.115931 -1.6103365 18
1.7292836 -17.173532 2.1193082 12
1.4653677 -14.603714 2.3246164 13
2.2253366 -22.177492 -1.9500225 32
1.2746066 -12.724963 2.4858599 14
2.2327526 -22.329853 -1.1760937 11
1.3238715 -13.263476 3.0773304 33
2.2405596 -22.487213 -0.39445931 39
1.1433768 -11.495753 3.0954759 10
0.58071768 -5.9119911 -1.5917372 14
2.2173319 -22.614094 0.3966234 22
0.62357605 -6.3711677 -1.4779284 9
2.2257786 -22.782116 1.1996449 30
0.7128135 -7.2960539 -1.4249617 2
2.0183592 -20.696384 1.8192888 10
0.98279071 -10.095838 -1.6065822 15
1.6670239 -17.155754 2.1163833 12
1.4119072 -14.583181 2.320549 13
2.1392686 -22.095886 -1.9421785 32
1.2362249 -12.791868 2.4980717 14
2.1448205 -22.234137 -1.1706508 11
1.1141336 -11.57072 2.683666 11
2.150574 -22.375465 -0.39236498 23
1.1015813 -11.482367 3.0908172 14
0.56062436 -5.9197521 -1.5932901 12
2.1300993 -22.5341 0.39508757 22
0.60316306 -6.3927069 -1.4824274 9
2.136692 -22.688337 1.1943066 29
0.69102335 -7.3375902 -1.4325941 5
1.9405086 -20.643795 1.8140596 14
0.94403732 -10.061838 -1.6006377 14
1.6050905 -17.13973 2.1137023 12
0.99595577 -10.655188 -1.3139954 4
1.3620962 -14.599822 2.3224263 46
2.0499134 -21.97229 -1.930674 32
1.201575 -12.903618 2.5190604 31
2.0605435 -22.169893 -1.1668826 11
1.0717586 -11.553194 2.6787171 13
2.0654469 -22.307171 -0.3910386 38
1.0618489 -11.489988 3.0918524 43
0.54100883 -5.9332161 -1.596396 12
2.0418243 -22.435852 0.39323762 32
0.58172673 -6.4044776 -1.484677 8
2.0493643 -22.606148 1.1895964 29
0.66700041 -7.3575544 -1.4360286 5
1.8705903 -20.674255 1.8161514 47
0.9044674 -10.015888 -1.5928159 14
1.5416898 -17.105686 2.1088274 12
0.96195698 -10.694187 -1.3183827 2
1.3158935 -14.657609 2.3308737 53
1.9673237 -21.913826 -1.9249216 23
1.1538988 -12.878403 2.5133362 36
1.97496 -22.085442 -1.1620677 11
1.0309024 -11.551041 2.6773674 30
1.9795861 -22.224615 -0.38946792 30
1.0253268 -11.534036 3.1027229 52
0.52130753 -5.9466152 -1.5995017 12
1.9556528 -22.353199 0.39166692 21
0.55919766 -6.4045277 -1.4842271 3
1.9598675 -22.491791 1.1832114 29
0.64335942 -7.3833084 -1.4406079 5
1.7999651 -20.698523 1.8177202 29
0.86727929 -9.9933996 -1.5887486 12
1.4756345 -17.037788 2.0998089 12
0.92940748 -10.752855 -1.3252074 2
1.2681156 -14.701474 2.3371313 67
1.8837976 -21.839176 -1.917775 31
1.1052331 -12.839319 2.5049405 38
0.99207467 -11.572044 2.6814167 46
1.8963672 -22.16564 -0.38831607 38
0.50087136 -5.9522491 -1.6005371 12
1.8692464 -22.260254 0.38992167 32
0.53879082 -6.4297438 -1.4896258 3
1.8748504 -22.420872 1.1791292 29
0.61938149 -7.4070296 -1.4448059 2
1.7146162 -20.547827 1.8039496 10
0.83157194 -9.9865246 -1.5871843 14
1.4145061 -17.023054 2.0973716 12
1.2138596 -14.670374 2.3314996 39
1.8009834 -21.766191 -1.9108025 31
1.0579852 -12.81375 2.4992163 32
0.95439023 -11.608454 2.689065 13
1.8083574 -22.042578 -0.38604724 37
1.0379345 -12.678831 3.4086471 14
0.48133233 -5.9693661 -1.6046782 12
1.7860789 -22.198874 0.38873488 21
0.51774693 -6.4490681 -1.493675 3
1.7879654 -22.319773 1.1734769 28
0.59587449 -7.4385014 -1.4505301 5
1.6381174 -20.494104 1.7987201 10
0.79466552 -9.963768 -1.583117 12
1.3531878 -17.004141 2.0944467 12
1.1582724 -14.619385 2.3227391 39
1.7174376 -21.677011 -1.9024355 38
1.0101572 -12.778223 2.4915841 36
1.7212749 -21.822182 -1.1472043 11
1.1141559 -14.156694 3.2784367 22
1.7246739 -21.963034 -0.38454631 37
0.91807002 -11.717475 3.1493101 3
0.45930463 -5.9556007 -1.6005371 12
1.7009083 -22.105284 0.38698968 21
0.49582881 -6.4586082 -1.4954746 3
1.7044024 -22.252195 1.1696041 28
0.57140577 -7.4601116 -1.4543462 5
1.5630774 -20.454006 1.794711 10
0.75747752 -9.9349661 -1.5781111 12
1.2914144 -16.977091 2.0905468 12
1.1033577 -14.572125 2.3146045 39
1.63394 -21.579563 -1.8933713 30
0.96155202 -12.728813 2.4812803 38
1.6399893 -21.760342 -1.1436454 11
1.0670722 -14.19159 3.2856352 25
1.6409643 -21.875196 -0.38290578 36
0.8764416 -11.710976 3.1467221 15
0.44063932 -5.9860673 -1.6083016 12
1.6149507 -21.991425 0.38489538 21
0.47499025 -6.4836221 -1.5008734 3
1.6205997 -22.174349 1.1652079 35
0.54779321 -7.495347 -1.4608337 5
1.4887718 -20.419594 1.7912247 14
0.7210747 -9.9139071 -1.5743566 12
1.2312829 -16.969616 2.0890844 12
1.0499253 -14.540423 2.3089728 39
1.5530092 -21.507637 -1.8865732 30
0.91401231 -12.689013 2.4728849 38
1.5585811 -21.690231 -1.1396679 11
0.84601063 -11.802469 2.7318058 11
1.5601761 -21.818958 -0.38182375 36
0.83583331 -11.717818 3.1477573 28
0.42109284 -6.0068398 -1.6134779 10
1.5325962 -21.917137 0.38349918 21
0.45343986 -6.500792 -1.5044726 3
1.5396941 -22.074001 1.1596602 35
0.5233984 -7.5226741 -1.4657948 5
1.4156936 -20.398827 1.7889588 14
0.68509871 -9.8966579 -1.571228 12
1.1693071 -16.934202 2.0842097 12
0.99857944 -14.4985 2.3017769 32
1.4723221 -21.431429 -1.8794264 7
0.86676067 -12.649035 2.464489 30
1.4757762 -21.591925 -1.1342249 11
0.80388039 -11.791739 2.7286563 13
1.4801959 -21.71229 -0.37986907 43
0.79893643 -11.749436 3.1555219 45
0.40230533 -6.0410423 -1.6222779 12
1.4548604 -21.846277 0.38217279 31
0.43265465 -6.5139275 -1.5071721 3
1.4565587 -21.98757 1.1548454 41
0.49817139 -7.5401273 -1.4688478 5
1.3412044 -20.353945 1.784601 14
0.64967954 -9.8594532 -1.5649706 12
1.1109312 -16.904314 2.0800662 12
0.68979287 -10.524215 -1.2949837 2
0.94577324 -14.468387 2.2964582 19
1.3964685 -21.420532 -1.8780318 14
0.82276779 -12.620495 2.4583833 28
0.76464665 -11.792397 2.7282064 46
1.3989789 -21.633512 -0.37840307 43
0.75941002 -11.775289 3.1617336 12
0.3814162 -6.0288472 -1.6186544 10
1.3736801 -21.77339 0.38081151 31
0.41187173 -6.5465159 -1.5143706 3
1.3784946 -21.910551 1.1505538 34
0.47464049 -7.5652504 -1.4734272 5
1.2720827 -20.332428 1.7823349 31
0.6142754 -9.8458891 -1.5624677 12
1.0499468 -16.876389 2.0761664 12
0.64149916 -10.340318 -1.2720723 2
0.89729935 -14.463557 2.2952068 13
1.3288716 -21.480726 -1.8829125 15
0.77641046 -12.586059 2.4511325 22
0.72550815 -11.828059 2.7358546 41
1.3223341 -21.558195 -0.37700689 36
0.77048028 -12.597247 3.3817298 5
0.36059892 -6.033999 -1.6196897 10
1.2957425 -21.682009 0.37913609 20
0.39097235 -6.5614624 -1.5175198 3
1.2967944 -21.827505 1.1459483 33
0.44915754 -7.58254 -1.4764801 5
1.2032177 -20.372543 1.7854724 56
0.57929337 -9.8084326 -1.5562103 12
0.99245906 -16.854013 2.0729976 12
0.60708916 -10.340406 -1.2718287 6
0.85292405 -14.571118 2.3117888 13
0.73421276 -12.580724 2.4496059 16
0.83637959 -14.417875 3.3342245 21
1.2415313 -21.466854 -0.37533146 35
0.68858308 -11.94219 3.2052152 8
0.34213898 -6.0815115 -1.632113 10
1.2102209 -21.5788 0.37725124 30
0.36735576 -6.5706339 -1.5193194 3
1.2125601 -21.756334 1.1419708 33
0.42530951 -7.6311069 -1.4856389 5
1.1289994 -20.320919 1.7805917 17
0.53645658 -9.6862316 -1.5364995 14
0.92914718 -16.82979 2.0695853 12
0.57038528 -10.364365 -1.2745097 2
0.80026966 -14.587953 2.3139789 39
1.1821495 -21.549164 -1.888142 32
0.69506627 -12.710752 2.4744112 30
1.1793467 -21.636147 -1.1355858 100
0.78627843 -14.471437 3.345922 23
1.1598146 -21.41535 -0.37435412 42
0.64449555 -11.938847 3.2036622 15
0.32172325 -6.098103 -1.6362541 10
1.1308987 -21.507008 0.37592483 30
0.34380564 -6.5601997 -1.5166199 3
1.1320269 -21.672672 1.1373651 39
0.40061578 -7.6697955 -1.4928896 5
1.0523642 -20.215305 1.7710047 10
0.50663465 -9.7649813 -1.5487014 12
0.86885446 -16.803194 2.0659294 12
0.53256983 -10.334573 -1.2706099 6
0.7487368 -14.578821 2.3121016 53
1.10488 -21.513363 -1.8846557 100
0.65289915 -12.756237 2.4828069 44
1.1065618 -21.693987 -1.1384119 11
0.61179799 -12.035471 2.7821946 3
1.0806019 -21.331394 -0.37281832 42
0.6034013 -11.9526 3.206768 36
0.30090925 -6.1088357 -1.6388422 12
1.0526832 -21.446911 0.37480789 30
0.32252312 -6.5944495 -1.5242684 3
1.0510181 -21.566774 1.1316082 39
0.37431747 -7.6809521 -1.4947978 5
0.97995663 -20.181044 1.7676928 10
0.47178143 -9.750906 -1.5461985 14
0.80933625 -16.788279 2.0637355 16
0.49515849 -10.30861 -1.2671976 2
0.69482046 -14.518205 2.3020899 45
1.0233003 -21.38176 -1.8728025 100
0.60715318 -12.732944 2.4778459 50
0.56959653 -12.033639 2.7812948 11
1.0016153 -21.239157 -0.37114286 42
0.56303495 -11.98358 3.2145329 50
0.27993739 -6.1175685 -1.6409128 12
0.97417021 -21.370552 0.37341172 30
0.29950127 -6.5955353 -1.5242684 3
0.97266299 -21.502474 1.1280493 26
0.34874639 -7.7096696 -1.5001404 5
0.90627646 -20.11269 1.7614175 10
0.4365012 -9.7248659 -1.5418184 12
0.74993294 -16.773155 2.061542 16
0.45475546 -10.211119 -1.2550106 2
0.6419493 -14.471207 2.2942681 45
0.94459563 -21.293644 -1.8647844 46
0.56114286 -12.699681 2.4709766 50
0.52767426 -12.037501 2.7817447 28
0.9238041 -21.158619 -0.36967689 41
0.54419875 -12.514298 3.3563654 11
0.25841737 -6.1146479 -1.6398776 12
0.89603472 -21.289907 0.37194568 20
0.2779462 -6.631587 -1.5323665 3
0.89418137 -21.423922 1.1237577 26
0.32355061 -7.7520323 -1.5081544 2
0.83507359 -20.091843 1.7593257 10
0.40124631 -9.6947508 -1.5368123 12
0.68974179 -16.736002 2.0566673 24
0.41699266 -10.161076 -1.2486733 9
0.58998096 -14.437832 2.2886364 45
0.86700922 -21.21718 -1.8578118 85
0.51497316 -12.656445 2.4621994 44
0.4872244 -12.078212 2.7907426 39
0.84673291 -21.081789 -0.36828068 41
0.501284 -12.535426 3.361542 9
0.23811989 -6.1425381 -1.6471245 12
0.8183201 -21.204985 0.37040988 20
0.25509501 -6.640306 -1.5341661 3
0.81649429 -21.351072 1.1197803 19
0.29678982 -7.7609615 -1.5096809 5
0.76296371 -20.042868 1.7547936 10
0.36620471 -9.6645098 -1.5318065 12
0.63274115 -16.775999 2.0612984 40
0.77399194 -20.616541 -2.5331764 5
0.53758621 -14.386506 2.280189 39
0.78609431 -21.036905 -1.8417752 14
0.46896777 -12.609118 2.4526591 42
0.54213512 -14.714698 3.3994603 19
0.77064669 -21.016674 -0.36709392 34
0.445124 -12.19732 3.2704377 11
0.21749468 -6.1665001 -1.6533362 12
0.74134958 -21.123775 0.36894387 20
0.23211829 -6.6469984 -1.5355159 3
0.7389105 -21.265966 1.1151747 19
0.27072054 -7.7913818 -1.5154052 5
0.69127494 -19.99563 1.7504359 10
0.33158517 -9.6400642 -1.5277392 10
0.57506025 -16.803894 2.0644667 28
0.69985998 -20.55563 -2.5253766 14
0.48683101 -14.3725 2.2776861 19
0.69937164 -20.647245 -1.8074358 39
0.42408946 -12.585172 2.4476981 40
0.49193841 -14.751558 3.4075587 22
0.6940971 -20.923304 -0.36541849 33
0.4009515 -12.150529 3.2574966 13
0.19621275 -6.1749454 -1.6554067 12
0.66546381 -21.058281 0.36775711 9
0.21007815 -6.6847763 -1.544064 3
0.6614266 -21.164608 1.1097317 18
0.24401131 -7.8079772 -1.518458 5
0.62035841 -19.962074 1.7472982 7
0.29110029 -9.4200268 -1.4926978 13
0.51109552 -16.633179 2.0432615 3
0.62822384 -20.561918 -2.5258644 4
0.43534037 -14.330674 2.270803 13
0.62602645 -20.60774 -1.8037752 39
0.37920922 -12.555177 2.441592 30
0.62238169 -20.726202 -1.0867039 10
0.36606473 -12.261857 2.8321338 2
0.61933839 -20.867634 -0.36440626 33
0.35916361 -12.173096 3.2631907 43
0.174876 -6.1833167 -1.6574773 12
0.59015411 -20.996511 0.36664015 9
0.18777548 -6.7224803 -1.5526122 3
0.58950901 -21.104794 1.1064868 12
0.21713695 -7.8225193 -1.5211295 5
0.54935735 -19.916319 1.7431147 7
0.26211187 -9.563159 -1.5152245 9
0.45238483 -16.61105 2.0403366 3
0.27959171 -10.332594 -1.2691474 4
0.3862105 -14.272799 2.2614169 12
0.55146152 -20.512209 -1.795234 39
0.33438486 -12.519135 2.4343412 22
0.54843998 -20.668352 -1.0835637 10
0.32305637 -12.255268 2.8303342 6
0.5478161 -20.781616 -0.36287045 20
0.31965342 -12.207049 3.2719903 31
0.15362608 -6.1974087 -1.6611006 10
0.51824361 -20.906393 0.36503452 9
0.16572221 -6.7328067 -1.5548617 3
0.51412994 -21.03684 1.1028234 12
0.1907822 -7.8624825 -1.5287617 5
0.47906479 -19.886248 1.7403258 6
0.23068406 -9.5758247 -1.5171016 8
0.39739233 -16.616426 2.0408242 3
0.24381799 -10.269959 -1.2613478 2
0.33559522 -14.240488 2.2560983 6
0.47766915 -20.420391 -1.7870414 38
0.29185906 -12.476995 2.4259458 15
0.47897026 -20.630121 -1.0814704 10
0.28263861 -12.266013 2.8325837 18
0.47362748 -20.711432 -0.36161387 19
0.31981727 -14.093094 3.7772052 13
0.13348909 -6.2171979 -1.6662771 10
0.44321933 -20.812113 0.36335912 9
0.14254835 -6.7489309 -1.558461 3
0.43927434 -20.970615 1.0992646 6
0.16520223 -7.8866258 -1.5333412 2
0.41224727 -19.845896 1.7366652 6
0.19676837 -9.5528717 -1.5133473 8
0.33865973 -16.581989 2.036437 3
0.41115493 -20.305319 -2.4936907 4
0.28604448 -14.249473 2.2573495 6
0.40910956 -20.380033 -1.7833809 38
0.24646679 -12.385684 2.4080098 3
0.40569624 -20.567766 -1.0781208 10
0.24073583 -12.313685 2.8433812 20
0.4000468 -20.64698 -0.36046201 13
0.27010167 -14.067083 3.7699585 6
0.11209783 -6.2350097 -1.6709359 12
0.36971632 -20.765545 0.36252138 9
0.11885252 -6.7415938 -1.5566614 1
0.36488238 -20.904125 1.0957056 12
0.13842441 -7.9303398 -1.5417367 5
0.34255838 -19.823309 1.7345735 3
0.16345608 -9.5554752 -1.5136601 4
0.28057161 -16.571161 2.0349743 3
0.1681909 -10.037203 -1.2325866 2
0.23630239 -14.250384 2.2573495 6
0.3365795 -20.297667 -1.7760596 37
0.20294242 -12.368801 2.4045751 1
0.33182359 -20.44125 -1.0714217 10
0.32695851 -20.584269 -0.35934505 13
0.22108907 -14.073735 3.7715113 4
0.090473384 -6.2450213 -1.6735239 10
0.29625517 -20.698729 0.36133462 9
0.096117966 -6.7984748 -1.5697085 3
0.29029563 -20.789442 1.0896348 6
0.11079706 -7.934701 -1.5425 5
0.27313736 -19.808447 1.7331791 3
0.12966858 -9.5243835 -1.5086541 3
0.22240719 -16.548222 2.0320497 3
0.13262658 -9.9980307 -1.2277118 6
0.18728143 -14.306429 2.2661099 6
0.26502064 -20.244928 -1.7713534 25
0.15984322 -12.375324 2.40572 13
0.18887603 -15.029446 3.4700949 5
0.25374061 -20.475311 -0.3574253 13
0.15237153 -12.471104 3.3418717 7
0.068801664 -6.2568893 -1.6766298 12
0.22348142 -20.651646 0.36049691 9
0.072282359 -6.7890263 -1.567459 1
0.21707377 -20.728416 1.0863899 12
0.083282977 -7.9527073 -1.5459346 5
0.20354177 -19.765448 1.7293442 3
0.096822277 -9.5642843 -1.5149114 1
0.16436282 -16.521105 2.0286372 3
0.09749423 -9.9746132 -1.224787 9
0.13739973 -14.312921 2.2670486 12
0.19366439 -20.174007 -1.7650781 24
0.11719757 -12.434701 2.4171684 15
0.18185693 -20.430079 -0.35662249 13
0.10850081 -12.432923 3.3315189 9
0.046916209 -6.251296 -1.6750768 12
0.15063199 -20.548317 0.35868186 9
0.048807532 -6.820416 -1.5746574 1
0.14428639 -20.667133 1.083145 17
0.055742361 -7.9843616 -1.5520406 5
0.13412528 -19.704275 1.7239405 6
0.06364546 -9.5961695 -1.5199175 1
0.10637343 -16.471952 2.0225437 7
0.12561285 -19.99147 -2.4546924 27
0.087314703 -14.29356 2.2639198 19
0.12267997 -20.082914 -1.7570598 18
0.090079851 -15.179616 2.9506705 2
0.11682948 -20.283827 -1.063048 10
0.069862582 -12.508768 2.8879216 2
0.11002405 -20.334606 -0.35494706 12
0.065080568 -12.429363 3.3304837 7
0.025203971 -6.2784677 -1.6823239 12
0.078517146 -20.448736 0.35693663 19
0.024998536 -6.8205452 -1.5746574 3
0.071915582 -20.601603 1.0796909 17
0.027995482 -8.019845 -1.5589095 5
0.065303504 -19.692671 1.7228948 6
0.030042417 -9.5627508 -1.5145986 3
0.048799872 -16.446419 2.0193753 7
0.055795018 -19.979877 -2.4532301 4
0.037344057 -14.264147 2.2592268 31
0.052390818 -20.011492 -1.7507845 12
0.037149701 -15.203397 2.9552498 5
0.045797855 -20.18425 -1.0578145 10
0.026191385 -12.505038 2.8870218 16
0.038939554 -20.282873 -0.35403952 12
0.021666275 -12.41406 3.3263423 9
0.003299088 -6.3016992 -1.6885355 11
0.0071181771 -20.388893 0.35588947 19
0.0011908609 -6.820591 -1.5746574 3
-8.9686341e-07 -20.517843 1.0752947 23
-3.5244869e-07 -8.0630865 -1.5673052 5
-0.0034280454 -19.650938 1.7192342 6
-0.0033929604 -9.7228041 -1.5399411 7
-0.0085990895 -16.422668 2.0164504 11
-0.007015218 -10.048534 -1.2338053 18
-0.012402941 -14.214808 2.2514052 38
-0.017419092 -19.963736 -1.7466011 12
-0.013239847 -12.643353 2.4576201 4
-0.024581082 -20.120373 -1.0544649 10
-0.017491011 -12.528439 2.8924208 14
-0.031746197 -20.210897 -0.35278293 19
-0.021638907 -12.398605 3.3222013 9
