# .PCD v0.7 - Point Cloud Data file format
VERSION 0.7
FIELDS x y z intensity
SIZE 4 4 4 4
TYPE F F F F
COUNT 1 1 1 1
WIDTH 1430
HEIGHT 1
VIEWPOINT 0 0 0 1 0 0 0
POINTS 1430
DATA ascii
4.3600941 4.378396 0.10785587 2
2.4576943 2.4671519 -0.80397505 7
4.2956858 4.3107076 0.31893536 1
2.7000215 2.7085176 -0.74339187 5
4.2318459 4.2436805 0.52432895 4
2.9863749 2.9947264 -0.66985244 1
3.3077936 3.3147292 -0.57497966 2
3.7082717 3.713454 -0.45913643 1
4.2261381 4.230567 -0.31338775 1
2.2799454 2.2743802 -0.8629027 9
2.4607718 2.4530542 -0.80217546 7
2.7117705 2.7023199 -0.74415511 7
2.9716148 2.9591951 -0.66422081 1
3.3066792 3.290561 -0.57278597 2
3.6979647 3.6786547 -0.45634744 1
4.2295465 4.204525 -0.31255037 1
2.293359 2.2718477 -0.86497331 9
2.4679339 2.443079 -0.80172557 7
2.7211862 2.6928384 -0.74415511 6
3.0353012 3.0015845 -0.67610979 1
3.3294418 3.2901599 -0.57473588 2
3.713619 3.6685236 -0.45669609 1
4.2242994 4.1700907 -0.31108496 1
2.2847495 2.2475705 -0.85876161 9
2.4833961 2.4412796 -0.80397505 7
2.7291689 2.6819477 -0.74377352 7
3.0034766 2.9494495 -0.66672373 1
3.3508234 3.2882512 -0.576442 2
3.7320902 3.6611202 -0.45739332 1
11.212455 10.995398 3.0525625 9
4.2787666 4.1944671 -0.31401578 2
2.3008718 2.2476819 -0.86186743 9
2.5002699 2.440763 -0.80667448 7
2.7371082 2.6710341 -0.74339187 6
3.0476968 2.9720459 -0.67423266 1
3.3480651 3.2626796 -0.57400465 2
3.7334311 3.6369472 -0.45599884 1
4.2933807 4.1795068 -0.31401578 2
4.48068 4.3587971 -0.10911245 2
2.3059311 2.2369456 -0.86083221 9
4.4415851 4.3072042 0.10799549 2
2.5101733 2.4333773 -0.80712438 7
4.487875 4.3490548 0.32751846 1
2.7520554 2.6669281 -0.74491841 7
4.4633799 4.3238068 0.54367751 1
3.0353472 2.9394033 -0.66922677 1
4.4542408 4.3119411 0.76119596 3
3.3694189 3.2606368 -0.57571083 2
3.7518306 3.6294348 -0.45669609 1
4.2878394 4.145061 -0.31255037 1
4.4297109 4.2792187 -0.10750683 2
2.3192914 2.2342432 -0.8629027 9
4.4220228 4.2583842 0.10715777 4
2.514441 2.4205453 -0.80577469 7
4.3763866 4.2114902 0.31830731 3
2.7613487 2.6573048 -0.74491841 6
4.3506532 4.1852679 0.52816379 4
3.0484374 2.9315271 -0.66985244 1
4.4406447 4.2688513 0.75632119 1
3.3736227 3.2419789 -0.57449216 2
3.7903407 3.64116 -0.45983368 1
4.4095798 4.2345481 1.1883584 112
4.388731 4.213058 -0.3188307 1
4.4720407 4.290031 -0.10817002 6
4.3642626 4.1851811 1.6202073 35
2.3318806 2.2322903 -0.86497331 9
4.4498258 4.2582979 0.10750683 7
2.5304813 2.4207168 -0.80847406 7
4.4170208 4.223948 0.32029608 5
2.7711015 2.6499736 -0.74529999 7
4.3853817 4.1922312 0.53077847 5
3.0776253 2.9410431 -0.67423266 1
4.3722157 4.1767211 0.74242812 3
3.388099 3.2354765 -0.57522333 2
4.4422846 4.2406926 0.97270966 23
3.8023937 3.6285717 -0.45983368 1
4.4214401 4.2193193 1.1879768 100
4.4221797 4.2185469 -0.32029608 1
4.4666786 4.2580242 -0.10771625 6
2.3288429 2.2130828 -0.86083221 9
4.4748106 4.2523804 0.10775116 7
2.5389163 2.4118683 -0.80847406 7
4.4389787 4.2153816 0.32081944 7
2.7793713 2.6384485 -0.74491841 6
4.3920493 4.1678977 0.52973258 6
3.0883834 2.929744 -0.67423266 1
4.375246 4.1505051 0.74047816 10
3.4065731 3.2304599 -0.576442 2
4.3395061 4.1137204 0.94705439 7
3.8150356 3.6152778 -0.45983368 1
4.378438 4.1477294 1.1723305 29
4.3616595 4.1289434 1.3865983 14
4.4974904 4.2575269 -0.10810021 4
4.3147497 4.0831132 1.5917372 3
2.3365545 2.2049394 -0.86083221 9
4.4845471 4.230463 0.10761154 7
2.5534101 2.4078953 -0.81027371 7
4.46312 4.2073026 0.32144746 5
2.7942791 2.6341164 -0.74644482 6
4.4181685 4.163476 0.5311271 6
3.1072192 2.9270718 -0.67610979 1
4.3860946 4.1303573 0.73974699 8
3.4212811 3.220675 -0.57692951 2
4.3603082 4.1032033 0.94830585 9
3.8160257 3.5910144 -0.4584392 1
4.3213916 4.0651603 1.1532496 11
4.4173303 4.1539612 -0.31778398 1
4.2979517 4.0402827 1.3618537 12
4.2621002 4.0037832 1.5668906 7
2.3555138 2.2073381 -0.86497331 9
2.5561104 2.3936386 -0.80847406 7
2.8063228 2.6270304 -0.74720806 6
4.4588618 4.1725311 0.53426468 1
3.1260741 2.924304 -0.67798704 1
4.410634 4.1245136 0.74145311 5
3.439754 3.2154899 -0.57814825 2
4.3731623 4.0866084 0.94799298 9
3.8401837 3.5885537 -0.45983368 1
4.3240771 4.0393305 1.1501967 9
4.4318047 4.1385155 -0.31778398 1
4.3191524 4.0319033 1.3641032 8
4.276051 3.9888799 1.5668906 8
2.363205 2.1991017 -0.86497331 9
2.5587404 2.3793952 -0.80667448 7
2.8183522 2.6198912 -0.7479713 6
3.1073151 2.8864877 -0.67172968 1
4.5690145 4.2428193 0.76558328 3
3.4334998 3.1872561 -0.57522333 2
4.5198827 4.1957254 0.97677696 2
3.8614471 3.583261 -0.46087953 1
4.3698177 4.0535846 1.1585923 3
4.330339 4.0141559 1.3632034 7
4.5667558 4.2333102 -0.10869358 2
4.3005915 3.9851811 1.5710317 8
2.3680286 2.1882174 -0.86393797 9
4.5381536 4.1935587 0.10785587 2
2.5723431 2.3761854 -0.80847406 7
4.479795 4.1367331 0.31956339 1
2.8173816 2.6007164 -0.74529999 7
4.4498129 4.1061707 0.52973258 1
3.1284847 2.8868837 -0.67423266 1
4.6034861 4.246489 0.76899564 1
3.4542663 3.1852715 -0.57692951 2
4.580977 4.2227669 0.98678869 2
3.8944452 3.5886614 -0.46331993 1
4.526166 4.1707811 1.1963725 1
4.4304938 4.0811868 -0.31569052 1
4.4253602 4.0721779 1.6114074 1
2.3667326 2.1725149 -0.86083221 9
2.5921111 2.3777297 -0.81207329 7
2.824543 2.5900331 -0.74491841 6
4.489841 4.1156263 0.53287023 1
3.1385434 2.8759449 -0.67423266 1
4.6621943 4.2706203 0.77630776 1
3.4756098 3.1825812 -0.57863569 2
3.8857498 3.5568922 -0.46087953 1
4.5754576 4.1867657 1.2055314 1
4.4447098 4.0657001 -0.31569052 1
4.5022964 4.1140447 1.6341835 1
2.3771579 2.1668427 -0.86186743 9
2.5917509 2.3607938 -0.80937392 7
2.8335674 2.580157 -0.74491841 7
3.1281075 2.8463597 -0.66985244 1
4.6888218 4.2650046 0.77825767 1
3.4778864 3.1624155 -0.57717323 2
3.8892953 3.5352666 -0.45983368 1
4.4500055 4.0421019 -0.31506249 1
4.5538268 4.1320572 1.6476421 1
2.3933012 2.1663096 -0.86497331 9
2.5999751 2.3517332 -0.80937392 7
2.8600318 2.5860503 -0.74949777 6
3.1644063 2.8592625 -0.67548412 1
4.7331443 4.2752228 0.78313243 1
3.4918504 3.1529179 -0.57766074 2
3.9341512 3.5510375 -0.46366853 1
4.464087 4.026545 -0.31506249 1
2.3994112 2.156651 -0.86445564 9
2.6019619 2.337888 -0.80757427 7
2.8734233 2.5799866 -0.75064266 7
3.1709309 2.8461132 -0.67485833 1
4.7827554 4.2913213 0.78898221 1
3.5052431 3.143971 -0.57814825 2
3.9316854 3.5239861 -0.46192542 1
4.4774165 4.0117183 -0.31506249 1
2.4079902 2.1499698 -0.86497331 9
2.6101062 2.3287916 -0.80757427 7
2.8658459 2.5560699 -0.74644482 7
3.2162378 2.8665719 -0.68236721 1
4.8036332 4.2798834 0.78995717 1
3.5147147 3.1303952 -0.57790446 2
3.9254937 3.495029 -0.45983368 1
4.5301895 4.030581 -0.31778398 1
4.6387439 4.1242676 -0.10834454 2
2.4125898 2.1389871 -0.86393797 9
4.6601815 4.1302395 0.10869358 2
2.6240544 2.3248351 -0.80937392 7
4.6036148 4.0772333 0.32228485 1
2.8776908 2.5486529 -0.74720806 7
4.5930982 4.066493 0.53670508 1
3.1848066 2.81867 -0.67360687 1
4.8601737 4.2999187 0.79678184 1
3.5285921 3.1207402 -0.57839197 2
3.9525964 3.4945033 -0.46157682 1
4.5053124 3.9803641 -0.31506249 1
2.4200408 2.130553 -0.86393797 9
2.6380067 2.3208091 -0.8111735 7
2.8865693 2.5385931 -0.74720806 6
4.5623755 4.0109692 0.53147572 1
3.1886916 2.8023188 -0.67235541 1
4.9019966 4.3065109 0.80116916 1
3.5513971 3.1188822 -0.58034182 2
3.9593866 3.4747365 -0.46087953 1
4.5582161 3.998858 -0.31778398 1
2.4365621 2.1292956 -0.86704385 9
2.6431551 2.3090243 -0.81027371 7
2.9076867 2.5383244 -0.75026101 7
3.2019176 2.7932105 -0.67298114 1
4.9379425 4.3076415 0.80458146 1
3.5622633 3.1064653 -0.58034182 2
3.9714925 3.4608932 -0.46087953 1
10.636223 9.265501 2.7419255 2
4.5728412 3.9821255 -0.31778398 1
2.4498162 2.1258426 -0.8691144 9
2.6516018 2.2993193 -0.81027371 7
2.9313638 2.5410192 -0.7540772 7
3.2086627 2.7794292 -0.67235541 1
4.9536967 4.2895155 0.80458146 1
3.5766261 3.0959873 -0.58082932 2
4.0016298 3.4626527 -0.4629713 1
4.5867147 3.9661376 -0.31778398 1
2.4542952 2.1147554 -0.86807907 9
2.6592107 2.2905154 -0.81027371 7
2.9164088 2.5102787 -0.7479713 6
3.2328343 2.7816598 -0.67548412 1
5.0040121 4.3041329 0.81043118 1
3.5733275 3.0724611 -0.57863569 2
4.9945006 4.2929153 1.0431051 30
4.0227571 3.4564569 -0.46401718 1
4.9720387 4.2721043 1.2742226 20
4.5998425 3.9509048 -0.31778398 1
2.4642293 2.109118 -0.8691144 9
2.679038 2.2913516 -0.81387293 7
2.9247167 2.5005941 -0.7479713 6
3.239521 2.767791 -0.67485833 1
5.0220261 4.2892165 0.81091869 1
3.5961063 3.0702834 -0.5805856 2
5.0064497 4.2728915 1.0424794 7
4.025105 3.4353364 -0.4629713 1
4.9854283 4.2534471 1.2738409 100
4.613605 3.9348249 -0.31778398 1
4.953011 4.2228026 1.502673 16
4.7606263 4.0573463 -0.10918226 2
4.9159608 4.1882482 1.7304642 22
2.4642158 2.0942485 -0.86652619 9
4.7365136 4.0239692 0.10848416 2
2.679594 2.2756782 -0.81162345 7
4.7214875 4.0083671 0.32458761 1
2.9424071 2.4979939 -0.75026101 6
3.2190368 2.730907 -0.66860098 1
5.0733023 4.3024759 0.81676841 1
3.614373 3.0641291 -0.58180428 2
5.0228424 4.2566657 1.0427923 2
4.0370731 3.4212639 -0.4629713 1
4.9837666 4.2220602 1.2696431 10
4.6273112 3.9186976 -0.31778398 1
4.9513612 4.1916356 1.4977242 6
4.9216981 4.1635799 1.7273583 8
2.4759409 2.0893712 -0.86807907 9
2.6860299 2.2650561 -0.8111735 7
2.9601157 2.4952993 -0.75255072 5
4.6697521 3.9350834 0.53426468 2
3.2345922 2.724745 -0.66985244 1
10.035367 8.4505644 1.6108691 2
3.63416 3.0591633 -0.58326674 2
4.055088 3.4122832 -0.46366853 1
5.0225134 4.2248573 1.275749 2
4.6807075 3.935941 -0.32050541 1
4.9302859 4.1414032 1.7252878 4
2.4787765 2.0769939 -0.86652619 7
2.6969087 2.2581677 -0.81207329 7
2.9718196 2.4874709 -0.75331396 6
3.2592354 2.7261119 -0.67298114 1
9.9125166 8.288147 1.5864953 2
3.6356769 3.0388212 -0.58180428 2
4.082263 3.4108829 -0.46541166 1
9.9252901 8.2900019 2.5137179 2
4.6545563 3.8862975 -0.31778398 1
4.9951525 4.1662402 1.7428875 2
2.5023479 2.0819194 -0.87222022 9
2.7047744 2.2487404 -0.81207329 6
2.9744446 2.4720635 -0.75178748 6
3.2656918 2.7121949 -0.67235541 1
9.8283644 8.1596651 1.5684586 2
3.6309874 3.0134337 -0.57936692 2
4.0972123 3.3991559 -0.46576029 1
9.8090925 8.1349936 2.4770825 2
4.6680946 3.8700252 -0.31778398 1
9.7932472 8.1132021 3.4076116 2
2.4917269 2.0584078 -0.86600858 9
2.7287459 2.2534077 -0.81702226 7
2.9860835 2.4641652 -0.75255072 5
3.2838113 2.7088919 -0.67423266 2
9.7052765 8.0032616 1.5445722 2
3.6593409 3.0165291 -0.58229178 2
9.7459259 8.0310688 2.0001712 5
4.1244297 3.3975019 -0.4675034 1
9.708725 7.9975691 2.4450266 2
4.7117376 3.8799169 -0.31987742 1
9.6902151 7.9709725 3.3620596 1
2.5075004 2.0574858 -0.8691144 9
2.7275541 2.2364542 -0.81432283 6
2.9912026 2.4517598 -0.75178748 5
3.2825503 2.6886499 -0.67204249 2
9.6287136 7.8838167 1.527998 2
3.6744561 3.0075099 -0.58302301 2
4.1356745 3.383805 -0.4675034 1
9.5724592 7.8293886 2.4038119 1
4.7252517 3.863447 -0.31987742 1
4.861752 3.9736328 -0.10960111 2
9.5580196 7.8092294 3.3071899 3
2.5221553 2.054822 -0.87170261 7
4.8276792 3.9331522 0.10869358 2
2.7349551 2.2273977 -0.81432283 7
4.8278146 3.9304602 0.32626238 1
3.0027874 2.4437826 -0.75255072 5
3.2883832 2.6752574 -0.67141682 2
9.4638319 7.6965365 1.4977744 2
3.6767082 2.9890461 -0.58180428 2
4.1350889 3.3592987 -0.46610889 1
9.4856081 7.7059989 2.3755722 1
4.7659454 3.8704185 -0.32176149 1
9.4711981 7.6833229 3.2678494 3
2.5338187 2.0496495 -0.87325549 9
2.7400689 2.2149091 -0.81342304 6
4.8608313 3.9278011 0.32751846 1
3.0204623 2.4406886 -0.75484043 5
4.7830176 3.863544 0.53792524 2
3.2981658 2.6631875 -0.67141682 2
4.9321222 3.9811413 0.77825767 1
3.6969092 2.9830289 -0.58326674 2
4.1877007 3.3766348 -0.47064099 1
9.3640146 7.5504103 2.3381736 1
4.7210097 3.8052945 -0.31778398 1
9.3638725 7.539515 3.221262 3
2.5352881 2.0355117 -0.87118495 9
2.7584229 2.2138686 -0.81657231 7
3.0324502 2.4320588 -0.75560367 6
3.3171527 2.6584942 -0.67329407 2
4.8964181 3.9241784 0.7704581 3
3.6933553 2.9589362 -0.58107305 2
4.87536 3.9045036 0.98929167 4
4.1807985 3.3470533 -0.46854928 1
4.8575249 3.8874385 1.2093475 1
4.7754736 3.820406 -0.32050541 1
9.3146849 7.4464703 3.19538 1
2.5363359 2.021832 -0.8691144 9
2.7771881 2.2122436 -0.8197217 7
3.0286353 2.4116743 -0.75255072 6
3.3325961 2.651818 -0.67454553 2
4.9123244 3.9074376 0.77070183 3
3.7274816 2.9639127 -0.58472919 2
4.8827739 3.8825452 0.98804021 4
4.1924539 3.332442 -0.46854928 1
4.8510838 3.8545797 1.2043865 3
4.8263144 3.833528 -0.32301757 1
4.8241839 3.8304634 1.4221406 3
4.8284349 3.8324611 1.6517832 1
2.5539804 2.0213604 -0.87273788 9
2.7768679 2.1969752 -0.8174721 7
3.0462737 2.4083955 -0.75484043 5
3.3429217 2.6419759 -0.67485833 3
4.9828863 3.9366591 0.77972013 1
3.7201526 2.9380028 -0.582048 2
4.9087014 3.8752682 0.99054313 4
4.1852937 3.3029747 -0.46645752 1
4.8545918 3.8311753 1.2020967 3
4.8076386 3.7927628 -0.32092413 1
4.8053641 3.7868888 1.6393598 3
2.5637076 2.0152669 -0.87377316 7
2.7768581 2.1812494 -0.81522262 6
3.0727735 2.4128294 -0.75941986 5
3.3427999 2.6229734 -0.67298114 3
5.2964864 4.1544714 0.826518 1
3.7381973 2.9311228 -0.58326674 2
5.2828922 4.1408257 1.0631288 20
4.2056336 3.2964511 -0.4675034 1
4.894206 3.8347919 1.2085842 1
4.8334279 3.785809 -0.32176149 1
4.8762321 3.8179586 1.4297889 3
4.9949684 3.909524 -0.11071807 2
4.8139906 3.7665193 1.6378069 3
2.5707269 2.006305 -0.87377316 7
4.9664164 3.8746126 0.10995016 2
2.7921369 2.177537 -0.8174721 7
4.9286399 3.8423703 0.32751846 1
3.0656946 2.390017 -0.75560367 5
3.3737502 2.6282873 -0.67736137 3
5.2858977 4.1164412 0.82261819 1
3.734309 2.9070799 -0.58107305 2
5.3269305 4.1454134 1.0690732 2
4.2265463 3.2890952 -0.46854928 1
5.2546725 4.0877061 1.2940667 29
4.8655343 3.7836256 -0.32301757 1
5.2310858 4.066431 1.5296671 42
4.8896608 3.7982807 1.6590302 3
2.5807683 1.9996862 -0.87480837 7
2.7981806 2.1665835 -0.81702226 6
4.9413538 3.8260059 0.32751846 1
3.0740182 2.3793018 -0.75560367 5
4.8707581 3.7686262 0.53879678 1
3.3844671 2.6177022 -0.67767417 3
5.2908111 4.0906801 0.82115573 1
3.7585692 2.9049537 -0.58326674 2
4.2537689 3.2865021 -0.47029239 1
5.3217387 4.1101389 1.3070416 2
4.8787112 3.7666194 -0.32301757 1
5.2127309 4.0215931 1.7641107 19
2.5754828 1.9812428 -0.87066728 7
2.8146195 2.1644194 -0.8197217 6
3.0729637 2.3613803 -0.75331396 5
3.3868642 2.6016505 -0.67642272 3
5.3169417 4.0827861 0.82310557 1
3.7776291 2.8997269 -0.58472919 2
4.2494054 3.2595081 -0.46854928 1
4.8721566 3.7358356 -0.32176149 1
5.3417611 4.0914764 1.8029336 2
2.5881796 1.9773818 -0.87273788 7
2.8283527 2.159312 -0.82152128 6
3.1026275 2.3678508 -0.75865656 5
3.3943534 2.5886147 -0.67610979 3
5.3090611 4.0473514 0.81969327 1
3.7972023 2.8937411 -0.58619159 2
4.2697015 3.2526417 -0.46959516 1
4.9201288 3.7454214 -0.32406428 1
2.6073804 1.9776744 -0.87687898 7
2.8296604 2.1447184 -0.8197217 6
3.1124394 2.3581913 -0.75903821 5
7.0153356 5.3133631 0.76993382 1
3.4002185 2.5743666 -0.67548412 3
5.3516488 4.0503564 0.82408053 1
3.8104453 2.882865 -0.58667904 2
4.3096337 3.2593496 -0.47273275 1
4.9331717 3.7282252 -0.32406428 1
2.6080945 1.9639131 -0.87480837 9
2.8277862 2.1277983 -0.81702226 6
3.1316342 2.3555741 -0.76170951 5
7.0338416 5.2888408 0.76993382 1
3.4107633 2.5636678 -0.67579699 3
3.79509 2.8504705 -0.58277923 2
4.3114243 3.2371097 -0.47168687 1
4.9525471 3.7157755 -0.32448295 1
5.0942836 3.8193393 -0.11113693 2
2.6211226 1.9594245 -0.87687898 7
5.0682392 3.7873921 0.11043882 2
2.835197 2.1179137 -0.81702226 6
5.0169773 3.7463529 0.32814649 1
3.1083772 2.3211341 -0.7540772 6
3.4466052 2.5718303 -0.68111575 3
3.8304787 2.8561928 -0.58667904 2
4.3418665 3.2363296 -0.47377861 1
4.9815063 3.7103949 -0.32552966 1
2.6217406 1.9456586 -0.87480837 7
2.8644872 2.1242545 -0.82332087 6
3.125922 2.317287 -0.75636691 6
4.9847922 3.6939404 0.54280597 2
3.4539752 2.5586071 -0.68080288 3
3.8399286 2.8434753 -0.58667904 2
4.3275123 3.2021911 -0.47098961 1
5.0361805 3.7238584 -0.32825115 1
2.6219583 1.9323686 -0.87273788 7
2.8683779 2.112432 -0.82242107 6
3.141495 2.312727 -0.75827497 3
3.4528942 2.5401146 -0.67892563 2
3.8445399 2.8271968 -0.58594781 2
4.3573747 3.2019789 -0.47308138 1
5.0066452 3.676403 -0.32552966 1
2.6377048 1.9305096 -0.87584364 7
2.8675022 2.097157 -0.82017154 7
3.1570706 2.3080909 -0.7601831 5
7.1051884 5.1925974 0.76993382 1
3.4644885 2.530982 -0.67955142 3
3.8752294 2.8289747 -0.58911645 2
4.3583117 3.1804659 -0.4720355 1
4.9800797 3.6315362 -0.32301757 1
2.6491168 1.9246963 -0.87739658 9
2.8700736 2.0837007 -0.81882185 6
3.179409 2.3074338 -0.76361769 4
7.1232672 5.167769 0.76993382 1
3.4780991 2.5223529 -0.68049002 3
3.8754368 2.8084402 -0.58765399 2
4.3855209 3.1769226 -0.47377861 1
5.0315552 3.6422365 -0.32552966 1
5.1588621 3.7316513 -0.11113693 2
2.6573856 1.9165682 -0.87791425 9
2.8915589 2.0839233 -0.82287097 7
3.1762931 2.2882893 -0.76094633 6
7.141264 5.1428709 0.76993382 1
3.4965017 2.5171204 -0.68236721 3
3.8803806 2.7914205 -0.58692282 2
4.4030552 3.1662469 -0.47447586 1
5.0442357 3.6246541 -0.32552966 1
2.6640601 1.9072797 -0.87791425 7
5.1679273 3.6985085 0.1109275 2
2.9099083 2.0817564 -0.8260203 6
5.0995607 3.6468904 0.32856518 1
3.1906497 2.2817552 -0.76247281 5
3.5084798 2.5071995 -0.68299294 3
3.8917172 2.779011 -0.58716655 1
4.3978634 3.1392832 -0.47273275 1
5.9561815 4.2500725 1.4222903 7
5.0991344 3.6371782 -0.32825115 1
2.664403 1.8934916 -0.87584364 7
2.9092135 2.0659437 -0.82377076 7
3.1857886 2.2615116 -0.75941986 5
5.1036758 3.6216359 0.54751235 1
3.5059323 2.4869361 -0.68080288 2
3.922447 2.7803333 -0.59033519 2
4.3990407 3.1170025 -0.47168687 1
5.1117983 3.6193578 -0.32825115 1
5.9667015 4.219975 1.958225 2
2.6773095 1.888636 -0.87791425 9
2.9052587 2.0479159 -0.82062149 6
3.2097111 2.2616863 -0.76323599 6
3.5258992 2.4826429 -0.68299294 3
5.2968459 3.7282128 0.79531944 1
3.94187 2.7734776 -0.59179759 2
5.3271523 3.7467644 1.0315289 2
4.4261913 3.1130886 -0.47342998 1
5.1244025 3.6014907 -0.32825115 1
2.6902161 1.8837101 -0.8799848 7
2.9219689 2.044466 -0.82332087 6
3.2208035 2.2527196 -0.76399928 6
3.5215902 2.4612682 -0.68049002 3
5.3098264 3.7097018 0.79531944 1
3.9303703 2.7449236 -0.58862901 1
5.2754092 3.6829166 1.0190142 2
4.4337635 3.0953393 -0.47308138 1
5.2565532 3.6683886 1.2459828 1
5.1369433 3.5835798 -0.32825115 1
2.6999474 1.8765138 -0.88102001 7
2.9354908 2.0386996 -0.82512045 6
3.2205834 2.2358658 -0.76209116 5
3.5545063 2.4658487 -0.68518305 3
5.3455806 3.7069829 0.79873174 1
3.9464533 2.7357118 -0.58960396 2
5.3174586 3.6847301 1.0246458 2
4.4510922 3.0843818 -0.47377861 1
5.2515731 3.6377215 1.241785 1
5.1494207 3.5656281 -0.32825115 1
5.2819252 3.6546516 -0.11211426 2
5.2256818 3.6143873 1.7025118 2
2.7001209 1.8626893 -0.87894952 7
5.2777815 3.6395395 0.11190483 2
2.9522154 2.0350771 -0.82781988 6
3.228369 2.2246094 -0.76209116 5
3.5614648 2.4523067 -0.68487018 3
5.4565992 3.7558298 0.81335604 1
3.946166 2.7151692 -0.5881415 1
5.3221502 3.6605499 1.0230815 2
4.4815302 3.0823753 -0.47587034 1
5.2965951 3.6416121 1.2494174 2
5.1618347 3.5476325 -0.32825115 1
5.4133339 3.7177017 -0.11462741 2
5.2032285 3.5720682 1.6911237 4
2.7082012 1.8543433 -0.87946719 9
5.3300576 3.6482029 0.11274255 2
2.9625185 2.0269597 -0.82871968 6
5.2671371 3.6024334 0.33442679 1
3.2539408 2.2255175 -0.766289 5
5.294394 3.6197236 0.56110865 1
3.5651114 2.4365151 -0.68393159 3
5.5549102 3.7949877 0.82603049 1
3.9916835 2.7260079 -0.59350377 1
5.5241466 3.7711432 1.0593743 2
4.495554 3.0689588 -0.47621897 1
5.3271141 3.6352727 1.2536151 2
5.1741858 3.5295937 -0.32825115 1
5.4262791 3.6987817 -0.11462741 2
5.2284346 3.5625901 1.6952648 4
2.7242436 1.8513943 -0.88257295 9
5.4089246 3.6745219 0.11413874 2
2.9631269 2.0122275 -0.82692009 6
5.3980179 3.665736 0.34196317 1
3.2568157 2.2108383 -0.76514411 5
5.2245655 3.5452824 0.55239308 1
3.5850372 2.4318187 -0.68612164 3
5.4991169 3.7287846 0.81579345 1
4.0011754 2.7120566 -0.59350377 2
5.5202699 3.7417214 1.0562457 2
4.5029402 3.0510132 -0.47587034 1
5.5023208 3.726753 1.291777 2
5.2294765 3.5406232 -0.33097261 1
5.3557124 3.6247249 -0.11288217 2
5.2690229 3.5647163 1.7045823 2
2.7338936 1.8440336 -0.88360828 9
5.3481364 3.607362 0.11260293 2
2.9730144 2.0045698 -0.82781988 6
5.3909059 3.633477 0.34070709 1
3.2645137 2.1994555 -0.76514411 4
5.3691115 3.6160626 0.566338 1
3.5914433 2.4188144 -0.68580878 3
5.3500757 3.6018851 0.79190701 1
4.0002666 2.6921222 -0.59204131 2
5.4349575 3.656271 1.0374736 2
4.5267887 3.044172 -0.47726485 1
5.4397073 3.6580908 1.2742226 2
5.2478199 3.5277176 -0.3313913 1
5.3699903 3.6071265 -0.11291707 4
5.4610643 3.6669161 1.7625577 4
2.7432034 1.8371081 -0.88464355 9
5.3374295 3.5731018 0.11211426 2
2.9848526 1.9974306 -0.82916957 6
5.2906718 3.5391223 0.3335894 1
3.2766848 2.1918933 -0.766289 5
5.2684498 3.5229304 0.55448484 1
3.5965803 2.4040666 -0.68518305 2
5.3031979 3.543484 0.78313243 1
4.007987 2.6770427 -0.59179759 2
5.2505445 3.505652 0.99992919 2
4.536859 3.0291429 -0.47726485 1
5.308744 3.5431707 1.2406402 1
5.2102566 3.4761274 -0.32825115 1
5.3675747 3.5783749 -0.11260293 2
5.422389 3.6135471 1.7459934 4
2.7383366 1.8200363 -0.88102001 9
5.3831825 3.5765798 0.11281236 2
2.9966774 1.9902328 -0.83051926 6
5.3063207 3.5228438 0.33379877 3
3.2679591 2.1695843 -0.76247281 5
5.2840362 3.5067203 0.55483341 4
3.6115353 2.3958647 -0.68643451 3
5.2328143 3.4700973 0.77094555 1
4.0255804 2.6685185 -0.59301627 1
5.2627506 3.4873016 0.99992919 2
4.5208325 2.9956782 -0.47447586 1
5.2719765 3.4920943 1.2291917 1
5.2223597 3.4579177 -0.32825115 1
5.3683581 3.5518942 -0.11235859 26
5.3157301 3.5157397 1.7076882 2
2.7462862 1.8115298 -0.88153768 9
5.3372049 3.519238 0.11159069 9
3.0052323 1.9808351 -0.83096921 6
5.3419352 3.5196822 0.33526415 1
3.2984648 2.173285 -0.76781541 5
5.2912536 3.4849651 0.5543105 4
3.6165752 2.3810735 -0.68580878 2
5.2498708 3.4550827 0.77167672 3
4.0415049 2.6588135 -0.59399122 1
5.2286758 3.4385221 0.99116892 4
4.5578947 2.9973979 -0.47726485 1
5.2053895 3.4219036 1.210874 1
5.2343988 3.4396656 -0.32825115 1
5.3606668 3.5199614 -0.11193974 47
5.2213788 3.427197 1.6735239 1
2.7606742 1.8072234 -0.88412589 9
5.3377428 3.4929223 0.11134635 33
3.0056055 1.9660648 -0.82916957 6
5.3358021 3.4889891 0.33411276 15
3.3043883 2.1606827 -0.76743382 5
5.2817044 3.4523036 0.55204445 4
3.6215577 2.3662724 -0.68518305 2
5.2851682 3.4519317 0.77508909 10
4.0540853 2.6468613 -0.59447873 2
5.2356844 3.4170096 0.99023032 4
4.5783415 2.9880021 -0.4783107 1
5.1893506 3.3854752 1.2043865 3
5.2463732 3.4213746 -0.32825115 1
5.3745975 3.5023179 -0.11197464 78
5.1685605 3.3667741 1.6528184 1
2.7799253 1.8059961 -0.88826698 7
5.3482265 3.4731781 0.11131145 78
3.0157185 1.9576839 -0.83006936 6
5.3161125 3.4496891 0.33212399 61
3.3135555 2.1502059 -0.76781541 5
5.3004103 3.4381819 0.55274171 31
3.6430547 2.362215 -0.68768603 3
5.2821918 3.4237485 0.77289546 17
4.0616345 2.6316133 -0.594235 2
5.2608452 3.4073019 0.99273324 7
4.6021228 2.9806659 -0.47970518 1
5.2060781 3.3705447 1.2055314 7
5.258285 3.4030387 -0.32825115 1
5.183485 3.3533468 1.4252899 1
5.3968625 3.4900546 -0.11218407 87
5.1478348 3.3277354 1.6424657 3
2.7797184 1.7920933 -0.88619649 7
5.3653598 3.4577391 0.11141616 83
3.0159814 1.9429231 -0.82826978 6
5.3180475 3.4246218 0.33149597 68
3.3160899 2.1354365 -0.76667058 4
5.2973013 3.4099543 0.55117291 74
3.6579235 2.3537586 -0.68893749 2
5.2724075 3.3913276 0.76972687 29
4.0691252 2.6163464 -0.59399122 1
5.2677212 3.3857143 0.99179459 28
4.6225548 2.9710476 -0.48075107 1
5.2392855 3.3661461 1.2104924 15
5.3138247 3.4127262 -0.33097261 1
5.2033567 3.3404975 1.4275393 11
5.4022813 3.4668734 -0.11204445 85
5.1675501 3.3149598 1.645054 5
2.7794473 1.7782155 -0.88412589 7
5.3773961 3.4389906 0.11141616 85
3.035881 1.9407798 -0.83186901 6
5.3434324 3.4146426 0.33233336 68
3.323523 2.1238489 -0.76667058 4
5.2974181 3.3839359 0.54995275 63
3.664453 2.3399119 -0.68862462 2
5.2708259 3.3643591 0.76777691 63
4.0849266 2.6063986 -0.59496623 1
5.2295442 3.3354373 0.98240852 54
4.6429772 2.9613211 -0.48179695 1
5.2361035 3.3383391 1.2070577 35
5.3829718 3.4306517 -0.33453146 1
5.2232051 3.3275483 1.4297889 22
5.4227829 3.4533663 -0.11221898 90
5.1856079 3.3010521 1.6471245 15
2.7921617 1.7726437 -0.88619649 7
5.3910565 3.4212692 0.11145107 87
3.0459278 1.9322591 -0.8327688 6
5.3721871 3.4066646 0.33338007 70
3.3408649 2.1185424 -0.7689603 4
5.3159299 3.3696892 0.55065 63
3.6759353 2.3292217 -0.68925035 2
5.2875695 3.3491251 0.76850814 64
4.1074181 2.6006181 -0.59691608 2
5.2511697 3.3235023 0.98428577 95
4.6229811 2.9259176 -0.4786593 1
5.219521 3.3021958 1.2005702 80
5.3375206 3.3755457 -0.33097261 1
5.2018437 3.2884703 1.4207909 41
5.4483285 3.4429607 -0.11249821 90
5.1840329 3.2746787 1.6429834 35
2.8048704 1.7670058 -0.88826698 7
5.4131188 3.4088249 0.1116605 87
3.0411093 1.9143487 -0.82961947 6
5.3908086 3.3921449 0.33379877 70
3.3515639 2.1089582 -0.76972359 4
5.3394647 3.3585393 0.55187017 67
3.6907327 2.320581 -0.69050181 2
5.2992287 3.3306465 0.76850814 64
4.1131086 2.5841532 -0.59642857 2
5.2761221 3.313555 0.98678869 80
4.663538 2.9288347 -0.48179695 1
5.2243662 3.2797794 1.1990438 78
5.366188 3.3675113 -0.33201933 1
5.2033868 3.2640777 1.4180914 86
5.4721742 3.4313569 -0.11274255 97
5.1692414 3.2401481 1.6347013 65
2.8110216 1.7572035 -0.88826698 7
5.4402485 3.3994443 0.11197464 100
3.0560367 1.9088843 -0.83186901 6
5.402616 3.3733077 0.33379877 70
3.3655655 2.1014056 -0.77125001 4
5.3680582 3.3504281 0.55361325 72
3.6803739 2.2961843 -0.68706024 2
5.3141913 3.3142307 0.76899564 64
4.1271582 2.5729296 -0.5971598 2
5.2893329 3.296164 0.98710161 87
4.6669688 2.9083245 -0.48109969 1
5.2424474 3.2656763 1.2005702 84
5.3609562 3.3382003 -0.33097261 1
5.2097845 3.2428064 1.4167417 75
5.4926071 3.4175177 -0.11291707 95
5.1903629 3.228204 1.6378069 88
2.8171389 1.7473798 -0.88826698 7
5.4639769 3.3878109 0.11221898 97
3.0659945 1.9002575 -0.8327688 6
5.4177547 3.3565309 0.33400813 68
3.3628676 2.0834403 -0.7689603 4
5.3881898 3.3369167 0.55448484 75
3.7135613 2.2989192 -0.69175333 2
5.3358564 3.3019266 0.7704581 64
4.1209202 2.5491095 -0.59496623 2
5.3058457 3.2807984 0.98804021 80
4.704205 2.908782 -0.48388866 1
5.2655058 3.254581 1.2032416 80
5.4133539 3.3446631 -0.33348474 1
5.2260461 3.2276742 1.4180914 73
5.5011005 3.3962214 -0.11284725 95
5.1983132 3.2080364 1.6367717 91
2.8199296 1.7355123 -0.88723171 7
5.48599 3.3750031 0.1124284 97
3.0759294 1.8915843 -0.83366859 6
5.4430475 3.3459697 0.33484548 68
3.3734634 2.0737476 -0.76972359 5
5.3947134 3.3149571 0.55396187 70
3.7198803 2.2849071 -0.6914404 2
5.3642645 3.2936714 0.77289546 70
4.158555 2.552361 -0.59910977 2
5.3223181 3.2653551 0.98897886 87
4.7177277 2.8944261 -0.48423728 1
5.2852001 3.2413168 1.2051498 85
5.4249969 3.3257451 -0.33348474 1
5.2505741 3.2175565 1.4216906 73
5.5231504 3.3832693 -0.11305669 90
5.2045364 3.186846 1.6352189 93
2.8325655 1.7296846 -0.88930225 7
5.4892039 3.3506222 0.11225387 100
3.0908308 1.8859116 -0.83591807 5
5.4694591 3.3372631 0.33578753 75
3.3840342 2.064003 -0.77048677 4
5.4130569 3.3002532 0.55465913 73
3.7244599 2.2698536 -0.69081473 2
5.3842053 3.2800887 0.77411413 66
4.1640487 2.5357633 -0.59862226 2
5.3449278 3.2548783 0.99116892 80
4.7107825 2.8675816 -0.48249418 1
5.2964835 3.2228467 1.2051498 84
5.2700987 3.204272 1.4239402 75
5.5565534 3.3784392 -0.11351045 97
5.2216783 3.173584 1.6372893 93
2.8385859 1.7197872 -0.88930225 7
5.5122542 3.3396578 0.11249821 97
3.0820656 1.8665667 -0.83186901 6
5.4896183 3.3233209 0.33631086 70
3.4029763 2.0592921 -0.77315807 4
5.4415894 3.2916536 0.55640227 73
3.731966 2.2574911 -0.69081473 2
5.3916574 3.2601604 0.77362669 66
4.1758323 2.5239956 -0.59910977 2
5.3680902 3.2433553 0.99335897 83
4.7309976 2.8572996 -0.48354006 1
5.3054619 3.2042487 1.2047681 80
5.4475088 3.2887414 -0.33348474 1
5.2907057 3.1928205 1.4266397 76
5.5751619 3.3631527 -0.11365007 97
5.2443061 3.1623194 1.6409128 91
2.8575175 1.7183297 -0.89344335 7
5.5375905 3.3286364 0.11277745 97
3.0919034 1.8578033 -0.8327688 6
5.4960465 3.3010569 0.33599687 75
3.4131513 2.05002 -0.77392131 4
5.4627247 3.2797422 0.55744815 73
3.7415175 2.2454658 -0.69112754 2
5.4047046 3.2423451 0.77387041 61
4.1795092 2.5063417 -0.59837854 2
5.3912392 3.2317054 0.99554908 90
4.7506995 2.8477426 -0.48458594 1
5.3351402 3.1968086 1.2089659 84
5.4383941 3.2573919 -0.33222869 1
5.2984753 3.1723294 1.4257398 71
5.600596 3.3518856 -0.11392931 100
5.2652588 3.149946 1.6440187 91
2.8668168 1.7103235 -0.89447862 7
5.556047 3.3133817 0.11291707 97
3.1167822 1.8579763 -0.83771771 5
5.5195475 3.2890074 0.33672959 73
3.4101675 2.0320628 -0.7716316 4
5.4826999 3.2657506 0.55831969 76
3.7680025 2.2435088 -0.69456911 4
5.4398718 3.2376716 0.77728271 70
4.2069993 2.5029008 -0.60105962 1
5.3939977 3.2078195 0.9939847 87
4.7606106 2.8311431 -0.48458594 1
5.3631396 3.1882017 1.212782 85
5.5561852 3.3016448 -0.33871832 1
5.3178935 3.1587923 1.4279894 80
5.6053824 3.3282356 -0.11378969 100
5.2845292 3.136476 1.6466069 93
2.8661199 1.6963693 -0.89240813 7
5.5779033 3.3000805 0.1131265 97
3.1148624 1.8421246 -0.83546823 6
5.5327148 3.2707355 0.33683425 66
3.4256909 2.0251412 -0.77353972 4
5.4854889 3.2415252 0.55744815 73
3.774111 2.2293367 -0.69425625 4
5.4528499 3.219671 0.77752644 70
4.1951952 2.4760933 -0.59813482 1
5.4153709 3.1949925 0.99586189 87
4.7738962 2.8165317 -0.48493454 1
5.3793101 3.1724517 1.2139269 80
5.5676756 3.2822311 -0.33871832 1
5.3389611 3.1461449 1.4306886 80
5.6238585 3.3127069 -0.11392931 100
5.2937799 3.1170313 1.6460892 88
2.86536 1.6824423 -0.89033753 7
5.594563 3.2836251 0.11323121 100
3.1397629 1.8420871 -0.84041709 6
5.5613256 3.2615077 0.33788097 66
3.4361253 2.0151579 -0.7743029 4
5.5088015 3.2294123 0.55866832 75
3.775053 2.2121532 -0.69300479 2
5.4743319 3.2066386 0.7789889 64
4.2106647 2.4654472 -0.59910977 2
5.4401302 3.184051 0.99836493 87
4.7768216 2.7958236 -0.48423728 1
5.3903508 3.1536562 1.2139269 87
5.5790982 3.2627776 -0.33871832 1
5.3583231 3.132405 1.4329382 76
5.6526523 3.3031459 -0.11427836 97
5.3113008 3.1024327 1.6481597 88
2.8812318 1.6782634 -0.89344335 7
5.6111746 3.267096 0.11333593 97
3.1343837 1.8242549 -0.83726782 6
5.5847616 3.249104 0.33861366 68
3.4397457 2.0011761 -0.77353972 4
5.5338197 3.2181745 0.56006277 75
3.7895827 2.2029343 -0.69425625 2
5.4923582 3.191498 0.77996385 71
4.2364111 2.4607036 -0.60154712 2
5.4631686 3.1719863 1.0005549 80
4.803781 2.7891374 -0.48598042 1
5.3996286 3.1338344 1.2135452 85
5.5904546 3.2432814 -0.33871832 1
5.3810248 3.1205263 1.4360875 80
5.6727986 3.2884071 -0.11445288 95
5.3354702 3.0916204 1.6523008 90
2.8870721 1.6681964 -0.89344335 7
5.6363983 3.2554891 0.11361516 97
3.1457953 1.8162265 -0.8386175 5
5.5995283 3.2315879 0.33882302 68
3.467114 2.0009334 -0.77811909 4
5.5605512 3.2077999 0.56163162 73
3.8075163 2.1956143 -0.69613349 2
5.510344 3.1762733 0.78093886 60
4.248414 2.4478836 -0.60203457 2
5.4827662 3.1578276 1.0021193 92
4.8134875 2.7723532 -0.48598042 1
5.4275503 3.1247609 1.2173615 90
5.6017408 3.2237484 -0.33871832 1
5.3901949 3.1007535 1.4356377 82
5.6877108 3.2705774 -0.11452269 95
5.3596277 3.0806804 1.6564419 88
2.9029343 1.6638718 -0.89654922 7
5.6616096 3.243746 0.11389441 92
3.1588795 1.8091091 -0.84041709 6
5.6125088 3.2130129 0.33892769 66
3.4570398 1.9790639 -0.7743029 4
5.5803618 3.1933169 0.56250316 75
3.8151567 2.1823111 -0.69613349 2
5.5317378 3.1629293 0.7824012 66
4.2500396 2.4290977 -0.60105962 1
5.4834638 3.1327918 1.0002421 87
4.8231349 2.7555349 -0.48598042 1
5.4520626 3.1135862 1.2204144 90
5.5505176 3.1685278 -0.33495015 1
5.4060626 3.0848181 1.4369874 73
5.7025661 3.2526865 -0.11459251 95
5.3820977 3.0686498 1.6600655 86
2.9020066 1.6499097 -0.89447862 7
5.678113 3.2269289 0.11399912 100
3.1600926 1.7951831 -0.83906746 6
5.63411 3.1993208 0.33955571 64
3.4656341 1.9679549 -0.77468461 4
5.5914741 3.1738193 0.56250316 75
3.8090067 2.1611805 -0.69363046 2
5.5531049 3.149478 0.78386366 61
4.2757611 2.4240386 -0.60349703 1
5.5098338 3.1223953 1.0030578 85
4.832725 2.7386811 -0.48598042 1
5.4646053 3.0955048 1.220796 86
5.6241102 3.1845624 -0.33871832 1
5.4286699 3.0726464 1.4401367 76
5.7191076 3.2357137 -0.11469722 97
5.3877306 3.0469921 1.6585126 88
2.9077477 1.6397705 -0.89447862 7
5.6928272 3.2090514 0.11406893 100
3.1697357 1.7860538 -0.83996725 6
5.6609049 3.188457 0.34049776 68
3.4707713 1.9548826 -0.7743029 4
5.6077285 3.1572132 0.56302613 73
3.8268569 2.1536834 -0.69550771 2
5.5744443 3.1359158 0.78532612 63
4.2980399 2.4168816 -0.60544699 1
5.5344763 3.1108854 1.0055609 80
4.8422556 2.7217937 -0.48598042 1
5.4736652 3.0754504 1.2204144 84
5.6874356 3.1942506 -0.34185851 1
5.4529576 3.0613081 1.4437358 84
5.7460599 3.2245419 -0.11501136 95
5.4084439 3.0338361 1.6616182 88
2.9151404 1.6305529 -0.89499629 6
5.712719 3.1940434 0.11424346 97
3.1691461 1.7711762 -0.83816761 6
5.6807189 3.1735461 0.34102112 66
3.4861443 1.9475422 -0.77621108 4
5.6326303 3.1453917 0.56442058 73
3.8412504 2.1441643 -0.69675916 2
5.5853581 3.1164367 0.78532612 63
4.2960482 2.3960607 -0.60398453 1
5.5556531 3.0973201 1.0074381 80
4.8517265 2.7048755 -0.48598042 1
5.4980879 3.0639691 1.2234674 90
5.7160001 3.1840966 -0.34290522 1
5.4772305 3.0498409 1.4473351 82
5.7537875 3.2025185 -0.11494155 52
5.430819 3.0215118 1.6652418 84
2.9225032 1.621305 -0.89551395 7
5.7325783 3.1789303 0.11441798 90
3.1838317 1.7648259 -0.84041709 5
5.6865201 3.1507945 0.34070709 70
3.4963553 1.937265 -0.77697426 4
5.6540322 3.1315041 0.56546646 73
3.8556252 2.1345689 -0.69801068 4
5.5996757 3.098845 0.78581363 65
4.3043842 2.3810532 -0.60398453 2
5.5768037 3.083642 1.0093153 70
4.8890371 2.7033479 -0.48876941 1
5.5190597 3.0504553 1.225757 84
5.7305737 3.1660597 -0.34311455 1
5.48102 3.0269332 1.4455354 76
5.7561784 3.1775808 -0.11476702 16
5.4480968 3.0062735 1.6673124 84
2.9349155 1.614818 -0.8975845 7
5.7243667 3.1482985 0.11403403 20
3.2019255 1.7602756 -0.84356648 6
5.7062373 3.1357338 0.34123048 47
3.499656 1.9231569 -0.77621108 4
5.6771531 3.1184616 0.56668663 85
3.87344 2.1268041 -0.69988787 2
5.6278615 3.088829 0.78825098 65
4.3057089 2.3621931 -0.60300958 1
5.5840683 3.0622609 1.0086895 80
4.8914547 2.6824367 -0.48807216 1
5.5434461 3.0387225 1.2288101 84
5.7556033 3.1537137 -0.34395194 1
5.4983873 3.0115309 1.4473351 76
5.7777591 3.1632316 -0.11497645 19
5.472115 2.9946554 1.6714535 84
2.9422309 1.6054878 -0.89810216 6
5.7581425 3.1407471 0.11448779 20
3.208051 1.7490871 -0.84356648 6
5.7259169 3.1205735 0.34175381 14
3.5201387 1.918444 -0.77926397 4
5.6740069 3.0910022 0.56529218 45
3.8739018 2.1094906 -0.69863641 4
5.6560454 3.0786541 0.7906884 73
4.3139277 2.3471501 -0.60300958 1
5.6068716 3.049355 1.0108796 92
4.9007888 2.665345 -0.48807216 1
5.5609198 3.023103 1.2303365 84
5.7384982 3.1183469 -0.3422772 1
5.5311284 3.0044103 1.4531839 80
5.7993107 3.1487675 -0.11518589 19
5.4825349 2.9755371 1.6714535 84
2.9495149 1.5961292 -0.89861977 7
5.7567596 3.1139665 0.11424346 22
3.2055664 1.7332431 -0.84131694 5
5.7420444 3.10342 0.34206784 15
3.5354486 1.9108146 -0.7811721 4
5.6812568 3.0692816 0.56494349 16
3.8916709 2.1015861 -0.7005136 4
5.6807294 3.0664394 0.79263824 35
4.3535414 2.3490436 -0.60739684 1
5.6261749 3.034452 1.0124439 85
4.9065561 2.6463287 -0.48772353 1
5.5800767 3.0083354 1.2322445 99
5.7915459 3.1210349 -0.34478933 1
5.5501609 2.9897039 1.4554334 76
5.820828 3.1341972 -0.11539531 19
5.497992 2.9591269 1.6730064 90
2.9652824 1.5913039 -0.90172559 7
5.7781668 3.0995257 0.11445288 17
3.2133141 1.7229645 -0.84176683 6
5.7686863 3.0918477 0.34300989 14
3.5438278 1.8993884 -0.78155369 5
5.7077427 3.057898 0.56651235 15
3.8885345 2.0823944 -0.69863641 2
5.6511469 3.0250423 0.78703225 13
4.3687162 2.3375776 -0.60837179 1
5.6315069 3.0120008 1.0115054 27
4.933332 2.6385832 -0.48946664 1
5.5888133 2.9879119 1.2318629 91
5.7742219 3.0857365 -0.34311455 1
5.5725946 2.9767404 1.4585826 90
5.84761 3.1223352 -0.11570945 19
5.5219231 2.9471927 1.6771475 91
2.975935 1.5836668 -0.90327853 6
5.8119011 3.0915468 0.11490664 20
3.2227504 1.7135665 -0.84266669 6
5.7759156 3.0698187 0.34280053 14
3.5521691 1.8879285 -0.78193527 4
5.7271776 3.0426335 0.56738389 16
3.9202056 2.0817778 -0.70301658 4
5.6809587 3.015537 0.78971344 14
4.3558054 2.3111517 -0.60544699 1
5.6437325 2.9932487 1.0118183 20
4.942513 2.621345 -0.48946664 1
5.5835986 2.9601076 1.2284284 24
5.7990761 3.0730448 -0.34395194 1
5.5795083 2.9554446 1.4576828 80
5.8690777 3.1075168 -0.11591888 16
5.5509586 2.9378412 1.6828415 100
2.9763193 1.5705637 -0.90172559 7
5.8350396 3.0777698 0.11515098 20
3.2338831 1.7050338 -0.84401631 6
5.7971983 3.0552239 0.34342858 14
3.5483172 1.8700247 -0.77964556 4
5.7571545 3.0328367 0.56930131 15
3.9379346 2.0736039 -0.70489377 4
5.7055039 3.0030835 0.79166335 13
4.3849277 2.3070233 -0.60837179 2
5.6523972 2.9726119 1.0115054 20
4.951632 2.6040776 -0.48946664 1
5.6147499 2.9515624 1.2330078 20
5.8239107 3.0602169 -0.34478933 1
5.577713 2.9296083 1.4545335 26
5.8834291 3.0888712 -0.11598869 16
5.5440726 2.9094708 1.6776651 65
2.9749372 1.5565815 -0.89965498 7
5.8670101 3.0685053 0.11556984 17
3.243269 1.6955414 -0.84491616 6
5.814909 3.0386679 0.34384724 14
3.567004 1.8639914 -0.78231698 4
5.7730031 3.0154903 0.56982422 13
3.9381449 2.0561872 -0.70364231 2
5.7247519 2.9877403 0.79288203 13
4.3788738 2.2843587 -0.60642189 1
5.6697464 2.9565153 1.0127568 20
4.9677591 2.5904608 -0.49016386 1
5.6424289 2.9410181 1.236824 18
5.8203869 3.0324874 -0.34395194 1
5.6000051 2.9164205 1.4576828 16
5.9048195 3.0738542 -0.11619812 16
5.5473399 2.8865349 1.6755946 16
2.9872115 1.5497468 -0.90172559 7
5.8705854 3.044323 0.11543022 20
3.2543585 1.6868995 -0.84626585 6
5.8467603 3.0293787 0.34510332 14
3.5752313 1.8524327 -0.78269857 4
5.7728801 2.9898214 0.5687784 15
3.9347725 2.0369797 -0.70176506 2
5.7492499 2.9750388 0.79483193 13
4.4185591 2.2854743 -0.61080921 1
5.6923146 2.943058 1.0149469 20
4.9696918 2.5694454 -0.48946664 1
5.6509161 2.9204047 1.2364424 16
5.8557801 3.0249839 -0.34541735 1
5.6222715 2.9031146 1.4608321 18
5.924397 3.0578105 -0.11637264 20
5.5608163 2.8689237 1.6766298 18
2.9908853 1.5384254 -0.90120792 6
5.8918467 3.0292997 0.11563965 17
3.2567601 1.6737486 -0.84536606 6
5.8626299 3.0116878 0.34541735 12
3.5886614 1.843529 -0.78422499 4
5.8116403 2.9842122 0.57156736 15
3.9453738 2.0250375 -0.70239085 4
5.763133 2.9567626 0.79531944 13
4.4300432 2.2718475 -0.61129665 1
5.7095838 2.9267757 1.0161984 17
4.9963598 2.5611718 -0.49120975 1
5.6663184 2.9033453 1.2375872 16
5.8840814 3.0136278 -0.34646407 1
5.6410432 2.887913 1.4630816 18
5.9581776 3.0489528 -0.11682641 15
5.5931563 2.8609304 1.6833591 20
3.0048413 1.5323663 -0.90379614 7
5.9184198 3.0168867 0.1159538 15
3.2608471 1.6614846 -0.84491616 6
5.8837829 2.9966476 0.34604537 12
3.5933242 1.8301026 -0.7838434 4
5.836225 2.9711399 0.57296187 13
3.9805877 2.0255864 -0.70739675 2
5.7751865 2.9375315 0.79556316 11
4.4556413 2.2653675 -0.61373407 1
5.7338538 2.9139857 1.0187013 17
5.0265846 2.5545464 -0.49330151 1
5.6869197 2.8888845 1.2398769 16
5.940866 3.016582 -0.34918553 1
5.6493526 2.8673208 1.4626317 18
5.9652171 3.0263281 -0.1167566 17
5.6082773 2.8440118 1.6849121 20
3.0170686 1.5253539 -0.90586674 7
5.9449778 3.0043249 0.11626793 17
3.2770629 1.6553645 -0.84761554 5
5.8924251 2.975189 0.34594071 8
3.5979385 1.8166625 -0.78346181 4
5.8536763 2.9543388 0.57365906 13
3.9805789 2.008121 -0.70614529 2
5.7995853 2.9245031 0.79751301 11
4.445796 2.2408648 -0.61129665 1
5.7404618 2.8921766 1.0180756 17
5.0354705 2.5369859 -0.49330151 1
5.7267776 2.8840292 1.2463645 18
5.9049768 2.9724758 -0.34646407 1
5.6662893 2.8510883 1.4644314 18
5.9811025 3.0081837 -0.11686131 20
5.6268015 2.8287549 1.6875002 18
3.0189207 1.5130808 -0.90483141 7
5.9661536 2.9889331 0.11647736 20
3.2828217 1.6439145 -0.84761554 5
5.9206357 2.9635408 0.34698743 14
3.6007471 1.8023337 -0.78269857 4
5.8657331 2.9347832 0.57383341 12
3.9910982 1.9959799 -0.70677096 2
5.8292913 2.9140031 0.8001942 11
4.4571409 2.2271097 -0.61178416 1
5.7752647 2.8844767 1.0224558 17
5.0942039 2.5443187 -0.49818221 2
5.729784 2.860512 1.2448379 16
5.9975214 2.9928722 -0.35127899 1
5.6901588 2.8382492 1.4680306 18
6.0112534 2.9971008 -0.11724527 17
5.6470132 2.8142705 1.6906061 18
3.0155334 1.4982365 -0.9022432 7
5.9765515 2.9680874 0.11647736 17
3.2815585 1.6289786 -0.84581596 6
5.9559913 2.9552858 0.34845284 14
3.6210854 1.7967356 -0.78575146 4
5.8902216 2.9213707 0.57522792 16
4.0051212 1.9855449 -0.70802242 4
5.8589921 2.9033339 0.80287528 9
4.4933496 2.2256341 -0.61568397 1
5.7888393 2.8660512 1.0230815 17
5.103055 2.5265198 -0.49818221 2
5.7502909 2.8457201 1.2471277 16
5.9721289 2.9542062 -0.34918553 1
5.7140069 2.8252778 1.4716297 18
6.021678 2.9761007 -0.11724527 17
5.6654639 2.7988181 1.6931943 20
3.0311437 1.4928217 -0.90534908 6
5.9976401 2.952508 0.11668679 17
3.2959661 1.6218181 -0.8480655 4
5.976511 2.9408109 0.34908086 13
3.6220505 1.7814842 -0.78460658 4
5.9182644 2.9095809 0.57697099 15
4.001389 1.9663278 -0.70614529 2
5.8619647 2.8793623 0.80190039 11
4.4868364 2.2029357 -0.61373407 1
5.8231354 2.8590283 1.0274616 10
5.1297274 2.5174725 -0.49992532 2
5.7654781 2.8282228 1.2482725 16
5.9357796 2.9104781 -0.34646407 1
5.7308321 2.8087492 1.4734293 18
6.0566521 2.9684377 -0.11773393 17
5.6833887 2.7842634 1.6957825 20
3.041543 1.4847763 -0.90690196 7
6.0217729 2.9396217 0.11696602 17
3.308332 1.6142966 -0.84986508 6
5.9849448 2.9190536 0.34897619 11
3.6406 1.7748535 -0.787278 4
5.9319663 2.8906515 0.57731962 15
4.0220938 1.9599694 -0.7086482 2
5.8750496 2.8616471 0.80238777 11
4.5119648 2.1967351 -0.61617148 1
5.8330793 2.8386855 1.0274616 17
5.1277347 2.4943209 -0.49887949 2
5.7801208 2.8116655 1.2494174 14
6.0208397 2.9274573 -0.3508603 1
5.7366104 2.7880247 1.4725296 16
6.0885625 2.957762 -0.1181528 17
5.7139273 2.7745321 1.7019941 18
3.0603611 1.4814149 -0.91104311 7
6.0463986 2.92555 0.11724527 17
3.3192103 1.605283 -0.85121477 5
6.0022898 2.9016225 0.34939486 11
3.6358597 1.7576448 -0.78498828 4
5.9540758 2.8770335 0.57853985 13
4.0520358 1.9570853 -0.71271551 1
5.9028788 2.8497536 0.80482519 11
4.5017266 2.1723459 -0.61373407 1
5.8500705 2.8217382 1.0287131 20
5.1288004 2.473839 -0.49818221 2
5.8235002 2.8076732 1.2566681 22
6.0310197 2.9064269 -0.3508603 1
5.7656202 2.7772844 1.4774785 14
6.0952458 2.934757 -0.11808299 17
5.7357607 2.7604382 1.7056175 16
3.0550635 1.4657085 -0.90793723 7
6.0673938 2.9096129 0.1174547 17
3.3247931 1.5936878 -0.85121477 6
6.0303946 2.8892815 0.35044158 11
3.6490557 1.7483348 -0.7865147 4
5.9694743 2.8588123 0.57906276 15
4.1283307 1.9761935 -0.72491741 1
5.9271164 2.8359842 0.80677515 11
4.5325632 2.1677516 -0.61690265 2
5.8670125 2.8047097 1.0299646 20
5.137404 2.4559224 -0.49818221 2
5.8385806 2.789866 1.257813 18
6.0591512 2.8939633 -0.35190701 1
5.785831 2.7621803 1.480178 20
6.12711 2.9237957 -0.11850184 17
5.7471061 2.7412302 1.7061353 18
3.0636508 1.4566938 -0.9089725 7
6.0775127 2.8884172 0.1174547 17
3.3356164 1.5845817 -0.85256451 6
6.0476613 2.8716393 0.3508603 11
3.6622305 1.7389541 -0.78804117 4
5.9938159 2.8447933 0.58045721 15
4.1601892 1.9736253 -0.72929758 1
5.954917 2.8237813 0.80921251 13
4.5418954 2.1527679 -0.61714637 1
5.891048 2.7909801 1.0324676 17
5.1279392 2.429445 -0.4964391 2
5.8518324 2.7711475 1.2585762 20
6.0222797 2.85058 -0.34918553 1
5.8130522 2.7503028 1.484677 18
6.1698189 2.9177768 -0.11913013 45
5.767118 2.7261069 1.709241 20
3.072212 1.4476384 -0.91000783 7
6.112886 2.8791125 0.11794336 17
3.3340743 1.5696089 -0.85076487 6
6.0847554 2.8632684 0.35243034 13
3.6807125 1.7320118 -0.79071248 4
6.0199366 2.8314841 0.58202606 16
4.1348758 1.9439625 -0.72366595 1
5.9629407 2.8021345 0.80896878 13
4.5206351 2.1233959 -0.61324656 1
5.9240007 2.7813118 1.0365349 15
5.1724591 2.4284639 -0.49992532 2
5.8685789 2.7540414 1.2601026 18
6.0321941 2.8295393 -0.34918553 1
5.8402624 2.7382658 1.489176 18
6.221612 2.9157412 -0.11993293 82
5.7905955 2.7125139 1.7133821 20
3.0859983 1.440993 -0.91259599 6
6.1681986 2.8789015 0.11881598 76
3.3465974 1.5612561 -0.85256451 6
6.0947123 2.8420124 0.35243034 13
3.7009704 1.7257918 -0.79376549 4
6.0478415 2.8188715 0.58376914 14
4.1416364 1.9295181 -0.72366595 1
5.9852819 2.7871702 0.81067497 13
4.2418685 1.9744129 -0.57449216 9
5.9390454 2.7631173 1.0374736 17
5.8923969 2.7401633 1.2631556 18
5.8533192 2.7195063 1.4900758 18
6.2408214 2.8982155 -0.12010746 82
5.8157997 2.6996033 1.7180409 18
3.0839958 1.4269676 -0.91052544 6
6.2018061 2.8682635 0.11926974 91
3.343183 1.5454754 -0.85031497 5
6.1626134 2.8475301 0.35577986 65
3.6891496 1.7046282 -0.7899493 4
6.0739245 2.8052607 0.585338 16
4.1985645 1.9382306 -0.73242623 1
6.0039854 2.7704203 0.81189364 11
4.2271042 1.9496163 -0.57156724 9
5.9612126 2.7481568 1.0396636 17
4.2248902 1.9477011 -0.40701729 9
5.9144073 2.7253311 1.2658269 18
5.8733978 2.7039456 1.4927752 18
6.2545309 2.8780894 -0.12017727 85
5.8444934 2.6881669 1.7237349 18
3.0784223 1.4113624 -0.90741962 7
6.2245054 2.8524308 0.11951409 94
3.3627307 1.540289 -0.8539142 6
6.1779637 2.8284938 0.35609388 61
3.7182834 1.7023637 -0.79491037 4
6.1235361 2.8022826 0.58917278 66
4.1550059 1.900557 -0.72366595 1
6.0479221 2.7651267 0.81652468 11
4.2122188 1.9249468 -0.56864244 9
5.9815497 2.7322574 1.0415409 15
4.191793 1.9147308 -0.40318248 10
5.9399581 2.7120063 1.2692615 16
4.2099767 1.9212584 -0.24252485 10
5.9023027 2.6923246 1.4977242 18
5.8485675 2.6653445 1.722182 18
3.0921247 1.4046022 -0.91000783 7
6.2344236 2.830687 0.11951409 73
3.3716362 1.5301512 -0.85481399 6
6.1987138 2.8118603 0.35672191 61
3.717052 1.6861291 -0.79338378 5
6.1532407 2.7899418 0.59109026 87
4.1382251 1.8754401 -0.71959865 2
6.1135926 2.7693892 0.82408053 52
4.1899767 1.8971341 -0.56474262 9
6.0072479 2.7186894 1.0443566 17
4.1694093 1.8869423 -0.40039349 10
5.9529667 2.692872 1.2700247 18
4.1984577 1.8983257 -0.24147813 10
5.9258718 2.6781242 1.5013233 18
4.1732626 1.8851771 -0.079932027 14
5.8613558 2.646507 1.7232174 18
3.1128638 1.4009362 -0.91466653 6
3.3627372 1.5119817 -0.85121477 5
6.2267075 2.7983942 0.35776863 40
3.7336588 1.6779733 -0.79567355 4
6.17203 2.7725263 0.5919618 76
4.1555586 1.8658372 -0.72147578 8
6.1159778 2.7447822 0.82310557 60
4.1639724 1.867871 -0.56035525 9
6.0851965 2.7284131 1.0562457 67
4.1577907 1.8642242 -0.39865038 10
5.9712882 2.6760919 1.2719328 20
4.1758952 1.8705937 -0.23980337 10
5.9476352 2.6629956 1.5044726 18
4.1542635 1.859163 -0.07944335 14
5.8881931 2.6339176 1.7283937 18
3.121264 1.3916342 -0.91570181 6
4.1498728 1.8493798 0.079303734 13
3.3893564 1.5097487 -0.85661358 5
4.1746554 1.8586755 0.23948936 9
3.7538426 1.6713176 -0.7987265 4
6.1944113 2.7566366 0.59318197 61
4.1421914 1.842492 -0.71803427 9
6.1436615 2.7314799 0.82554299 56
4.1450701 1.8420393 -0.55694294 9
6.1127343 2.7151783 1.0593743 85
4.1314964 1.8351442 -0.39551273 10
6.0433965 2.6831131 1.2852895 63
4.1513648 1.8422323 -0.23802395 12
5.9640183 2.6453829 1.5062722 18
4.1351352 1.833303 -0.078954689 14
5.9114814 2.6196077 1.7325348 18
3.1243348 1.3799522 -0.9151842 7
4.1434979 1.8292284 0.0790594 14
3.3928235 1.4971209 -0.85616374 6
4.1573601 1.833617 0.23812862 12
3.741689 1.6502838 -0.79491037 4
4.1603055 1.8340464 0.39777881 8
4.1214838 1.8160731 -0.7133413 12
6.1567903 2.7116222 0.82603049 43
4.1314902 1.8187603 -0.55426186 10
6.114944 2.6906402 1.0581229 70
4.115994 1.8110811 -0.39342102 10
6.0814772 2.6746514 1.2913953 97
4.1431422 1.8213009 -0.23718657 12
6.0249557 2.6472802 1.5193194 70
4.1048903 1.8027785 -0.078256592 14
5.9365096 2.6059468 1.7371935 20
3.1255929 1.3674881 -0.91414887 7
4.122376 1.8027344 0.078535825 13
3.4105275 1.4907328 -0.85931301 6
4.1271319 1.8031008 0.23603518 12
3.7546237 1.6403558 -0.79643679 5
4.1228614 1.8003761 0.39359534 11
4.1024513 1.7906132 -0.70896107 13
4.1050606 1.7900443 -0.54987448 10
6.1315413 2.672437 1.0593743 70
4.0894136 1.7823743 -0.39028341 10
6.0853772 2.651053 1.2902504 93
4.1146832 1.7916768 -0.23519783 12
6.0520277 2.6340113 1.5238184 91
4.0928216 1.7804606 -0.07790754 14
5.9810033 2.6006134 1.7475463 65
