# .PCD v0.7 - Point Cloud Data file format
VERSION 0.7
FIELDS x y z intensity
SIZE 4 4 4 4
TYPE F F F F
COUNT 1 1 1 1
WIDTH 1409
HEIGHT 1
VIEWPOINT 0 0 0 1 0 0 0
POINTS 1409
DATA ascii
5.5860929 3.5986125 0.34824347 75
3.8537574 2.4826262 -0.89107805 1
5.5630488 3.5823934 0.57888842 81
5.6340976 3.626755 -1.0612515 1
5.5522671 3.5727091 0.81067497 66
5.5296555 3.5554311 1.0412279 75
5.6275558 3.6183784 -0.585338 80
5.524415 3.5506988 1.2765123 92
5.6324935 3.6187754 -0.3508603 47
5.5159574 3.5425427 1.5134706 80
5.6086559 3.6006951 -0.11633775 90
5.4953933 3.5266273 1.7496167 100
3.0053089 1.9234529 -0.95607764 4
5.6008286 3.5832593 0.1160585 97
3.3835859 2.1638949 -0.92724824 2
5.6070356 3.5844691 0.34876686 73
3.8607469 2.4681005 -0.89069647 1
5.5889502 3.571537 0.58028293 78
5.680017 3.628336 -1.0675089 1
5.5697241 3.5565102 0.8114062 61
5.3394303 3.4081492 -0.77777022 1
5.5553546 3.5446088 1.0437309 75
5.6569471 3.6094306 -0.58708107 90
5.5318103 3.5282247 1.2753674 90
5.6518264 3.6033881 -0.35127899 48
5.5365071 3.5285022 1.5157202 78
5.6329975 3.5886149 -0.11658207 92
5.5141869 3.511575 1.7516873 100
3.0201583 1.91813 -0.95866579 3
5.6200566 3.5679731 0.11619812 97
3.3746655 2.1416283 -0.92274922 2
5.629631 3.571295 0.34939486 68
3.885916 2.4651263 -0.89451259 1
5.6114798 3.5584071 0.58132881 82
4.4646912 2.8301017 -0.83723736 1
5.5854573 3.5391724 0.81189364 60
5.374774 3.4043601 -0.78118259 1
5.5843844 3.5357616 1.0468596 70
5.6779294 3.5949895 -0.58795261 87
5.5540452 3.5151944 1.277657 96
5.6609955 3.5815001 -0.35106963 48
5.5487895 3.509156 1.5157202 78
5.6573205 3.5764108 -0.11682641 100
5.5394769 3.5005603 1.7558285 100
3.0235662 1.9055165 -0.95763052 4
5.6392441 3.5525982 0.11633775 97
3.3837693 2.1308744 -0.92319912 2
5.6336112 3.5463035 0.34887153 75
3.8845279 2.4452724 -0.89222288 1
5.6339855 3.5451627 0.58237463 84
4.4745421 2.8145006 -0.83723736 1
5.6095419 3.5270491 0.81359977 60
5.3630953 3.3707876 -0.77777022 1
5.6000366 3.5183492 1.0474852 70
5.6971912 3.5793886 -0.58864987 83
5.5829086 3.5062256 1.2814733 98
5.6802301 3.565964 -0.35148832 47
5.5643053 3.4918382 1.5166199 78
5.6833229 3.565141 -0.11710566 100
5.5647564 3.4894114 1.7599696 100
3.0367506 1.8990484 -0.95970106 3
5.673655 3.5466702 0.11679151 100
3.3895347 2.1180165 -0.92274922 2
5.657198 3.5350096 0.34960422 69
3.8863788 2.4275389 -0.89069647 1
5.6497054 3.5275862 0.58272326 84
4.5111523 2.8155975 -0.84224325 1
5.6336069 3.5148058 0.81530601 61
5.3579845 3.3415427 -0.77533287 1
5.6099982 3.4987128 1.0471724 67
5.721487 3.5668571 -0.58987004 90
5.6067762 3.4939861 1.2841446 100
5.7078996 3.5556204 -0.35243034 55
5.5847325 3.4775431 1.5188695 85
5.6883235 3.5420477 -0.11696602 100
5.5828567 3.4750235 1.76204 100
3.0400786 1.8863989 -0.95866579 3
5.6955795 3.5341635 0.11700094 100
3.4329734 2.1293621 -0.93264711 2
5.6898713 3.5278716 0.3508603 71
3.9081795 2.422231 -0.89374936 1
5.6687603 3.5120394 0.58342052 92
4.55405 2.8214285 -0.84850067 1
5.6604204 3.5055096 0.81749964 71
5.3690357 3.3237579 -0.77533287 1
5.6322565 3.4853444 1.0490496 100
5.7271247 3.5426722 -0.58917278 68
5.6283488 3.4815717 1.2864343 100
5.7264528 3.5408752 -0.35284904 42
5.6144686 3.470273 1.5238184 100
5.7006521 3.5221717 -0.11696602 92
5.5982399 3.4575458 1.7630754 100
3.0364487 1.8702275 -0.95555997 3
5.6942592 3.5058715 0.11672169 75
3.4237878 2.1071539 -0.92814809 2
5.7004514 3.5069406 0.3507556 45
3.9161911 2.4092565 -0.89374936 1
5.6820712 3.4942665 0.5835948 73
4.563869 2.8055179 -0.84850067 1
5.674315 3.4867675 0.81774336 65
5.4414992 3.3423979 -0.78410745 1
5.6511197 3.4698012 1.0503011 85
5.7252574 3.515322 -0.58777833 21
5.6371222 3.4598486 1.2856711 100
5.7387791 3.5208628 -0.35284904 14
5.6365128 3.4567704 1.5265179 97
5.69416 3.4907532 -0.11658207 27
5.6102757 3.4379818 1.7630754 100
3.0544975 1.8666677 -0.95918339 3
5.6859841 3.4734654 0.11630284 25
3.4078381 2.0809703 -0.92184937 2
5.7075448 3.4838977 0.35044158 19
3.9111719 2.3873878 -0.89069647 1
5.6823282 3.4671481 0.58237463 27
4.5399055 2.7689965 -0.84224325 1
5.6576385 3.4493706 0.81359977 16
5.4904242 3.3461118 -0.78946966 1
5.664885 3.4510803 1.050614 25
5.7408967 3.4973872 -0.5881269 21
5.6256905 3.4258533 1.2803285 24
5.7390914 3.493541 -0.35211635 14
5.6235747 3.4218781 1.5197693 23
5.7302299 3.4854026 -0.11707074 27
5.609036 3.4103494 1.7589344 25
3.0676012 1.8600029 -0.961254 3
5.7288566 3.4722517 0.11693113 30
3.4250813 2.0751216 -0.9245488 2
5.7162519 3.4618878 0.35023224 19
3.9261971 2.3777914 -0.89222288 1
5.7080321 3.4555449 0.58376914 32
4.5495443 2.7531314 -0.84224325 1
5.6798334 3.4357693 0.81506222 16
5.4714956 3.3084362 -0.7850824 1
5.6684446 3.4261744 1.0490496 22
5.7718277 3.4886622 -0.59004438 19
5.6409731 3.4082289 1.2810917 24
5.7751875 3.4879408 -0.35358176 14
5.6304808 3.3992043 1.5184196 22
5.7474952 3.4684827 -0.11717546 27
5.6391029 3.4017243 1.7646283 21
3.0724201 1.8482869 -0.96073633 3
5.7409396 3.4522369 0.11693113 25
3.4456663 2.0711842 -0.92814809 2
5.7368622 3.4470551 0.3507556 19
3.9243765 2.3580039 -0.88993317 1
5.721765 3.4366286 0.58394349 29
4.6099334 2.7677386 -0.85162932 1
5.70541 3.4240925 0.81701219 16
5.625999 3.3751023 -0.80555642 1
5.6803689 3.406368 1.0490496 22
5.7942219 3.4746425 -0.59109026 21
5.674727 3.4016385 1.2860527 25
5.7941809 3.4718654 -0.35400045 14
5.6523418 3.3855386 1.521119 23
5.7595682 3.4483976 -0.11717546 27
5.6559167 3.3849945 1.7661812 23
3.0722175 1.8335913 -0.95866579 3
5.7632604 3.4383221 0.11714055 27
3.4528756 2.0591431 -0.92814809 2
5.7522898 3.4290555 0.35096496 17
3.9427016 2.3503234 -0.89222288 1
5.7371507 3.4186735 0.58429211 29
4.5686541 2.7213025 -0.84224325 1
5.7309718 3.4122818 0.81896204 14
5.5797491 3.3209231 -0.79726928 1
5.7041097 3.3935876 1.0512397 22
5.7977548 3.4493008 -0.59021866 21
5.7017527 3.3908417 1.2894872 29
5.8251472 3.4628491 -0.35515183 14
5.6825547 3.3767369 1.526068 23
5.7818851 3.4344003 -0.11738489 30
5.6593904 3.3603034 1.763593 23
3.0719504 1.8189181 -0.95659518 4
5.775228 3.4181819 0.11714055 25
3.4550092 2.0441029 -0.9267984 2
5.7848554 3.421154 0.35222104 17
3.9424331 2.3315485 -0.89031488 1
5.7507648 3.3996387 0.5844664 22
4.6121378 2.7254384 -0.84850067 1
5.7428489 3.3922544 0.81896204 14
5.4443035 3.2146244 -0.77630776 1
5.7244258 3.3786776 1.0528041 22
5.8149061 3.432081 -0.59074163 19
5.7051001 3.3659286 1.2875792 27
5.8475227 3.4485803 -0.35577986 13
5.6993423 3.3598504 1.5274177 23
5.7990079 3.4172413 -0.1174896 25
5.6827383 3.3473899 1.7672166 23
3.0832784 1.8111185 -0.95814812 4
5.7905731 3.4000285 0.11721037 25
3.4587629 2.030057 -0.92589855 2
5.8070989 3.4070029 0.35284904 16
3.9759481 2.3326738 -0.89603907 1
5.7694707 3.3835771 0.58516365 22
4.6216226 2.7093234 -0.84850067 1
5.7683578 3.3802152 0.820912 14
5.4554906 3.1956022 -0.77630776 1
5.7447071 3.3636665 1.0543684 22
5.8526402 3.4268639 -0.59335625 19
5.7235932 3.3499591 1.2891057 25
5.8457332 3.4200804 -0.3549425 13
5.7143989 3.3419044 1.5283175 21
5.8316178 3.4090867 -0.11790846 27
5.7060633 3.3343568 1.77084 23
3.0895815 1.8003454 -0.95814812 4
5.821414 3.3908646 0.11759432 22
3.4641435 2.0169911 -0.92544866 2
5.8189549 3.3867128 0.35284904 16
3.9738853 2.3128564 -0.89374936 1
5.8036351 3.3764403 0.5874297 24
4.6242218 2.6892009 -0.84724921 1
5.7801213 3.3600605 0.820912 14
5.415122 3.1466177 -0.76899564 1
5.7615385 3.3465683 1.055307 20
5.8800735 3.4154186 -0.59492511 19
5.7488337 3.3378472 1.2921586 25
5.8645463 3.4036629 -0.35536119 13
5.7294021 3.3238912 1.5292172 23
5.848671 3.3917203 -0.11801317 22
5.7393956 3.3270121 1.7775693 21
3.0991917 1.7914841 -0.95918339 3
5.8505287 3.3805292 0.11794336 22
3.4914129 2.0165815 -0.93084741 2
5.8376603 3.3703761 0.35326776 14
3.997236 2.3078063 -0.89718395 1
5.8257389 3.362138 0.58847558 27
4.6062031 2.6572504 -0.84224325 1
5.8072906 3.3487895 0.82310557 13
5.4776673 3.1574376 -0.77630776 1
5.776608 3.3284101 1.0559328 20
5.8936853 3.3958685 -0.59509945 16
5.7757607 3.3265793 1.2955931 23
5.8971629 3.3951273 -0.35661724 13
5.7511029 3.309705 1.5319167 23
5.865674 3.3742766 -0.11811788 25
5.7509751 3.3069561 1.7775693 21
3.1087778 1.7825775 -0.96021873 4
5.8657637 3.3620732 0.11801317 22
3.4849048 1.9966311 -0.92724824 2
5.8667197 3.3599052 0.35431448 14
4.0427475 2.3153055 -0.90557957 1
5.8357115 3.3407905 0.58830124 22
4.6497412 2.6607769 -0.84850067 1
5.8310051 3.3353984 0.82481176 13
5.5024424 3.1461787 -0.77825767 1
5.7950521 3.312145 1.0571842 20
5.9210715 3.3841712 -0.59666818 11
5.7941556 3.3102949 1.2971196 23
5.9159155 3.3784852 -0.35703593 9
5.7693915 3.2934725 1.5337163 19
5.8826265 3.356756 -0.1182226 17
5.7608047 3.2859051 1.7770516 21
3.1082644 1.7678938 -0.95814812 4
5.8878937 3.3475089 0.1182226 15
3.4901583 1.9834921 -0.9267984 2
5.8847761 3.3443775 0.35473314 9
4.0269065 2.2876019 -0.9002369 1
5.861197 3.3282716 0.58969575 14
4.6246419 2.6250281 -0.84224325 1
5.8443403 3.3160024 0.82505554 11
5.7067819 3.2366371 -0.80555642 1
5.8180308 3.2997324 1.0593743 17
5.9293818 3.3615184 -0.59631962 19
5.8039684 3.2890797 1.296738 23
5.9311466 3.3597839 -0.35724527 13
5.7910266 3.2790761 1.5364157 19
5.8954668 3.3382137 -0.11825751 22
5.7783942 3.2705915 1.7791222 19
3.1026392 1.7503877 -0.9545247 4
5.9007044 3.3289466 0.11825751 25
3.5018086 1.9747801 -0.92814809 2
5.9033747 3.3277371 0.35515183 16
4.0588136 2.2870233 -0.90557957 1
5.8884025 3.3165932 0.59126455 24
4.6333208 2.609679 -0.84224325 1
5.8622246 3.3004975 0.82603049 11
5.4579921 3.071656 -0.76899564 1
5.8398428 3.2852161 1.0612515 17
5.9636574 3.3534944 -0.59858567 16
5.8251119 3.2755871 1.2990277 19
5.9492207 3.3440099 -0.35766396 13
5.8324485 3.2770376 1.5445139 14
5.9314938 3.3313217 -0.11874618 25
5.8032527 3.2579651 1.7832633 14
3.1353967 1.75519 -0.96280694 3
5.9227581 3.3141892 0.11846693 25
3.4950747 1.9549329 -0.9245488 2
5.9184389 3.3090639 0.35536119 14
4.0423832 2.2601407 -0.9002369 1
5.9045868 3.2999625 0.59178752 26
4.5768709 2.556879 -0.83035421 1
5.8823748 3.2848549 0.82724917 14
5.8599005 3.2696221 1.0628159 22
5.9799638 3.3366132 -0.59910858 7
5.8570862 3.2667077 1.3036071 23
5.9591122 3.3222518 -0.35755929 8
5.8319373 3.2500167 1.5413646 21
5.9518218 3.3154607 -0.1189207 17
5.8264041 3.2442682 1.7868867 23
3.1263039 1.7357938 -0.95814812 4
5.9675126 3.3119304 0.11913013 7
3.5086932 1.9465032 -0.92634839 1
5.9351945 3.2912886 0.35567519 4
4.0674186 2.2555363 -0.90405309 1
5.9282684 3.2860913 0.59300768 13
4.1607122 2.3053727 -0.75338852 7
5.9042234 3.2700734 0.82871157 13
4.1663547 2.3065963 -0.58472919 5
5.8747344 3.2510614 1.0634416 20
4.1332617 2.2873356 -0.41329253 6
5.8736048 3.2490978 1.304752 23
4.1406693 2.2895448 -0.24796779 4
5.855186 3.2362368 1.5445139 23
4.1290159 2.2812221 -0.082340457 5
5.8410759 3.2257767 1.787922 23
3.1323442 1.7248696 -0.95814812 3
4.108068 2.261234 0.08185178 10
3.5240042 1.9389399 -0.92859799 2
4.1126022 2.2618573 0.24597903 7
4.0649457 2.2356467 -0.90176338 1
4.0924921 2.2498693 0.40858611 5
4.1271853 2.2680016 -0.74587959 6
4.1113443 2.2583625 0.57595456 2
4.1465383 2.2767551 -0.58082932 6
4.0868115 2.2430301 0.73837078 3
4.1062894 2.2537203 -0.40980628 8
4.1017089 2.2502751 0.90939575 1
4.1258688 2.2625954 -0.24660707 9
4.1018806 2.247576 -0.081642359 10
5.8726301 3.2165082 1.7941337 2
3.1485188 1.7194815 -0.961254 3
4.0843434 2.2296326 0.081223503 10
3.522198 1.9219587 -0.92634839 2
4.094171 2.2331429 0.24440894 9
4.0503182 2.2092235 -0.89680237 1
4.0723329 2.220309 0.40579712 8
4.0951838 2.2318385 -0.73868364 8
4.0808516 2.2231064 0.57059228 8
4.1178503 2.2423301 -0.57571083 7
4.0651217 2.2126951 0.73305202 11
4.0791326 2.2203214 -0.40632007 6
4.0457315 2.2012279 0.89527589 12
4.0881238 2.2233686 -0.24388559 7
4.0559635 2.2049582 1.0658182 10
4.078074 2.2160585 -0.081014074 10
4.0300622 2.1890578 1.2288729 9
3.1528034 1.7075598 -0.96073633 3
4.0604482 2.1982243 0.08059521 10
3.5186009 1.90409 -0.92364907 2
4.0668073 2.1998317 0.2423155 9
4.0631862 2.1978731 -0.89794719 7
4.0590277 2.1947079 0.40370542 8
4.0751429 2.2025049 -0.73367769 8
4.0501637 2.1880887 0.56523001 8
4.0680122 2.1968143 -0.56766742 6
4.0536976 2.1881728 0.72961038 7
4.0623112 2.1928225 -0.4038797 7
4.0257463 2.1721749 0.88916999 13
4.064218 2.1920176 -0.24200147 9
4.0344729 2.1750684 1.0581697 12
4.0540991 2.1847334 -0.080385789 12
4.0240736 2.1676466 1.2247318 12
3.1587443 1.6965448 -0.96073633 3
4.0434303 2.1707959 0.080106542 10
3.5509832 1.9056175 -0.93039757 2
4.0427809 2.1686294 0.24043141 9
4.0483422 2.171613 -0.89298618 9
4.0350575 2.1635797 0.40056777 8
4.0566912 2.1742682 -0.72898471 8
4.0192823 2.1533129 0.5598678 8
4.0406566 2.1638589 -0.56279266 6
4.0090652 2.1460409 0.72022432 8
4.0312972 2.1579416 -0.40004486 9
4.0056081 2.1432886 0.88306409 12
4.0454273 2.1636889 -0.24043141 9
3.9922035 2.1343265 1.0451226 12
4.0158458 2.1460629 -0.079478264 12
3.9958308 2.1344728 1.2138613 12
3.1629417 1.6846009 -0.96021873 3
4.0121508 2.1359932 0.07933864 9
3.5404098 1.8840564 -0.92589855 2
4.0150595 2.135746 0.23833798 9
4.040298 2.1491711 -0.88955158 12
4.0144386 2.1345143 0.39777881 8
4.0346026 2.1443353 -0.72366595 8
4.0057359 2.1280963 0.55694294 8
4.0253935 2.1376364 -0.55962408 7
3.9746563 2.1098065 0.71271551 8
4.0106473 2.128911 -0.39725587 7
3.9835815 2.1136532 0.8765766 10
4.0264888 2.1355162 -0.23886132 9
3.9703598 2.1048598 1.0374742 13
3.9879735 2.1133058 -0.078780167 12
3.9810648 2.1087551 1.207132 11
3.1722198 1.6753534 -0.961254 4
3.973604 2.0977039 0.078431122 11
3.5573065 1.8771427 -0.92859799 2
3.9906921 2.104944 0.23645388 9
4.0130458 2.1167347 -0.88191921 10
3.9901409 2.1037633 0.39464122 8
4.0071125 2.1118176 -0.7174086 8
3.9885523 2.1011469 0.55353063 8
4.0117536 2.1124747 -0.55669922 7
3.957525 2.0830374 0.70833534 8
3.9722147 2.0907693 -0.39272377 7
3.9527118 2.0796232 0.86818099 10
4.0038667 2.1056452 -0.2370819 9
3.9431841 2.0728533 1.0284761 13
3.9634619 2.0826304 -0.078151874 10
3.9439335 2.0714908 1.1936734 11
3.1828923 1.6675135 -0.96280694 4
3.9521937 2.0696731 0.077872641 11
3.5807765 1.874374 -0.933097 2
3.9693367 2.0768828 0.23477912 10
3.9869928 2.0861211 -0.87466848 10
3.9564886 2.0692832 0.39063203 9
3.9650764 2.0728936 -0.7086482 8
3.9567928 2.0676813 0.54816836 9
3.9835455 2.0807788 -0.55182445 7
3.9363942 2.0552731 0.70332944 8
3.9544003 2.0646744 -0.39028341 9
3.9212961 2.046519 0.85978532 10
3.9771819 2.074805 -0.23509313 9
3.9327576 2.0507545 1.0239772 13
3.9490678 2.058383 -0.077733018 10
3.9028099 2.0334082 1.1791797 11
3.1766927 1.6501598 -0.95918339 3
3.9309993 2.0411196 0.077314161 11
3.5665419 1.8510898 -0.92769814 2
3.9446499 2.0464599 0.23289503 9
3.9559109 2.0523019 -0.86627293 10
3.9230077 2.034363 0.38662288 9
3.9407213 2.0426762 -0.70301658 8
3.9111094 2.0264609 0.54085618 8
3.9555309 2.0486016 -0.54694968 9
3.9172304 2.0278983 0.69863641 10
3.9279654 2.0334558 -0.38697147 9
3.909236 2.0228949 0.8555876 10
3.938277 2.0370512 -0.23237166 9
3.9121947 2.0226951 1.0167787 13
3.9278049 2.0298972 -0.077174544 12
3.8910046 2.0100183 1.1734856 11
3.1910205 1.6434845 -0.96177161 3
3.9167647 2.0164027 0.076895304 11
3.576447 1.8404131 -0.92859799 2
3.9162483 2.0144055 0.2308016 10
3.9351177 2.0241115 -0.86016703 9
3.9070499 2.0088143 0.38435683 9
3.9267433 2.0180733 -0.69926214 8
3.8916736 1.9991891 0.53720009 9
3.9132135 2.0093913 -0.54012495 7
3.8856223 1.9943689 0.69175333 10
3.921211 2.0117686 -0.38557699 9
3.8900721 1.9957929 0.84986329 10
3.9044886 2.0023286 -0.22996421 8
3.8741429 1.9859149 1.0050814 13
3.8992734 1.9979353 -0.076476447 11
3.8808031 1.9876164 1.1683092 11
3.1935816 1.6300204 -0.96073633 3
3.8845954 1.9827173 0.076127395 11
3.5950007 1.834116 -0.93174726 2
3.8947868 1.9862081 0.22912684 8
3.9040287 1.9900603 -0.85177141 8
3.889534 1.9818165 0.38191649 11
3.8989086 1.9857386 -0.69300479 9
3.8774006 1.9747844 0.53427523 8
3.9025123 1.986714 -0.5376876 7
3.8520679 1.9601871 0.68455732 8
3.8891394 1.9781992 -0.38174215 9
3.8693602 1.9672862 0.84375745 10
3.8922153 1.9780518 -0.22881283 8
3.8535974 1.9575796 0.9978829 15
3.8598692 1.9607657 -0.075568922 11
3.8532665 1.9565657 1.1579564 11
3.1940813 1.6162453 -0.95918339 3
3.8739915 1.9594414 0.075778343 11
3.6069162 1.8235661 -0.933097 1
3.8663907 1.9539002 0.22703341 9
3.8899257 1.9657937 -0.84719193 9
3.8715296 1.9556515 0.3794761 9
3.8776033 1.9578701 -0.68799889 8
3.8562589 1.9462461 0.53037542 8
3.8849552 1.9598808 -0.53427523 7
3.8398237 1.9362724 0.68111575 10
3.860441 1.9466689 -0.3782559 9
3.8271155 1.9290241 0.83307213 10
3.8848267 1.957265 -0.22797546 9
3.8238559 1.9257098 0.98843491 15
3.8348796 1.9304203 -0.074940629 11
3.8310742 1.927669 1.1491566 12
3.196249 1.6033558 -0.95814812 3
3.834332 1.9226018 0.074870825 13
3.6376505 1.8231878 -0.93939561 1
3.8446147 1.9260811 0.22535865 9
3.8739436 1.9407743 -0.84223092 9
3.8302326 1.9180375 0.37476969 11
3.8473196 1.9257541 -0.68142867 8
3.8417242 1.9221174 0.52745056 8
3.8740184 1.9374275 -0.53183788 9
3.8218234 1.9104904 0.67673558 9
3.8280065 1.9135814 -0.37442106 8
3.8057249 1.9016151 0.82696623 10
3.8416052 1.9187036 -0.22504464 9
3.816607 1.905386 0.98483574 15
3.8344359 1.9134532 -0.074801013 11
3.8118498 1.9013492 1.1413921 13
3.2277734 1.6050909 -0.9659127 3
3.8123691 1.8949636 0.074312352 10
3.6125782 1.794872 -0.93129742 1
3.8191159 1.8966573 0.22347455 9
3.8437696 1.9089009 -0.83421695 8
3.8101356 1.8913664 0.37215498 9
3.8257053 1.8982654 -0.67642272 8
3.8039515 1.8866442 0.52135712 8
3.8345165 1.9009674 -0.52550066 9
3.8036888 1.8848598 0.67235541 9
3.8168097 1.8913617 -0.37267792 8
3.7841916 1.8743758 0.82086033 10
3.8124819 1.8875577 -0.2229512 9
3.7917957 1.8764944 0.97673744 15
3.8195837 1.8894162 -0.074382156 13
3.7838292 1.8709058 1.1310393 12
3.2177613 1.5861274 -0.961254 3
3.8028152 1.8736926 0.073998205 12
3.6363044 1.7908599 -0.93579644 1
3.7970428 1.8692018 0.22179982 9
3.8134198 1.8772638 -0.82620305 9
3.8041997 1.8719001 0.37093481 11
3.8057201 1.871821 -0.67172968 7
3.7855742 1.861092 0.51794475 8
3.8019323 1.8683126 -0.52013838 9
3.7854226 1.8593771 0.66797519 11
3.8055062 1.8692421 -0.37093481 8
3.7695646 1.8507713 0.81628096 10
3.7975304 1.8636816 -0.22169513 9
3.7685812 1.8486562 0.96908909 15
3.7848604 1.8558224 -0.073579341 13
3.7712536 1.8483365 1.1253452 12
3.2319574 1.5791253 -0.96384215 4
3.7877705 1.8498752 0.073579341 12
3.6250196 1.7696095 -0.93129742 1
3.7838004 1.8463007 0.22064841 11
3.7917192 1.8501648 -0.82009715 9
3.7784777 1.8428872 0.36779723 11
3.7926986 1.849004 -0.66828811 8
3.7706335 1.8374324 0.51501989 8
3.790585 1.8463361 -0.51770103 9
3.7545929 1.8279943 0.66140497 11
3.772598 1.8367605 -0.3671 9
3.7530527 1.8264344 0.81131989 12
3.7716849 1.8346877 -0.21981104 9
3.7417126 1.8192985 0.96054095 16
3.7589414 1.8268665 -0.072951064 13
3.7516181 1.8224982 1.1175808 12
3.2235408 1.561097 -0.95970106 3
3.7618062 1.8209602 0.072951064 12
3.6487174 1.7654319 -0.93579644 1
3.7668478 1.8217759 0.21928766 9
3.773411 1.82495 -0.81475443 9
3.7490118 1.8123446 0.36431101 11
3.7706714 1.8220036 -0.66328222 8
3.7484243 1.8104445 0.51112008 8
3.7648287 1.8175596 -0.51331371 9
3.7324853 1.801142 0.65639907 11
3.7359204 1.8027997 -0.3629165 9
3.7328813 1.8005277 0.80559564 10
3.7744672 1.8197768 -0.21960169 9
3.7269731 1.7960769 0.9551422 16
3.7310658 1.7972447 -0.072287865 13
3.7179229 1.7901167 1.105675 13
3.2359364 1.5531797 -0.96177161 3
3.7302778 1.789652 0.072218053 12
3.6548581 1.7526838 -0.93579644 1
3.7479694 1.7965308 0.21782227 9
3.7585137 1.801585 -0.81017506 9
3.7373476 1.7906371 0.3625679 11
3.7485032 1.7951777 -0.65827632 8
3.7332342 1.7870646 0.50819516 8
3.756825 1.7975513 -0.5113638 9
3.7102373 1.7744645 0.65139318 11
3.7170279 1.7777122 -0.36047614 9
3.7019465 1.7697057 0.79758167 12
3.7555678 1.7945341 -0.2181363 9
3.7103605 1.7721372 0.94929349 18
3.7066381 1.769565 -0.071694486 13
3.7014835 1.7663109 1.0989457 13
3.2535501 1.5476844 -0.96539509 3
3.7021904 1.7603042 0.071554869 12
3.6609538 1.7399161 -0.93579644 1
3.7307649 1.7722967 0.21646154 11
3.7328589 1.7732915 -0.80330586 9
3.7219782 1.7673243 0.36047614 11
3.7190549 1.765143 -0.6520189 8
3.6999924 1.7553045 0.50283301 8
3.7379658 1.772518 -0.5079515 9
3.6985581 1.7530428 0.64826447 11
3.7088068 1.7579005 -0.35908166 9
3.6761649 1.7416432 0.79071248 12
3.7401483 1.771155 -0.21688022 9
3.6848185 1.7441683 0.94119519 18
3.7037539 1.7523401 -0.071519956 13
3.6849236 1.7426419 1.0922165 15
3.2554371 1.5346711 -0.96435976 3
3.6902227 1.7388474 0.071205825 12
3.6687679 1.7279556 -0.93624628 2
3.6860299 1.7360857 0.21353073 11
3.7194874 1.751053 -0.79910809 11
3.6992798 1.7407489 0.35768715 11
3.6965935 1.7386971 -0.64701301 10
3.6827433 1.7313976 0.49966437 10
3.7043006 1.7415326 -0.50258923 9
3.6703835 1.7248048 0.64232004 9
3.7077074 1.7415541 -0.3583844 9
3.6644511 1.7204559 0.78689629 12
3.6974902 1.73518 -0.21405408 11
3.6605921 1.7178643 0.93354684 18
3.6769578 1.7247616 -0.070891678 13
3.6661944 1.7189322 1.0849695 15
3.2675095 1.5271382 -0.96643037 4
3.6760387 1.7172911 0.070821866 13
3.6780093 1.7174298 -0.93714613 7
3.6718593 1.714558 0.21237932 12
3.7021468 1.7279139 -0.79414707 27
3.6653092 1.7099415 0.35385233 11
3.6880164 1.7197512 -0.64451009 15
3.6596766 1.7057587 0.49576455 10
3.6758692 1.7133061 -0.49795815 10
3.6492233 1.7001113 0.63762695 11
3.6791449 1.7132698 -0.3550725 11
3.6487772 1.6983536 0.78231698 12
3.6706278 1.7077448 -0.21216999 11
3.6415319 1.6942081 0.92724824 19
3.6500185 1.6973816 -0.070263386 14
3.6491008 1.6961783 1.0782403 20
3.2620385 1.511422 -0.96332449 5
3.6563103 1.6933255 0.070333198 13
3.6925268 1.7093158 -0.93939561 8
3.6560702 1.691667 0.21112327 12
3.7135017 1.7174516 -0.79529196 27
3.6474516 1.6869042 0.35158628 12
3.7008719 1.7108266 -0.64576155 26
3.6472921 1.6852875 0.49332717 10
3.6944435 1.70629 -0.49966437 24
3.6300275 1.6757705 0.63324684 11
3.6688209 1.6929048 -0.3535037 27
3.6404216 1.6790278 0.77926397 12
3.674753 1.6940844 -0.21206531 31
3.6314964 1.6741428 0.92319912 24
3.6468401 1.6804469 -0.070088863 39
3.6286786 1.6713083 1.0704756 24
3.2710679 1.5010664 -0.96435976 4
3.6406801 1.6699095 0.069914341 39
3.696995 1.6949592 -0.93894571 7
3.6676931 1.6807506 0.21143727 48
3.723341 1.7054656 -0.7960552 26
3.6409287 1.6677169 0.35036606 42
3.7017288 1.6947845 -0.64482296 25
3.6408098 1.6661251 0.49162099 23
3.7024772 1.6935642 -0.49990809 22
3.619976 1.655063 0.630431 17
3.6804388 1.681928 -0.35402662 22
3.6126208 1.650176 0.77201319 15
3.6791205 1.6797757 -0.21196064 26
3.6145623 1.6503005 0.91735035 13
3.6638918 1.672048 -0.070298299 34
3.5961115 1.6403598 1.0590875 12
3.2835832 1.4922638 -0.96643037 4
3.6504178 1.6582075 0.069984153 30
3.7014077 1.6805928 -0.93849587 7
3.6701918 1.6656448 0.21122794 28
3.7382107 1.6965139 -0.79796326 26
3.6524611 1.6568294 0.350889 31
3.724107 1.688548 -0.6476388 26
3.6360435 1.6478521 0.49015856 30
3.7122769 1.6816199 -0.5003956 22
3.6260173 1.6417849 0.630431 32
3.6989908 1.6748259 -0.35524681 23
3.598685 1.6286505 0.76781541 36
3.684962 1.666922 -0.21196064 26
3.6010542 1.6282107 0.9124015 40
3.6809282 1.6635498 -0.07050772 34
3.5985792 1.6255767 1.0580523 38
3.2799633 1.4768293 -0.96384215 3
3.6653011 1.6495593 0.070158668 28
3.7090292 1.6684607 -0.93894571 6
3.6650531 1.6479115 0.21059991 28
3.7512712 1.6866777 -0.79948968 24
3.6600394 1.6448874 0.35106334 34
3.7443943 1.6820126 -0.65014172 26
3.647207 1.6375884 0.49088979 28
3.7145014 1.6670265 -0.49990809 23
3.6371336 1.6315422 0.63136959 34
3.7139046 1.6659801 -0.35611835 26
3.6186798 1.6225036 0.77086836 31
3.7016933 1.6589506 -0.21258868 24
3.6049378 1.6148332 0.9119516 31
3.686713 1.6506898 -0.07050772 34
3.6042311 1.6130062 1.0580523 26
3.2939205 1.4693052 -0.96643037 4
3.6838226 1.6424543 0.07040301 31
3.7183902 1.6570907 -0.93984544 3
3.6796198 1.6398127 0.21112327 30
3.7571363 1.6735721 -0.79948968 26
3.6766798 1.6369625 0.35210916 34
3.7538519 1.670539 -0.65076745 26
3.6674099 1.6313038 0.49283966 28
3.730891 1.6595409 -0.50137055 23
3.6443293 1.6202736 0.63168246 34
3.7233386 1.6546249 -0.35646698 26
3.6350856 1.6146464 0.77315807 31
3.7220654 1.6525016 -0.21342604 26
3.6173978 1.6060319 0.91375118 31
3.6921663 1.6384559 -0.07050772 34
3.6201556 1.6057459 1.0611582 30
3.2970083 1.4575921 -0.9659127 4
3.6965647 1.6334629 0.070542626 30
3.7381256 1.6510504 -0.94344473 2
3.6978259 1.633251 0.21185598 28
3.7698503 1.6642743 -0.80101627 26
3.6839106 1.6255664 0.35228351 31
3.7647927 1.6604737 -0.6517061 25
3.6836982 1.6239368 0.49430209 28
3.7454562 1.6511624 -0.50258923 22
3.6551051 1.61057 0.63262105 34
3.7251577 1.6406634 -0.35611835 24
3.647608 1.6057463 0.77468461 33
3.7384934 1.6449769 -0.21405408 24
3.6369729 1.6003067 0.91735035 30
3.7085612 1.631036 -0.070717148 29
3.6272292 1.5945085 1.0616758 28
3.3000541 1.4458762 -0.96539509 4
3.7001295 1.6203924 0.07050772 31
3.7292986 1.6323929 -0.93984544 2
3.718143 1.6267366 0.21269335 28
3.7861395 1.656486 -0.80330586 24
3.6965833 1.6165333 0.35298076 31
3.7702787 1.647979 -0.6517061 25
3.6908817 1.6125077 0.49454582 26
3.7584743 1.6412549 -0.50356412 21
3.6697567 1.6017532 0.63418543 32
3.745472 1.6340228 -0.35751286 24
3.6565113 1.5952123 0.77544779 31
3.7439282 1.6325696 -0.21405408 24
3.6550415 1.5930526 0.92049968 27
3.728899 1.6244693 -0.070996389 29
3.6310024 1.5810653 1.0611582 30
3.3159645 1.4383845 -0.96850091 5
3.7204385 1.6138356 0.07078696 31
3.7313986 1.6178139 -0.93894571 1
3.7237992 1.613747 0.21269335 30
3.8029945 1.6472809 -0.80559564 23
3.7116251 1.6069326 0.35385233 33
3.776294 1.6341484 -0.6517061 25
3.6946666 1.598825 0.49430209 28
3.7751114 1.6328565 -0.50502658 21
3.678952 1.5905004 0.6348111 29
3.7694426 1.6288409 -0.35925597 26
3.6641352 1.582579 0.77582937 30
3.7535536 1.6204205 -0.21426344 26
3.6644347 1.5811888 0.92139953 27
3.7363827 1.6122341 -0.071031295 32
3.654238 1.5760325 1.0663346 30
3.3156407 1.4245121 -0.96694797 4
3.7318413 1.6025548 0.070891678 31
3.7408841 1.6056648 -0.93984544 1
3.7296884 1.6000886 0.21269335 30
3.8087218 1.6339949 -0.80559564 24
3.7263665 1.5978936 0.35472387 31
3.8001316 1.6287392 -0.65483475 25
3.7132742 1.5907452 0.49600828 26
3.7701225 1.6143179 -0.50356412 21
3.697469 1.5824472 0.63700122 32
3.7827146 1.6181495 -0.35995319 26
3.6840782 1.5759554 0.77888238 33
3.7738788 1.6135887 -0.2151008 24
3.6663473 1.566857 0.92049968 27
3.7533004 1.6032428 -0.071240723 30
3.6635435 1.5641445 1.0673697 30
3.3261726 1.4146193 -0.96850091 4
3.7447727 1.5926497 0.071031295 31
3.7464666 1.5925959 -0.93984544 1
3.7389271 1.5886227 0.21290269 28
3.8128779 1.6192578 -0.80521399 23
3.7450368 1.5896735 0.35594404 33
3.8097119 1.616344 -0.65546048 23
3.7261136 1.5808758 0.4969832 26
3.7940099 1.6088988 -0.50600159 22
3.6956954 1.5664463 0.63574976 32
3.7993469 1.6095997 -0.36099908 24
3.6970615 1.5655032 0.7804088 30
3.7834463 1.6013038 -0.21531016 23
3.6828346 1.5579633 0.92319912 28
3.760716 1.5909097 -0.071275629 34
3.686774 1.5588712 1.0725461 30
3.3201642 1.3990796 -0.96539509 4
3.7613671 1.5842245 0.071240723 31
3.7520027 1.5795094 -0.93984544 1
3.7625833 1.5839635 0.21394941 30
3.8327031 1.6126951 -0.80826694 23
3.7429409 1.5741568 0.35524681 33
3.8296199 1.6098247 -0.65796345 25
3.7407606 1.5717034 0.49820194 26
3.8142447 1.6017951 -0.5079515 22
3.7045124 1.5557129 0.63637549 30
3.7936413 1.592364 -0.35995319 24
3.7130942 1.5577925 0.78269857 30
3.8034701 1.5949283 -0.21614751 23
3.6987643 1.5502625 0.92589855 25
3.7751918 1.5822955 -0.071450152 32
3.6883593 1.5451448 1.0715109 30
3.3321593 1.3904563 -0.96746564 4
3.7666004 1.5717416 0.071240723 30
3.8003855 1.585063 -0.95064318 1
3.7754636 1.5738931 0.2143681 28
3.8546202 1.6061016 -0.81170154 24
3.7576089 1.5649127 0.35611835 31
3.8349369 1.5971171 -0.65796345 23
3.7514503 1.5615776 0.49893317 26
3.8286996 1.5929494 -0.50917011 22
3.7336309 1.5526334 0.64044279 27
3.8175747 1.5867579 -0.3616963 24
3.7164276 1.5447165 0.78231698 31
3.8179607 1.5861369 -0.21667089 22
3.7164824 1.5432203 0.92904782 27
3.789927 1.5729398 -0.071624674 35
3.7008684 1.5352204 1.0735815 30
3.3349657 1.3786629 -0.96694797 4
3.7794561 1.5616395 0.07138034 30
3.7698722 1.5569092 -0.94164515 1
3.7883186 1.5637536 0.21478678 30
3.8653688 1.5955586 -0.81284636 23
3.7738287 1.5570016 0.3571642 30
3.8477936 1.5867321 -0.65921491 25
3.7532074 1.5469609 0.49844566 26
3.8379071 1.5810881 -0.50965762 22
3.7499886 1.544103 0.64232004 27
3.8304596 1.5764563 -0.36239356 26
3.7308738 1.535471 0.78422499 33
3.80685 1.5659627 -0.21572883 24
3.7290564 1.533201 0.93084741 30
3.8064919 1.564262 -0.071834102 34
3.7133522 1.5252292 1.075652 28
3.3453612 1.3686225 -0.96850091 4
3.8052433 1.5567652 0.07176429 31
3.7716758 1.5422661 -0.94074529 1
3.7974515 1.5520324 0.21499613 30
3.8893657 1.5888039 -0.81666255 23
3.7905772 1.5476791 0.35821009 31
3.8645568 1.5770977 -0.66109216 23
3.7677739 1.5376012 0.49966437 26
3.8378892 1.5654315 -0.50892639 21
3.7626724 1.5339855 0.6435715 29
3.8506997 1.5690914 -0.36378807 26
3.7510233 1.5277097 0.787278 33
3.8218136 1.5557634 -0.21625218 22
3.7310405 1.5180552 0.92994767 27
3.8230424 1.5554881 -0.072043538 34
3.7365494 1.5195345 1.0808283 28
3.3393743 1.3525877 -0.96539509 3
3.8220446 1.5473111 0.071973726 31
3.7845294 1.5313547 -0.94254488 1
3.810252 1.5417629 0.21541482 30
3.8821466 1.5700678 -0.81399125 26
3.7978039 1.5351837 0.3583844 28
3.8773651 1.5665573 -0.66234362 22
3.7881088 1.5297287 0.50161427 25
3.8617361 1.5594611 -0.5113638 23
3.7680037 1.5208428 0.6435715 29
3.8598492 1.5571302 -0.36413667 24
3.7636149 1.5175461 0.78880447 33
3.8457458 1.5498801 -0.21729892 20
3.7432845 1.5085869 0.93174726 27
3.8265944 1.5413855 -0.072008632 35
3.7507913 1.5100906 1.0834166 30
3.3474274 1.3429441 -0.96643037 4
3.8327227 1.5368617 0.072078437 31
3.8221469 1.5318446 -0.95064318 1
3.8246136 1.5328332 0.21593818 30
3.9055572 1.564485 -0.81780744 26
3.8065732 1.5240631 0.35873303 30
3.8898745 1.5566254 -0.66359508 23
3.8023775 1.5208435 0.50283301 23
3.8816321 1.5525432 -0.51331371 24
3.7766943 1.5098065 0.64419717 29
3.8668425 1.5450602 -0.36431101 23
3.7777433 1.5086967 0.79071248 33
3.8657033 1.5430428 -0.2181363 19
3.7591255 1.5005009 0.93444669 30
3.8335428 1.5294276 -0.072043538 35
3.7468052 1.4940671 1.0808283 28
3.3518622 1.3318369 -0.96643037 4
3.8303647 1.52119 0.07193882 30
3.8199606 1.5162865 -0.9488436 1
3.8466485 1.526105 0.21688022 27
3.9198472 1.5551456 -0.81971544 27
3.8190148 1.5143683 0.35943025 28
3.9023604 1.5466295 -0.66484654 23
3.8147817 1.5111511 0.5038079 25
3.9017932 1.5448291 -0.51526362 23
3.8021469 1.5046089 0.6476388 30
3.8849127 1.5373615 -0.36553118 24
3.7845511 1.4968839 0.79109418 33
3.8800862 1.5338852 -0.21865964 23
3.7860892 1.4959623 0.93984544 31
3.861176 1.5248536 -0.072462395 35
3.76278 1.4852339 1.0839342 27
3.3582888 1.3208348 -0.96694797 4
3.8561218 1.5158606 0.072322771 33
3.8179746 1.5000932 -0.9470439 1
3.8519523 1.5126673 0.21688022 28
3.9325624 1.544323 -0.82124197 26
3.8335519 1.504667 0.36030185 30
3.9150913 1.535885 -0.66609806 25
3.8181851 1.4971 0.50356412 25
3.9108591 1.5326476 -0.51575112 23
3.8128934 1.4934899 0.64857739 29
3.8976753 1.5266986 -0.36622843 24
3.7934096 1.4850945 0.79185736 34
3.8816972 1.5188752 -0.21845031 23
3.7949176 1.4841576 0.94074529 31
3.8776498 1.5157331 -0.072671816 34
3.7805374 1.4770103 1.0875577 30
3.3682795 1.3112072 -0.96850091 4
3.8669808 1.5045651 0.072427489 31
3.837718 1.4924062 -0.95064318 1
3.8534856 1.497766 0.21667089 28
3.9562278 1.5376996 -0.82505816 26
3.8554943 1.4977722 0.36187065 28
3.9314773 1.5264981 -0.66797519 23
3.8252385 1.484482 0.5038079 25
3.9235871 1.521861 -0.51672608 24
3.8309762 1.4851683 0.65076745 32
3.9106765 1.515281 -0.36692566 24
3.813216 1.4775177 0.79491037 34
3.8981495 1.5096469 -0.21907835 23
3.7964408 1.4694939 0.93984544 31
3.8941073 1.5065165 -0.072881252 34
3.8036876 1.4707745 1.092734 30
3.382077 1.3023232 -0.97108907 5
3.8815401 1.4946495 0.072602011 31
3.806529 1.4650047 -0.94164515 2
3.8736036 1.490041 0.21750826 28
3.9581726 1.5217789 -0.82429492 27
3.8665373 1.4857739 0.36239356 31
3.9499543 1.5170369 -0.67016536 26
3.8563406 1.4810834 0.50722027 25
3.9325824 1.5095775 -0.51721358 25
3.8342924 1.4710798 0.65045458 32
3.9289634 1.506615 -0.36814582 22
3.833271 1.4691533 0.79796326 34
3.9148474 1.4996349 -0.21970637 24
3.8127203 1.4597508 0.94254488 31
3.8974748 1.4922001 -0.072846346 35
3.8142114 1.4595585 1.0942869 28
3.3667448 1.2829435 -0.96539509 4
3.9038107 1.4868194 0.07291615 31
3.8100529 1.4503472 -0.94119519 2
3.8937144 1.4821941 0.21834564 27
3.9707994 1.5107462 -0.82582134 27
3.8698378 1.4715608 0.36221924 30
3.9699979 1.508853 -0.67266828 26
3.8691657 1.4697597 0.50819516 26
3.952935 1.5007914 -0.51916343 24
3.844944 1.4597909 0.65139318 32
3.9267483 1.490063 -0.3674486 23
3.8457184 1.4585494 0.79948968 33
3.9349983 1.4916247 -0.22054374 22
3.8269053 1.4498843 0.94479448 28
3.9120102 1.4821277 -0.073020868 35
3.8120563 1.4434999 1.0922165 28
3.3784332 1.2739089 -0.96746564 5
3.9031072 1.4717482 0.072811447 31
3.8257825 1.4418287 -0.94389462 5
3.9175551 1.4756345 0.21939236 28
4.0036101 1.5072511 -0.83154565 35
3.8861396 1.4622525 0.36326513 30
3.9823744 1.4984632 -0.67391974 31
3.8833094 1.4604138 0.5094139 26
3.9746144 1.4939597 -0.52135712 25
3.8629611 1.4512225 0.65358323 32
3.9412515 1.4798496 -0.36832017 24
3.8505344 1.4457874 0.79948968 34
3.9492731 1.4820752 -0.22106709 27
3.8499382 1.4440304 0.94929349 28
3.9302669 1.4733777 -0.07326521 37
3.8279266 1.4342505 1.0953223 27
3.3898785 1.2654017 -0.96953619 4
3.9100935 1.4588146 0.072846346 31
3.8070545 1.4196149 -0.93804586 3
3.9301677 1.4647415 0.21981104 28
4.0104251 1.4946526 -0.83192724 63
3.9059043 1.4549203 0.36465961 33
3.9931343 1.4866214 -0.67485833 58
3.8921037 1.4482349 0.50990134 26
3.9909687 1.4842271 -0.52281958 54
3.8809643 1.442548 0.6557734 32
3.976018 1.4778793 -0.37110916 63
3.8592384 1.433706 0.80025297 33
3.9694021 1.4738413 -0.22190447 48
3.8640893 1.4339734 0.95154291 31
3.9466345 1.4638226 -0.073474631 40
3.8455899 1.4255791 1.0989457 26
3.4051476 1.2575775 -0.972642 5
3.937674 1.4534653 0.07326521 48
3.8119872 1.406316 -0.93804586 1
3.9333823 1.4503235 0.21970637 39
4.0045657 1.4765704 -0.82963753 13
3.9296536 1.4481674 0.36640272 34
4.0038605 1.4747208 -0.67579699 31
3.8989983 1.4353268 0.51014513 27
3.9905362 1.4682316 -0.52208835 41
3.8952463 1.4324 0.65733767 32
3.9811528 1.4639903 -0.37110916 50
3.890018 1.4297066 0.80559564 33
3.9782717 1.4613547 -0.22211383 66
3.8599253 1.4171176 0.94929349 28
3.9629848 1.4541695 -0.073684059 100
3.865052 1.4174689 1.1030868 26
3.4022589 1.2430309 -0.97057146 4
3.9539931 1.4438276 0.073474631 94
3.8278565 1.3970108 -0.94074529 1
3.9515555 1.4413745 0.22043908 122
4.0078516 1.4619091 -0.82925594 30
3.9402997 1.4364897 0.36692566 81
3.9978473 1.456679 -0.67391974 15
3.9431551 1.4359716 0.51526362 57
3.9956367 1.4542938 -0.52208835 11
3.9095044 1.4221716 0.65890205 47
3.9918556 1.4521288 -0.3716321 9
3.8986752 1.4174619 0.80635887 34
3.9871032 1.4488223 -0.22232316 12
3.8740063 1.406962 0.95154291 31
3.9529989 1.4348698 -0.073404826 30
3.8772404 1.406603 1.1051573 27
3.4102113 1.2324597 -0.97160673 4
3.9815784 1.4381698 0.073893487 19
3.821712 1.3796692 -0.93804586 1
3.9715927 1.4329939 0.22127645 28
4.0092368 1.4465764 -0.82849264 30
3.9509127 1.4247551 0.3674486 67
4.0066252 1.4440535 -0.67454553 31
3.9406736 1.4195065 0.51428866 63
3.9950852 1.4383211 -0.52135712 40
3.9181626 1.4098527 0.65952778 99
3.9650304 1.4267169 -0.36866876 46
3.9165313 1.4084938 0.80903018 100
3.9864967 1.4328718 -0.22200914 38
3.8954005 1.3993592 0.9555921 97
3.9561012 1.4203856 -0.073369913 35
3.8875809 1.3950204 1.1067102 55
3.4017587 1.2159972 -0.96798331 5
3.9357302 1.4060968 0.072951064 34
3.8246696 1.3656662 -0.93759602 2
3.9558787 1.4117383 0.22012506 39
3.9994698 1.4272946 -0.82543975 23
3.9483562 1.4082769 0.36675134 22
3.9874527 1.4214351 -0.67047822 25
3.9456043 1.4057432 0.51428866 11
3.9926012 1.4217021 -0.52038211 25
3.9305041 1.3988154 0.66077924 17
3.9756179 1.4148707 -0.36919171 28
3.9066257 1.3895513 0.80597723 30
3.9820652 1.4156016 -0.22148579 28
3.9149523 1.3909717 0.95919132 40
3.9629197 1.4072378 -0.073404826 40
3.8978891 1.3833792 1.1082631 72
3.4278393 1.2118415 -0.97419494 5
3.9538126 1.3970143 0.07319539 34
3.820225 1.3490634 -0.93534642 2
3.9645498 1.3992496 0.2203344 33
3.9822116 1.4054831 -0.82086033 24
3.955127 1.3951477 0.36692566 49
3.9663074 1.3983154 -0.66609806 25
3.9355097 1.3866833 0.51233876 42
3.9713271 1.3985245 -0.5169698 24
3.9316354 1.383778 0.66015351 37
3.956099 1.3923882 -0.36692566 28
3.9077489 1.3746023 0.80521399 27
3.9606032 1.3924178 -0.22002037 26
3.9216211 1.3779461 0.95964122 16
3.954601 1.3887568 -0.073160492 37
3.4229298 1.1966833 -0.97160673 5
3.9435627 1.3779263 0.07291615 33
3.8433089 1.3421438 -0.93984544 2
3.9411232 1.3755326 0.21876432 27
3.9685564 1.3851074 -0.81704414 26
3.9468043 1.3767406 0.36570549 28
3.9562423 1.3792584 -0.66359508 23
3.9347014 1.3709807 0.51160759 26
3.9518132 1.3761674 -0.51380116 23
3.9364421 1.3700445 0.66015351 37
3.9534092 1.3759497 -0.36622843 27
3.9162321 1.3622422 0.80597723 37
3.9409146 1.3700591 -0.21865964 26
3.9024775 1.3559331 0.95379245 40
3.9405348 1.3683835 -0.072811447 35
3.8910267 1.3504325 1.1036046 45
3.4197831 1.1822021 -0.96953619 4
3.9332287 1.3589272 0.072636917 34
3.868233 1.3357177 -0.94479448 8
3.9232452 1.3539473 0.21750826 28
3.9362507 1.3584356 -0.80941176 23
3.9233336 1.3532095 0.36309084 30
3.9348872 1.3564281 -0.65921491 23
3.918818 1.3501238 0.50892639 26
3.9284394 1.3526695 -0.51014513 22
3.9094467 1.3453687 0.65483475 35
3.9412324 1.3563073 -0.36465961 27
3.9042537 1.3428197 0.80254269 33
3.9230084 1.3485025 -0.21740359 24
3.8979709 1.3391374 0.95154291 31
3.9225903 1.34683 -0.072392583 40
3.8993714 1.3380949 1.1046398 27
3.4293733 1.1721311 -0.97108907 5
3.9190238 1.3387278 0.072287865 33
3.8618069 1.318428 -0.94209504 12
3.9125929 1.3357666 0.21667089 28
3.9223886 1.3383464 -0.80559564 23
3.9035177 1.3311492 0.36082479 30
3.9283798 1.33886 -0.65733767 25
3.9122331 1.332595 0.50746399 26
3.9162233 1.3331935 -0.5079515 23
3.893316 1.3253953 0.65139318 37
3.9157641 1.3322725 -0.36187065 28
3.8921893 1.3234938 0.79910809 33
3.9163442 1.3309469 -0.21677555 24
3.8767891 1.3167477 0.94524431 31
3.8986332 1.324167 -0.071869008 37
3.8854938 1.3189478 1.0994633 27
3.4334435 1.1601539 -0.97108907 5
3.8893421 1.3142011 0.071659587 34
3.864311 1.3049918 -0.94164515 2
3.9058781 1.3182678 0.21604285 28
3.9121535 1.3196274 -0.80254269 26
3.8835969 1.30924 0.35855874 30
3.9084632 1.3176229 -0.65327036 26
3.8902948 1.3107398 0.50405163 25
3.9018104 1.3138635 -0.50551409 22
3.8773253 1.3048652 0.6479516 34
3.9015064 1.3122431 -0.36012751 28
3.8723664 1.3024421 0.79414707 33
3.8999124 1.3109515 -0.21562417 26
3.8848286 1.3051265 0.94614416 31
3.8937538 1.3073667 -0.071694486 37
3.8571074 1.2943153 1.0901459 28
3.4354393 1.1481501 -0.97057146 4
3.8730421 1.2936469 0.071275629 33
3.887327 1.2976663 -0.94614416 1
3.8912821 1.2989866 0.21499613 28
3.9016092 1.3016772 -0.79948968 26
3.8727965 1.2913114 0.3571642 31
3.8980467 1.2989748 -0.65076745 27
3.8703611 1.2890004 0.50088304 26
3.8931887 1.2958462 -0.5038079 22
3.8647628 1.2863847 0.64513582 32
3.8869307 1.2930098 -0.3583844 28
3.8508067 1.2802466 0.78880447 34
3.8741388 1.2872529 -0.21394941 27
3.8597701 1.2817305 0.93894571 31
3.8771915 1.2875158 -0.071310528 37
3.8558779 1.2796909 1.088593 30
3.4412608 1.1367563 -0.97108907 5
3.8640189 1.2764065 0.071031295 33
3.9286194 1.2969856 -0.9551422 1
3.8692396 1.2766334 0.21353073 30
3.889349 1.2825156 -0.7960552 26
3.8697114 1.2752913 0.35646698 31
3.8798192 1.2786225 -0.64701301 26
3.846333 1.2668427 0.49722698 28
3.8748372 1.2754815 -0.50088304 23
3.8504646 1.2667141 0.64200711 32
3.8724933 1.273212 -0.35664126 28
3.8438408 1.2637916 0.7865147 34
3.8651037 1.270035 -0.21321672 28
3.839931 1.2610189 0.933097 27
3.8626621 1.2677389 -0.070961483 35
3.8364577 1.2583971 1.0818636 28
3.463572 1.1307331 -0.97626543 5
3.8477595 1.2554135 0.070647344 33
3.8511047 1.2550179 0.21227466 30
3.8695357 1.2610242 -0.79109418 28
3.8570893 1.2562215 0.35489815 34
3.8656957 1.2582785 -0.64388436 26
3.8358481 1.2478249 0.49527705 28
3.8549445 1.253291 -0.49771443 23
3.8231444 1.2422147 0.63668835 34
3.8503859 1.251066 -0.35420093 27
3.8372428 1.2460573 0.78422499 33
3.8545351 1.250927 -0.21237932 30
3.8148677 1.2373177 0.92589855 28
3.834944 1.2430916 -0.070368104 35
3.8263421 1.2395633 1.0777225 33
3.4638212 1.117449 -0.97523022 5
3.8330865 1.2358377 0.070298299 33
3.838352 1.2360564 0.2113326 30
3.8477514 1.2390833 -0.78575146 28
3.8330021 1.2335954 0.35228351 35
3.8587813 1.2411488 -0.64200711 26
3.8326216 1.2319967 0.49430209 28
3.855516 1.2386137 -0.49722698 24
3.8124106 1.2240318 0.63418543 34
3.8224804 1.227265 -0.35123762 26
3.8116591 1.2230569 0.77811909 33
3.8436635 1.2325863 -0.21154197 30
3.8080285 1.220426 0.92319912 28
3.8278339 1.2260367 -0.070158668 37
3.8030472 1.2173659 1.069958 30
3.46402 1.104177 -0.97419494 5
3.8068912 1.2127393 0.069739819 30
3.8255143 1.2171993 0.21039055 30
3.8483119 1.2244531 -0.78498828 30
3.8126013 1.2123599 0.35001746 34
3.8292041 1.2169017 -0.63637549 26
3.8293312 1.2162062 0.49332717 28
3.842787 1.2197436 -0.49503332 25
3.8015969 1.2059371 0.63168246 35
3.8153462 1.2102988 -0.35019177 26
3.7897053 1.2014371 0.77277648 33
3.8250945 1.2119237 -0.21028589 28
3.7992609 1.2030072 0.92004979 30
3.8130255 1.2066334 -0.069809623 37
3.7833281 1.1965114 1.0632287 31
3.482594 1.0967215 -0.97833604 5
3.7996564 1.1958402 0.06953039 30
3.8068759 1.1966522 0.2091345 27
3.837579 1.2063034 -0.78193527 28
3.8035049 1.1948632 0.34879729 35
3.8051581 1.1946529 -0.63168246 25
3.7994597 1.1921356 0.48893982 28
3.820504 1.198006 -0.49162099 23
3.7963583 1.1897069 0.63011813 37
3.8062394 1.1928035 -0.34897158 28
3.7751405 1.1823343 0.7689603 34
3.7988045 1.1890177 -0.20861115 26
3.784838 1.183921 0.91555077 31
3.8076711 1.1903337 -0.069635101 36
3.7708859 1.1781118 1.0585699 30
3.4937799 1.0868527 -0.98040658 5
3.7885308 1.1778212 0.06925115 30
3.7841203 1.1757258 0.20766909 26
3.8117676 1.1835843 -0.77582937 28
3.7962353 1.178037 0.34775141 31
3.7979841 1.1778532 -0.62980521 23
3.7751567 1.1700497 0.48528376 30
3.7943225 1.175266 -0.48772117 23
3.7814131 1.1712674 0.62698942 37
3.7989597 1.1759758 -0.34792572 27
3.7698672 1.1662472 0.76705217 36
3.7838504 1.1698496 -0.20756441 27
3.7554336 1.1603479 0.90745258 31
3.7905807 1.1712075 -0.06925115 37
3.7618518 1.1616099 1.0549464 27
3.4827785 1.0701137 -0.97626543 6
3.7790353 1.161141 0.069006816 30
3.7652893 1.1554773 0.20641303 26
3.7858438 1.1610641 -0.76972359 24
3.7774651 1.1577713 0.34565967 30
3.7943149 1.1629356 -0.62855375 25
3.7676277 1.1540369 0.48382133 27
3.7811153 1.1574484 -0.48552752 21
3.7571442 1.1493915 0.62229639 33
3.7897043 1.1586291 -0.34670553 28
3.7699587 1.1525923 0.766289 36
3.7705176 1.1520456 -0.20662238 25
3.7480783 1.1444724 0.90475315 31
3.7640443 1.1486294 -0.068692669 34
3.7529478 1.1445293 1.0513231 30
3.4789145 1.0563124 -0.97419494 6
3.7658439 1.1427158 0.068692669 33
3.7726474 1.1440593 -0.9101519 1
3.7578309 1.1388521 0.20578501 27
3.770885 1.1428083 -0.76590741 26
3.7488668 1.1354212 0.34269637 33
3.7832265 1.145105 -0.62605083 25
3.7583323 1.136856 0.48211515 28
3.7718318 1.140221 -0.48382133 21
3.7384422 1.1294134 0.61854196 33
3.7649174 1.1374117 -0.34409088 30
3.749526 1.1320497 0.76132792 35
3.7553952 1.1331066 -0.20557566 25
3.7352588 1.1263177 0.90070403 34
3.7546279 1.1314455 -0.068448335 36
3.7273238 1.1225079 1.0430408 30
3.4844315 1.0447162 -0.97471261 6
3.7372456 1.1198052 0.06809929 31
3.7355468 1.1185877 -0.90025413 10
3.7560432 1.124009 0.20547098 27
3.7654471 1.1268232 -0.76399928 27
3.7337193 1.1166186 0.34095326 33
3.7493465 1.1205813 -0.61979342 27
3.7375512 1.1163435 0.47894657 27
3.7548654 1.1208012 -0.4811402 21
3.7366822 1.1146654 0.61760336 34
3.7440436 1.1168613 -0.34182483 30
3.7308776 1.1122229 0.7567485 35
3.7554996 1.1188495 -0.20536631 23
3.724225 1.1088264 0.8971048 31
3.7470548 1.1149098 -0.068238907 34
3.710851 1.1034327 1.0373468 33
3.5010226 1.0363878 -0.97833604 6
3.7277088 1.102783 0.067854956 33
3.7188723 1.099463 -0.89530522 24
3.7407892 1.1052345 0.20442426 27
3.7561774 1.109781 -0.76132792 26
3.7261288 1.1001942 0.33990738 33
3.7475517 1.1058086 -0.61885482 26
3.7185771 1.0965515 0.47602168 26
3.7397132 1.1020769 -0.47870281 20
3.7253911 1.0971496 0.61510038 34
3.7364521 1.100407 -0.34077895 28
3.7046037 1.0903231 0.75064266 31
3.7287245 1.0967171 -0.20369156 25
3.7093768 1.0903231 0.89260578 31
3.7336566 1.09675 -0.067924768 33
3.7017043 1.0866642 1.0337234 30
3.4990563 1.022534 -0.9767831 4
3.7200184 1.0863996 0.067645527 30
3.7208164 1.0859299 -0.89485526 27
3.7254508 1.0865768 0.20337754 28
3.7430658 1.0917145 -0.75789338 25
3.7261214 1.0860649 0.33955875 33
3.7324231 1.0871968 -0.61572611 27
3.7109456 1.0802383 0.47455928 30
3.7244768 1.0834702 -0.47626543 21
3.7102296 1.0786252 0.61197168 31
3.7287915 1.0840214 -0.33973309 28
3.6895335 1.0719103 0.74682647 31
3.7229402 1.0809094 -0.2031682 27
3.6869588 1.069765 0.88630718 30
3.7182558 1.0781441 -0.067575715 33
3.6999085 1.0721222 1.0321704 31
3.5230227 1.0162024 -0.98247713 1
3.7122591 1.0700852 0.067436099 30
3.7208397 1.0718553 -0.89395547 23
3.7079227 1.0681343 0.20222615 28
3.7185547 1.0704943 -0.75216907 26
3.712657 1.0680948 0.33798996 35
3.7229064 1.07034 -0.61353606 27
3.6994307 1.0628917 0.47260937 30
3.7129719 1.0660809 -0.47431552 23
3.6853063 1.0581375 0.60727865 31
3.7076564 1.0638543 -0.33746704 28
3.6838167 1.0563182 0.74491841 33
3.7113302 1.0635065 -0.20233083 27
3.6794298 1.0536703 0.88360775 31
3.6872072 1.0558976 -0.06694743 33
3.6811557 1.0534695 1.0259588 31
3.5376961 1.0070728 -0.98558295 1
3.6965542 1.0522947 0.067087047 28
3.7093785 1.0552456 -0.89035624 27
3.7001021 1.0519068 0.20159812 30
3.7033832 1.052143 -0.74835294 27
3.6818631 1.0453347 0.33485237 38
3.7055321 1.0520546 -0.61009449 26
3.6972063 1.0489916 0.47187814 32
3.7088478 1.0515972 -0.47334057 22
3.6699719 1.0398825 0.60415 33
3.6883435 1.0443908 -0.33537531 27
3.6721878 1.0398163 0.7418654 31
3.6994619 1.0468436 -0.20149344 27
3.6641512 1.0361611 0.87910873 33
3.6774006 1.0392127 -0.066703096 34
3.6494868 1.0306386 1.0161237 30
3.4740646 0.97651547 -0.96694797 1
3.6617012 1.0285683 0.066388957 30
3.6848962 1.0343899 -0.88360775 24
3.6787517 1.0319725 0.20023739 28
3.6974008 1.0372039 -0.74644482 28
3.6795545 1.031505 0.33432943 33
3.6863563 1.0327179 -0.60634005 27
3.6740825 1.0285881 0.46846578 30
3.6972027 1.0343648 -0.47139066 23
3.6659698 1.024937 0.60289848 36
3.6708584 1.0256131 -0.33345786 30
3.6531045 1.0206528 0.73728597 34
3.6934755 1.0312372 -0.20097008 28
3.6639919 1.022316 0.87820894 31
3.6771526 1.0252964 -0.066633284 36
3.6418967 1.0147811 1.0130178 30
3.5520878 0.98441428 -0.98765355 1
3.6594882 1.0141789 0.066284239 30
3.6640697 1.0147601 -0.87775904 24
3.6688573 1.0153966 0.19950469 30
3.6898239 1.0205061 -0.74415511 28
3.6641061 1.012705 0.33258632 34
3.657747 1.0102602 -0.60102129 27
3.6546888 1.0094156 0.46554092 30
3.683569 1.0166985 -0.46919701 25
3.6523867 1.0074079 0.6000827 34
3.6686537 1.0112057 -0.33293492 28
3.6341083 1.0009995 0.73270655 33
3.6567917 1.0065628 -0.19877198 27
3.6451671 1.0026768 0.87281007 34
3.6614287 1.0071499 -0.066284239 36
3.6323776 0.9984771 1.0093943 28
3.5592294 0.97302711 -0.98868877 1
3.6535358 0.99812347 0.066109717 30
3.6489646 0.99619222 -0.87326002 23
3.6494322 0.99563366 0.19824862 30
3.6668477 1.0003849 -0.73881245 31
3.6483967 0.99466711 0.33084321 34
3.6612511 0.99748701 -0.60102129 27
3.6353803 0.98975521 0.46261609 28
3.660454 0.99589556 -0.46578467 24
3.6465235 0.9914239 0.59851831 36
3.6548576 0.99368984 -0.33136615 28
3.6205289 0.98367608 0.72927201 35
3.6487184 0.99065125 -0.19814396 27
3.6185527 0.98178303 0.86561167 37
