# .PCD v0.7 - Point Cloud Data file format
VERSION 0.7
FIELDS x y z intensity
SIZE 4 4 4 4
TYPE F F F F
COUNT 1 1 1 1
WIDTH 1341
HEIGHT 1
VIEWPOINT 0 0 0 1 0 0 0
POINTS 1341
DATA ascii
-0.66934049 3.2236214 0.6399734 1
-0.67559952 3.2652152 0.89344335 1
-0.6813255 3.3162179 0.059093848 1
-0.66970736 3.2654581 0.17469743 1
-0.66710764 3.255661 0.29075155 3
-0.66353059 3.2439692 0.40655616 10
-0.65599638 3.2128386 0.51936251 7
-0.65572852 3.2143965 0.63768369 2
-0.66419834 3.2675533 0.89344335 1
-0.67607427 3.3499391 0.059652328 1
-0.6669845 3.3108497 0.17700022 1
-0.65377271 3.2482038 0.28988001 2
-0.65259618 3.2482114 0.40679988 10
-0.64516509 3.217046 0.51967537 5
-0.65222043 3.2551653 0.64531606 1
-0.65354395 3.2736409 0.89447862 1
-0.64689541 3.2700536 0.17469743 1
-0.64049798 3.2406936 0.28900844 2
-0.64010036 3.244627 0.40606871 10
-0.63736719 3.2367218 0.52249116 8
-0.63744205 3.2400851 0.64188147 1
-0.649086 3.3084149 -0.058849517 1
-0.63690966 3.2493618 0.88723171 1
-0.64427054 3.3113933 0.05888442 1
-0.64766169 3.335032 0.17804694 1
-0.63715333 3.2839835 0.292669 2
-0.62990195 3.2526884 0.40679988 8
-0.62906319 3.2544429 0.52499413 8
-0.62724411 3.2480736 0.64302635 1
-0.63067526 3.2781234 0.89447862 1
-0.62554604 3.2823381 0.17511612 1
-0.62456739 3.2803156 0.29214606 2
-0.62373328 3.2821701 0.41021225 8
-0.61917239 3.2643816 0.52624559 8
-0.62321347 3.2888217 0.65065867 1
-0.62424463 3.3068817 0.90172559 1
-0.61598229 3.2882934 0.058395755 1
-0.61922258 3.3119869 0.17658153 1
-0.61311382 3.2824757 0.29214606 2
-0.61336315 3.2901819 0.41094348 8
-0.60921991 3.2742913 0.52749711 8
-0.61101109 3.2871168 0.64989549 1
-0.61199492 3.3052413 0.90069032 1
-0.61822981 3.3651612 0.059722137 1
-0.61846465 3.3730638 0.1797217 1
-0.60595894 3.3081136 0.29423779 1
-0.60294616 3.2981608 0.41167468 8
-0.59884953 3.282228 0.52843571 9
-0.59847778 3.2834353 0.6487506 2
-0.62070715 3.4155285 -0.060594756 1
-0.59700203 3.2883499 0.89551395 1
-0.6129353 3.4065471 0.18139644 1
-0.59335053 3.3043256 0.29371485 2
-0.59423178 3.315877 0.41362458 8
-0.59213847 3.3075294 0.53219014 9
-0.59012121 3.3028984 0.6521852 2
-0.585756 3.2884095 0.89499629 2
-0.59410316 3.3693275 0.17930301 1
-0.58423036 3.3201122 0.29493502 2
-0.58151329 3.3080537 0.41240588 8
-0.58297938 3.3231957 0.5343802 11
-0.58221424 3.3222411 0.65561974 2
-0.59036666 3.4107568 0.06042023 1
-0.58233911 3.3713806 0.17930301 1
-0.57592821 3.3377383 0.29632953 2
-0.57501608 3.3394084 0.416062 8
-0.57171094 3.3271573 0.53469306 12
-0.57094675 3.3261881 0.65600139 2
-0.56688941 3.3094785 0.77518129 40
-0.58078074 3.3941448 -0.060106091 1
-0.57310963 3.3812516 0.059861753 1
-0.58189112 3.4403491 0.18286185 1
-0.563941 3.337764 0.29615521 2
-0.56566519 3.3550973 0.41776815 8
-0.56140512 3.3369246 0.53594452 16
-0.55965716 3.3300967 0.65638298 11
-0.5540452 3.3037496 0.77338171 92
-0.55703616 3.3251517 -0.058849517 1
-0.54969311 3.2848363 0.89240813 7
-0.56523156 3.4069045 0.060280614 1
-0.56987923 3.4423592 0.18286185 1
-0.55618811 3.3633003 0.29824695 2
-0.55362773 3.3550925 0.4175244 8
-0.55071557 3.3447115 0.53688318 27
-0.53884864 3.2905481 0.89344335 5
-0.55397564 3.4128044 0.060350422 1
-0.55338985 3.4167252 0.18139644 1
-0.54635292 3.3770225 0.29929283 2
-0.54222995 3.3589644 0.41776815 10
-0.53327811 3.3145394 0.65256679 46
-0.53281885 3.3190815 0.77608109 10
-0.55533993 3.463223 -0.061223041 1
-0.52185863 3.2580733 0.88412589 11
-0.53704554 3.3831177 0.059791945 1
-0.54770786 3.4580898 0.18348989 1
-0.53736591 3.3966196 0.30086163 2
-0.53142935 3.3667192 0.41849938 45
-0.5285809 3.3562799 0.53813463 132
-0.52353466 3.3280175 0.6548565 16
-0.51609379 3.2881935 0.7684328 7
-0.54200786 3.4572384 -0.061083425 1
-0.51137841 3.2656009 0.88567883 11
-0.53749675 3.4640138 0.061188139 1
-0.53196758 3.4362953 0.18223381 1
-0.52702767 3.40832 0.30173317 3
-0.51072192 3.3220627 0.65333003 11
-0.50283915 3.2784176 0.76573336 23
-0.5220623 3.4077172 -0.060175899 1
-0.50202394 3.2807331 0.88930225 1
-0.52060544 3.4342353 0.060629662 1
-0.51668322 3.4164088 0.18108243 2
-0.50998294 3.3840878 0.42020553 46
-0.50425738 3.354028 0.53719604 67
-0.4956232 3.3005273 0.6487506 23
-0.48966229 3.2685893 0.76303399 3
-0.52022594 3.4767594 -0.061362665 1
-0.49342355 3.3015721 0.89447862 1
-0.50744396 3.4281189 0.060490038 1
-0.50650424 3.4300463 0.18171045 47
-0.50118524 3.3981187 0.300513 100
-0.49643254 3.3740637 0.4187431 35
-0.48996383 3.3381777 0.5343802 17
-0.48039642 3.2769849 0.64378959 13
-0.50403947 3.4508526 -0.060873993 1
-0.4763191 3.2650418 0.88412589 1
-0.49970746 3.4549048 -0.93537205 1
-0.49461594 3.4239323 0.060385328 8
-0.49339095 3.4238861 0.18129177 100
-0.48126888 3.3521962 0.41581824 11
-0.47494709 3.3164029 0.53062576 46
-0.47090283 3.2922459 0.64646095 3
-0.50135159 3.5095055 -0.18579267 1
-0.49481407 3.4723876 -0.061223041 1
-0.46437386 3.2628596 0.88309062 1
-0.47717279 3.3995616 0.30033869 12
-0.46598554 3.328299 0.41264963 43
-0.46500775 3.3297787 0.53250295 20
-0.45723742 3.2783144 0.643408 3
-0.4807629 3.4602292 -0.060978711 4
-0.44979438 3.2414987 0.87687898 1
-0.46784934 3.4153745 0.18066373 8
-0.4628734 3.3834405 0.29876989 8
-0.4557074 3.3397396 0.41386834 11
-0.45311457 3.3294244 0.53219014 17
-0.44764271 3.2935081 0.6460793 2
-0.47065964 3.4674006 -0.18338521 1
-0.46599782 3.4420705 -0.060629662 56
-0.4400304 3.2545352 0.8799848 1
-0.46112111 3.4467621 0.06069947 3
-0.45169726 3.3853114 0.17898898 3
-0.44816449 3.3633118 0.29685244 27
-0.44587645 3.3550847 0.41557449 7
-0.43863559 3.3094449 0.52874857 15
-0.43356648 3.2755878 0.64226311 2
-0.45986268 3.4789224 -0.18390857 28
-0.45711693 3.4674664 -0.061048519 6
-0.42059895 3.194761 0.86342037 1
-0.44624689 3.4265378 0.060315516 3
-0.44219187 3.4046934 0.17993104 33
-0.43085104 3.3310275 0.41240588 7
-0.42505822 3.2952826 0.52624559 13
-0.44783551 3.4718645 -0.30626526 5
-0.41636017 3.2322965 0.63348591 2
-0.44822654 3.4844682 -0.18411791 13
-0.44271961 3.45119 -0.060734376 4
-0.40551773 3.1655507 0.85513818 1
-0.44492558 3.5071793 -0.94727772 1
-0.43176919 3.4082365 0.059966467 7
-0.43005496 3.4042344 0.17982636 6
-0.42193019 3.3446143 0.29493502 2
-0.41674402 3.3128154 0.4099685 7
-0.45006284 3.582725 -0.44336072 1
-0.41379955 3.2987063 0.52655846 15
-0.43918625 3.5010829 -0.30870563 27
-0.40458748 3.2298341 0.63272268 2
-0.43630773 3.4879935 -0.18422259 1
-0.42992821 3.4467614 -0.060629662 2
-0.39494213 3.1707811 0.8561734 1
-0.43575329 3.5336363 -0.95400703 3
-0.41864836 3.3997993 0.059791945 13
-0.41695139 3.395803 0.17930301 1
-0.40734383 3.3223357 0.29284328 1
-0.40324959 3.2984867 0.40801859 6
-0.42889345 3.5133379 -0.43458611 11
-0.39989281 3.2805221 0.52342981 12
-0.4296152 3.5243497 -0.31062305 1
-0.39141217 3.215636 0.62966973 2
-0.42268285 3.4775991 -0.18359455 2
-0.41428447 3.4184637 -0.060106091 11
-0.37969321 3.137619 0.84685594 1
-0.42295888 3.5312996 -0.95297176 4
-0.4134264 3.4568353 0.060769279 1
-0.4050976 3.3972373 0.17930301 1
-0.39574337 3.3237376 0.29284328 1
-0.42000717 3.5327742 -0.56347704 2
-0.38939542 3.2801614 0.40558121 7
-0.4175624 3.5226986 -0.43556106 4
-0.38379472 3.2426643 0.5171724 12
-0.41262576 3.4862566 -0.30713683 2
-0.38110897 3.2247808 0.6311962 2
-0.40609482 3.4413671 -0.18160579 2
-0.40118176 3.4099588 -0.059931565 9
-0.36423144 3.1005521 0.83650321 1
-0.41196713 3.5442681 -0.95607764 6
-0.4087334 3.5218213 0.061886236 1
-0.39244941 3.3866584 0.17867498 1
-0.40278748 3.4811845 -0.68118817 1
-0.38230881 3.3092649 0.2914488 1
-0.40790004 3.536181 -0.56378984 10
-0.37930506 3.2933331 0.40704364 6
-0.40979809 3.5635767 -0.44043583 1
-0.37191033 3.2341073 0.51560807 11
-0.3977274 3.463923 -0.3050451 1
-0.36694229 3.2007353 0.62623513 2
-0.39498734 3.450701 -0.18202448 13
-0.39827383 3.4847803 -0.061223041 1
-0.3526341 3.0902264 0.83339739 1
-0.40002453 3.5495241 -0.95711285 7
-0.38285425 3.4078557 0.1797217 1
-0.40004268 3.5664632 -0.69759774 7
-0.36853984 3.2907789 0.28970569 1
-0.3957324 3.5335877 -0.56316411 1
-0.36617509 3.2748451 0.40460625 6
-0.39269343 3.5175679 -0.43458611 2
-0.3586517 3.2177162 0.51279223 11
-0.38409019 3.4514291 -0.3038249 8
-0.35480538 3.1882763 0.62356383 2
-0.38641012 3.4777973 -0.18338521 1
-0.39315045 3.549751 -0.062339999 1
-0.34099489 3.0837579 0.83132678 2
-0.38825411 3.5508306 -0.95711285 13
-0.37390295 3.4251273 0.060140993 1
-0.38997406 3.5781348 -0.83096921 1
-0.36533809 3.3575473 0.17700022 1
-0.38884979 3.5736258 -0.69874257 1
-0.35891536 3.3038676 0.29075155 1
-0.38041255 3.5074539 -0.55878401 1
-0.35174885 3.2484734 0.40119389 5
-0.37849298 3.5011547 -0.43239245 2
-0.34656885 3.2110929 0.51154077 11
-0.37157443 3.4427791 -0.30295336 3
-0.33988735 3.1543603 0.61669469 3
-0.38075617 3.5511019 -0.062339999 1
-0.33064038 3.0887711 0.83236206 2
-0.37707576 3.5636914 -0.96021873 13
-0.36488473 3.4542525 0.060629662 1
-0.37646052 3.5697842 -0.82871968 4
-0.35361814 3.3588018 0.17700022 1
-0.37390891 3.5515313 -0.6941632 1
-0.34446397 3.2773597 0.28831118 1
-0.3702291 3.5284064 -0.56191266 1
-0.33916879 3.2378356 0.39973149 7
-0.36441028 3.4846859 -0.43019882 9
-0.33248553 3.1847773 0.5071606 11
-0.37031138 3.5470996 -0.31201756 1
-0.32724857 3.1399057 0.61364174 2
-0.32192793 3.0993614 0.71939349 13
-0.32224271 3.1129656 0.83857375 1
-0.36423975 3.5611422 -0.95918339 6
-0.34713984 3.3998032 0.059652328 1
-0.36696056 3.600157 -0.83546823 1
-0.33501646 3.2924576 0.17344138 1
-0.35912365 3.5293767 -0.68958372 1
-0.33302245 3.278542 0.28831118 1
-0.35531881 3.5041282 -0.55784535 10
-0.32586455 3.21925 0.3972941 5
-0.35304323 3.4938366 -0.43117377 1
-0.31819519 3.1544721 0.50215465 11
-0.35792816 3.5483706 -0.31201756 1
-0.31431848 3.1214952 0.60982555 16
-0.33602682 3.3546994 -0.058849517 1
-0.31137365 3.1140716 0.83857375 1
-0.35142785 3.5585468 -0.95814812 6
-0.3333075 3.381094 0.05930328 1
-0.35362709 3.5936584 -0.83366859 1
-0.32625577 3.321435 0.17490679 1
-0.34545889 3.5169318 -0.68691242 3
-0.32079914 3.2717531 0.28761396 1
-0.34366128 3.5112453 -0.55878401 3
-0.3134678 3.2085135 0.39583167 5
-0.30737263 3.1575296 0.50246757 21
-0.30513006 3.1401601 0.61326015 6
-0.32431537 3.3558519 -0.058849517 1
-0.3016167 3.1266766 0.84167957 1
-0.33808741 3.5501363 -0.95555997 3
-0.31658235 3.330478 0.058395755 1
-0.33850449 3.5677106 -0.82736999 1
-0.31315246 3.3066466 0.1740694 1
-0.33429009 3.5298436 -0.68920213 10
-0.30787578 3.2569847 0.28621945 1
-0.3002179 3.1878483 0.39315054 7
-0.29561147 3.1507163 0.50121611 36
-0.29380003 3.1372962 0.61249691 6
-0.31259841 3.3569636 -0.058849517 1
-0.28962722 3.1161692 0.83857375 1
-0.32463521 3.539752 -0.95245409 2
-0.3049556 3.3315628 0.058395755 1
-0.32214901 3.526176 -0.8174721 9
-0.29616642 3.2480495 0.17092925 1
-0.32357013 3.5485852 -0.69263667 1
-0.29469985 3.2381973 0.28447634 1
-0.28693685 3.1651533 0.39022568 38
-0.28567824 3.1635332 0.5030933 31
-0.28425601 3.1539457 0.61554986 5
-0.28350279 3.1579001 0.73199075 1
-0.28253412 3.159493 0.84996176 2
-0.31278536 3.5466368 -0.95400703 7
-0.29332352 3.332607 0.058395755 1
-0.31018022 3.5311615 -0.81837195 2
-0.28784284 3.2768679 0.17239466 1
-0.2788789 3.1876016 0.27994424 8
-0.27554271 3.1621807 0.3897382 10
-0.27586973 3.1723351 0.50434476 26
-0.27426207 3.1666543 0.61783957 6
-0.27247709 3.1588707 0.73199075 1
-0.27139172 3.1527138 0.84789127 2
-0.30007815 3.5438571 -0.95297176 13
-0.28227124 3.3335614 0.058395755 1
-0.27036023 3.2062056 0.16862647 1
-0.26825121 3.1945117 0.28046718 5
-0.26704478 3.1868145 0.39266306 8
-0.26495942 3.175247 0.50465763 28
-0.26441184 3.1753721 0.61936599 4
-0.26296723 3.1714094 0.73469019 2
-0.27801478 3.3600044 -0.058849517 1
-0.26404038 3.1979239 0.85979694 26
-0.28691417 3.5275033 -0.94831306 11
-0.27063391 3.3345263 0.058395755 1
-0.25997034 3.2170839 0.16914983 3
-0.28226876 3.4930227 -0.68118817 1
-0.25797728 3.1993554 0.28081581 3
-0.25671256 3.1976211 0.39388174 8
-0.25466025 3.1859982 0.50622195 25
-0.25332525 3.1762757 0.61936599 5
-0.25389978 3.1975617 0.74053884 13
-0.26628357 3.3609545 -0.058849517 1
-0.25181243 3.1853449 0.8561734 28
-0.2732363 3.5189009 -0.94572484 7
-0.24923889 3.2098479 0.056196753 7
-0.25135642 3.2518241 0.17092925 1
-0.24624848 3.2002795 0.28081581 3
-0.24554987 3.1984978 0.39388174 8
-0.24443972 3.1986854 0.5080992 21
-0.24302284 3.1948013 0.62280059 7
-0.24320906 3.2120733 0.74368823 24
-0.2491155 3.2900798 -0.057592943 1
-0.24098216 3.1900573 0.85720873 30
-0.25980946 3.5044208 -0.94158375 6
-0.23791572 3.2167222 0.056301463 1
-0.24117878 3.2686164 0.17176662 1
-0.237995 3.2408605 0.28430203 2
-0.23411372 3.2033358 0.39436921 8
-0.23456775 3.2172508 0.51091504 21
-0.23300517 3.2112951 0.62585354 23
-0.2322752 3.21679 0.74458802 23
-0.23345208 3.2330887 -0.0565807 2
-0.23081601 3.2043672 0.86083221 27
-0.24716593 3.4995251 -0.94003081 3
-0.22865534 3.2374411 0.056650508 1
-0.22976997 3.269438 0.17176662 1
-0.22709693 3.2476339 0.28482497 3
-0.22473511 3.2219172 0.39656287 8
-0.22456603 3.2357855 0.51373082 25
-0.22316745 3.2238014 0.62814325 25
-0.22701237 3.2876494 -0.17270868 1
-0.22147338 3.2155983 0.74413806 20
-0.22312357 3.247849 -0.056825034 1
-0.2210827 3.2263536 0.86652619 30
-0.23607928 3.5080354 -0.94210136 1
-0.22029857 3.2821143 0.057418417 1
-0.21785869 3.25424 0.17092925 2
-0.21725196 3.2622852 0.28604513 3
-0.21545452 3.252393 0.40021896 13
-0.21422432 3.2424259 0.51466948 26
-0.22139525 3.3598518 -0.29458639 1
-0.21358885 3.2500284 0.63310426 28
-0.22075914 3.3681409 -0.17689554 1
-0.21139222 3.2338533 0.74818724 23
-0.21157168 3.2365985 -0.056615606 1
-0.21113724 3.2386358 0.86963201 28
-0.22235575 3.4857028 -0.93588972 1
-0.21043253 3.2987916 0.057697657 1
-0.20674998 3.2589672 0.1711386 2
-0.2212645 3.4974167 -0.68118817 1
-0.20573993 3.2610352 0.28587085 6
-0.205415 3.264977 0.40168139 26
-0.20327713 3.2490683 0.51560807 27
-0.20718369 3.3208337 -0.29110017 1
-0.20329827 3.2585564 0.63463074 27
-0.20958944 3.3688545 -0.17689554 1
-0.20139185 3.2462063 0.75088662 26
-0.20125946 3.2532845 -0.056894846 1
-0.19911644 3.2277837 0.86652619 28
-0.21079457 3.4864211 -0.93588972 1
-0.19867635 3.2955139 0.057627846 1
-0.19871774 3.3154919 0.1740694 3
-0.20905562 3.498168 -0.68118817 1
-0.19575591 3.2756214 0.28709102 27
-0.19436914 3.2716186 0.40241259 27
-0.19591263 3.3073215 -0.40679988 1
-0.19333121 3.2734213 0.51936251 26
-0.19793206 3.3613157 -0.29458639 1
-0.19123934 3.2573197 0.63424915 25
-0.19887526 3.3975139 -0.17836095 1
-0.1918804 3.2780161 0.75808507 28
-0.19362941 3.3178487 -0.0580118 1
-0.18829772 3.2361739 0.86859673 28
-0.19801556 3.4871705 -0.93588972 1
-0.18659708 3.2962198 0.057627846 1
-0.18600434 3.3062277 0.17354605 25
-0.18419425 3.2842739 0.28778824 27
-0.18900169 3.3805165 -0.53625745 1
-0.18281934 3.2802374 0.40338758 26
-0.18665162 3.3595505 -0.41313711 1
-0.18187915 3.2839696 0.52092683 28
-0.18561164 3.3620186 -0.29458639 1
-0.17973009 3.2658401 0.63577563 25
-0.19035901 3.4700134 -0.18212914 1
-0.17933002 3.2689683 0.75583553 27
-0.18103157 3.3105493 -0.05787218 1
-0.17780136 3.2619193 0.87532604 27
-0.18523388 3.4878726 -0.93588972 1
-0.17535935 3.3128569 0.057907082 16
-0.17378099 3.3048925 0.17344138 27
-0.18401794 3.4995744 -0.68118817 1
-0.17299047 3.3008442 0.28918275 27
-0.17079617 3.2808852 0.40338758 26
-0.17045119 3.2964509 0.52280408 31
-0.17901818 3.4621327 -0.30330199 1
-0.168936 3.2782114 0.63806528 27
-0.17394347 3.3868823 -0.17773293 1
-0.16764545 3.2754424 0.75718528 26
-0.1696104 3.32517 -0.058116514 2
-0.16643378 3.2741249 0.87843186 27
-0.16438733 3.3254325 0.058116514 26
-0.16263449 3.3134584 0.17386007 26
-0.16583282 3.3786199 -0.6575278 1
-0.16185734 3.3093879 0.28988001 26
-0.1604009 3.3032718 0.40606871 26
-0.1590392 3.2989986 0.52311689 28
-0.16213579 3.3632324 -0.29458639 1
-0.15843293 3.2983911 0.64188147 27
-0.16135688 3.3715088 -0.17689554 1
-0.15639733 3.2799006 0.75808507 26
-0.15838104 3.3337317 -0.058256131 28
-0.15573378 3.2901235 0.88257295 27
-0.16087942 3.4890809 -0.93588972 1
-0.15369511 3.3459618 0.058465563 27
-0.15384184 3.3619564 -0.77698094 1
-0.15274201 3.3379216 0.17511612 26
-0.15021317 3.3079424 0.28970569 25
-0.14958489 3.3196762 0.40801859 28
-0.148542 3.309375 0.52468127 31
-0.15359935 3.4354322 -0.30086163 1
-0.14726852 3.3067694 0.643408 28
-0.14949773 3.3700564 -0.17679088 13
-0.14546421 3.2921076 0.76078445 26
-0.14759061 3.3402317 -0.058360845 31
-0.14482315 3.2906215 0.88257295 27
-0.14870001 3.4896212 -0.93588972 1
-0.14242907 3.3424575 0.058395755 26
-0.14176494 3.3543983 0.17595351 26
-0.14504842 3.4463871 -0.67050284 1
-0.13924852 3.3223813 0.29092586 27
-0.13899021 3.330071 0.4092373 26
-0.14384812 3.4609983 -0.42532405 1
-0.13756016 3.3236892 0.52687138 30
-0.13857162 3.3622916 -0.29441211 3
-0.13646442 3.3111627 0.64417118 28
-0.13832046 3.3705335 -0.17679088 25
-0.13534112 3.312043 0.76528347 26
-0.13641861 3.3527148 -0.058570277 30
-0.13341318 3.2930374 0.88309062 26
-0.13409247 3.4128807 -0.9151842 1
-0.13076153 3.3429344 0.058395755 27
-0.13067308 3.3708389 0.17679088 27
-0.13574907 3.5017788 -0.68118817 1
-0.12899934 3.3427341 0.292669 30
-0.12736437 3.3305357 0.4092373 26
-0.12904844 3.3900676 -0.41654944 1
-0.12633215 3.3340189 0.52843571 31
-0.12809913 3.3806515 -0.2959809 23
-0.12520057 3.3194661 0.64569765 27
-0.1266299 3.3729916 -0.17689554 27
-0.1245075 3.331969 0.76978248 25
-0.12545696 3.3731539 -0.058919325 31
-0.1225614 3.310858 0.88774931 25
-0.12197187 3.407536 -0.91363126 4
-0.11973149 3.361356 0.058709893 26
-0.11904737 3.3752663 0.17700022 27
-0.12352549 3.5022314 -0.68118817 1
-0.11788996 3.359093 0.29406345 27
-0.12298761 3.5219254 -0.55815822 1
-0.11615214 3.3428633 0.41069973 27
-0.11714624 3.3885133 -0.41630572 20
-0.11510003 3.3462849 0.5303129 28
-0.11677621 3.3950164 -0.29720107 21
-0.11408186 3.3336179 0.64836901 27
-0.11526368 3.3853898 -0.17752358 23
-0.11261123 3.3245931 0.7679829 25
-0.11381549 3.3775682 -0.058989134 30
-0.11139264 3.3228502 0.89085519 25
-0.11101118 3.4369037 -0.92139584 1
-0.10863861 3.3817399 0.059058942 26
-0.10747191 3.3636651 0.17637219 26
-0.10955288 3.4476979 -0.67050284 1
-0.10666636 3.3754153 0.29545796 27
-0.10740688 3.41769 -0.54157621 12
-0.10485382 3.3551531 0.41216215 27
-0.10580979 3.4047747 -0.41825563 23
-0.10394203 3.3446736 0.53000003 30
-0.10505011 3.3993864 -0.29754972 21
-0.10310864 3.3555813 0.65256679 27
-0.10374982 3.3957531 -0.17804694 23
-0.10136287 3.3366528 0.77068228 25
-0.10273816 3.3819244 -0.059058942 30
-0.1010137 3.3444421 0.89654922 23
-0.099791303 3.4643049 -0.92864275 1
-0.097768299 3.3940752 0.059268374 25
-0.096410722 3.3879769 0.17762825 25
-0.097072564 3.4323595 -0.66744989 5
-0.09499599 3.3797503 0.29580659 30
-0.096515864 3.4338241 -0.54407912 25
-0.094171241 3.3713572 0.41411206 27
-0.095068417 3.4249504 -0.42069301 23
-0.092648275 3.3588383 0.53219014 27
-0.09329167 3.4037156 -0.29789832 21
-0.092303976 3.3676801 0.6548565 23
-0.093248807 3.4240298 -0.17951234 25
-0.090560213 3.3467107 0.77293181 22
-0.091361456 3.3982544 -0.059338182 30
-0.08923474 3.3409121 0.89551395 23
-0.087811179 3.4453044 -0.92346638 1
-0.085720092 3.3863997 0.059128754 25
-0.086729124 3.450129 -0.79677659 1
-0.085081428 3.4082596 0.17867498 27
-0.086376525 3.4601398 -0.67279255 25
-0.083985984 3.3880138 0.29650384 26
-0.084625296 3.4380896 -0.54470485 25
-0.082886532 3.3915102 0.41654944 26
-0.083500125 3.4411373 -0.42264292 22
-0.081207722 3.3709903 0.53406733 28
-0.082242996 3.4139652 -0.29876989 23
-0.080312416 3.3581679 0.65294844 27
-0.081393309 3.428328 -0.1797217 23
-0.07933569 3.3664882 0.77743083 23
-0.07991875 3.4165452 -0.059652328 28
-0.077664211 3.3450658 0.89654922 26
-0.075445183 3.4301391 -0.91932529 3
-0.07402879 3.3926754 0.059233464 23
-0.074645601 3.4484625 -0.79632676 20
-0.073484689 3.4225132 0.17940767 27
-0.074425012 3.4663084 -0.67393738 25
-0.072412729 3.400238 0.29754972 27
-0.072706118 3.4423139 -0.54533058 25
-0.071006596 3.3897941 0.41630572 28
-0.071651794 3.4493463 -0.42361787 22
-0.069724128 3.3850777 0.53625745 28
-0.070652857 3.4301672 -0.30016437 23
-0.068871066 3.3721678 0.65561974 23
-0.069424801 3.4285915 -0.1797217 25
-0.067895956 3.3823316 0.78103006 20
-0.06827151 3.4307983 -0.059896659 27
-0.06644357 3.3684943 0.90276086 23
-0.064256616 3.4728751 -0.93071336 12
-0.062736087 3.422904 0.059757043 26
-0.062783696 3.4584441 -0.79857624 22
-0.061500624 3.4207518 0.17930301 26
-0.06260629 3.4822507 -0.67699033 23
-0.060827699 3.4164064 0.29894418 26
-0.061075147 3.4642725 -0.54877216 26
-0.059380535 3.4019303 0.41776815 28
-0.05947442 3.4416361 -0.42264292 21
-0.058281556 3.4070263 0.53969896 27
-0.059090197 3.454298 -0.30225611 23
-0.057331327 3.3861287 0.65829104 22
-0.057823539 3.4507792 -0.18087308 23
-0.056026708 3.3786511 0.78013027 22
-0.056425676 3.4390132 -0.060036276 27
-0.054934874 3.3841584 0.90690196 25
-0.052367989 3.4885311 -0.93485445 23
-0.050964616 3.4350989 0.059966467 25
-0.050910156 3.4722819 -0.80172557 21
-0.049704976 3.4309311 0.17982636 27
-0.050365999 3.4765587 -0.6758455 23
-0.049072016 3.4285512 0.29999006 27
-0.049260542 3.4842162 -0.55190086 26
-0.047672234 3.414026 0.41923055 25
-0.047678549 3.4577022 -0.42459282 21
-0.046306882 3.4012837 0.53876036 27
-0.047193903 3.4664364 -0.30330199 23
-0.0456702 3.3980865 0.66058075 26
-0.045857921 3.4569514 -0.18118709 23
-0.044359315 3.3885691 0.78237975 22
-0.044447489 3.4411888 -0.060071182 24
-0.043122336 3.3843296 0.90690196 23
-0.040033724 3.4751709 -0.93123102 7
-0.039154138 3.4512522 0.060245708 25
-0.038964197 3.4880273 -0.80532479 21
-0.037882939 3.4450638 0.18055905 26
-0.038446844 3.496345 -0.67966169 23
-0.03718916 3.4366705 0.30068728 26
-0.037161883 3.490293 -0.55283946 25
-0.035942584 3.4320366 0.42142424 26
-0.035750791 3.4717424 -0.42629901 20
-0.034514606 3.4093256 0.54001182 27
-0.035053886 3.4625955 -0.30295336 22
-0.033945821 3.4119673 0.66325212 23
-0.03396539 3.475065 -0.18212914 23
-0.0326811 3.4042923 0.78597897 18
-0.032492492 3.4473221 -0.060175899 27
-0.031361271 3.3902547 0.9084549 25
-0.027932964 3.4791527 -0.93226624 6
-0.027138917 3.4553671 0.060315516 25
-0.026952159 3.5095778 -0.81027371 22
-0.026036147 3.4691417 0.18181513 26
-0.026359027 3.5121634 -0.68271458 21
-0.02525186 3.4447491 0.30138457 26
-0.024963196 3.488426 -0.55252659 26
-0.024044558 3.4440515 0.42288667 23
-0.023754273 3.4897118 -0.42849267 20
-0.022769934 3.4331293 0.54376626 27
-0.023071749 3.4786355 -0.30434784 23
-0.022060076 3.4159915 0.66401535 21
-0.021936068 3.4911399 -0.18296652 22
-0.020903934 3.4219239 0.7900281 20
-0.020588512 3.4694109 -0.060559854 28
-0.019594353 3.4019346 0.91156071 23
-0.01569258 3.4579787 -0.9265722 3
-0.015077998 3.4554408 0.060315516 25
-0.01472651 3.5154967 -0.81162345 21
-0.01394319 3.4732058 0.18202448 26
-0.014139275 3.5220499 -0.6846227 23
-0.013258616 3.4527855 0.30208179 27
-0.012850393 3.5062702 -0.55534244 25
-0.012009292 3.4401441 0.42239916 23
-0.01160641 3.4996989 -0.42971134 20
-0.010847077 3.4529414 0.54689491 28
-0.01097805 3.4946339 -0.30574232 23
-0.0101541 3.4219372 0.66516018 22
-0.0097503169 3.4911952 -0.18296652 22
-0.0089836586 3.4317198 0.79227757 18
-0.0085030459 3.47946 -0.060734376 26
-0.0077534229 3.4174368 0.91570181 23
-0.003641193 3.4773312 -0.93174857 2
-0.0030343528 3.4754696 0.060664564 25
-0.0024568317 3.519424 -0.81252325 21
-0.0018184298 3.4732332 0.18202448 26
-0.0018532536 3.5397472 -0.6880573 23
-0.0012130582 3.4707425 0.30365062 23
-0.00061395334 3.5181463 -0.55721962 25
4.1212935e-08 3.4560459 0.42434907 22
0.00060811552 3.4937627 -0.42898014 20
0.001205968 3.4549339 0.54720783 28
0.0012253951 3.5105901 -0.30713683 23
0.0018009139 3.4396212 0.66859478 23
0.0024400067 3.4952028 -0.18317586 21
0.0029997122 3.4375765 0.79362732 20
0.0036623597 3.4974656 -0.061048519 30
0.0041915062 3.4309661 0.91932529 30
0.0085151298 3.4850502 -0.93381917 1
0.0091610616 3.4994552 0.061083425 26
0.0098710582 3.5350013 -0.81612247 21
0.0097654667 3.4971871 0.18328053 25
0.010513687 3.5436585 -0.68882048 21
0.010953097 3.4866645 0.3050451 25
0.011705232 3.529979 -0.55909681 23
0.012090881 3.4639654 0.42532405 23
0.012870027 3.5116048 -0.43117377 20
0.012683963 3.4608369 0.54814643 57
0.013541776 3.5265036 -0.30853131 22
0.013909144 3.4651163 0.67355579 26
0.014723445 3.5151453 -0.18422259 20
0.015068018 3.4531348 0.79722655 27
0.01524387 3.4934347 -0.060978711 28
0.015638417 3.4463878 0.92346638 23
0.02056646 3.4656808 -0.92864275 1
0.020908993 3.5234015 0.061502282 27
0.02173732 3.5583334 -0.82152128 20
0.022022327 3.5051208 0.18369922 25
0.022947634 3.5534163 -0.6907286 20
0.023111474 3.4846127 0.30487078 23
0.023582293 3.5555999 -0.56316411 23
0.023766201 3.4916964 0.42873639 22
0.024668274 3.5333784 -0.43385491 20
0.024680568 3.4489193 0.54626918 46
0.025878271 3.5304193 -0.30887994 23
0.025456676 3.4729035 0.67508227 26
0.026515882 3.533052 -0.18516463 18
0.026503287 3.451117 0.79677659 18
0.027498556 3.5013587 -0.061118327 28
0.027731419 3.4540396 0.92553693 22
0.031951047 3.4540031 -0.92553693 1
0.033094011 3.5113094 0.061292849 27
0.034194753 3.5621331 -0.82242107 21
0.034453485 3.5249941 0.18474595 23
0.034826294 3.5631366 -0.69263667 21
0.03474699 3.492486 0.30556804 26
0.035932772 3.5495701 -0.56222552 25
0.036037043 3.4995325 0.42971134 22
0.037169162 3.5491507 -0.43580481 20
0.03703412 3.4784412 0.55096221 46
0.037734877 3.54426 -0.31010011 21
0.037601385 3.474757 0.67546391 23
0.038981084 3.5449207 -0.18579267 18
0.038788479 3.4724383 0.80172557 20
0.039970882 3.5232368 -0.061502282 27
0.03994479 3.4674437 0.92916042 23
0.044154521 3.4654605 -0.92864275 1
0.045478951 3.5211699 0.061467376 26
0.046604149 3.5600436 -0.82197118 18
0.046863019 3.5328405 0.18516463 23
0.047523394 3.582624 -0.69645286 21
0.047149621 3.508281 0.30696252 24
0.048458267 3.559299 -0.56378984 23
0.048280772 3.50137 0.42995507 21
0.049749352 3.5628936 -0.43751097 21
0.049400251 3.4940922 0.55346519 46
0.050304532 3.5580521 -0.3113203 20
0.049899828 3.4863827 0.67775363 23
0.051410351 3.5487571 -0.186002 17
0.051138796 3.4878702 0.80532479 20
0.052507289 3.5390718 -0.061781518 27
0.052132789 3.4730783 0.93071336 23
0.056440026 3.4768751 -0.93174857 1
0.058066044 3.5389848 0.061781518 27
0.059222143 3.5715499 -0.82467055 19
0.059195593 3.5326555 0.18516463 23
0.060391583 3.6040292 -0.70065069 21
0.059767473 3.5300083 0.30887994 27
0.061082508 3.5709589 -0.56566709 22
0.060776189 3.5170586 0.431905 21
0.062221467 3.5646832 -0.43775472 20
0.061942391 3.5136495 0.55659389 46
0.062967531 3.5717998 -0.3125405 20
0.062418025 3.5058169 0.68156981 25
0.063870266 3.5525498 -0.18621135 20
0.063385092 3.4915671 0.80622458 20
0.065153047 3.5548618 -0.062060758 26
0.064899981 3.5076425 0.94003081 21
0.068348572 3.4650679 -0.92864275 1
0.070895717 3.5627518 0.062200375 27
0.072119981 3.5927532 -0.82961947 18
0.071850911 3.5484023 0.186002 22
0.072932832 3.6018336 -0.70026904 21
0.072332487 3.5417299 0.30992582 26
0.074117571 3.5983734 -0.57004726 22
0.073383398 3.5327022 0.43385491 21
0.074829683 3.5723827 -0.43872967 20
0.074166171 3.5114369 0.55628103 50
0.075688444 3.5835097 -0.31358635 20
0.074823365 3.5134289 0.68309623 23
0.076741427 3.57427 -0.18736275 20
0.075781003 3.501066 0.80847406 18
0.077649616 3.5586109 -0.062130567 26
0.077270247 3.5131886 0.94158375 21
0.079304047 3.4416461 -0.92243111 2
0.082801953 3.5664957 0.062270187 24
0.084353581 3.6061318 -0.8327688 18
0.083993174 3.5641179 0.18683939 25
0.085292108 3.6192362 -0.70370364 20
0.084170759 3.5454545 0.31027445 26
0.086334169 3.6099565 -0.57192445 23
0.085431792 3.5463312 0.43556106 22
0.087300994 3.5979135 -0.44189829 21
0.086197175 3.5269699 0.55878401 48
0.087572359 3.5832388 -0.31358635 18
0.086956285 3.5327878 0.68691242 23
0.089038447 3.5919659 -0.1883048 18
0.087683305 3.5124843 0.8111735 18
0.089750774 3.5703285 -0.062339999 26
0.088920943 3.5129132 0.94158375 20
0.091316432 3.4413486 -0.92243111 1
0.09535858 3.570183 0.062339999 27
0.097570248 3.6291916 -0.83816761 19
0.097081289 3.5877614 0.18809544 22
0.098296046 3.6326542 -0.70637494 22
0.096709855 3.5511141 0.31079736 26
0.099098064 3.6155572 -0.5728631 22
0.098247409 3.5618861 0.43751097 22
0.10024604 3.6114769 -0.44360444 19
0.099170886 3.5503428 0.56253839 48
0.10041441 3.594861 -0.31463224 20
0.099341907 3.5344255 0.68729407 23
0.10219825 3.6135938 -0.18945618 17
0.10072061 3.539428 0.8174721 18
0.10272732 3.5879831 -0.062654138 28
0.10140452 3.5203056 0.9436543 18
0.10280748 3.42363 -0.91777241 2
0.10812136 3.5798223 0.062514521 26
0.11023541 3.628829 -0.83816761 18
0.10997124 3.5993786 0.18872347 23
0.11127652 3.6421008 -0.70828301 20
0.10983852 3.574652 0.3128891 24
0.1120207 3.6250615 -0.57442743 23
0.1103111 3.5496163 0.43604854 25
0.11347287 3.6309464 -0.44604182 19
0.11181074 3.5578723 0.56378984 42
0.11339951 3.6084282 -0.3158524 18
0.11205175 3.5458307 0.68958372 23
0.11474895 3.6112192 -0.18935151 20
0.11338533 3.5487938 0.8197217 18
0.1157015 3.6015933 -0.062898472 27
0.11431665 3.5392382 0.94883066 18
0.11495101 3.4290426 -0.91932529 5
0.12115633 3.5954118 0.062793761 26
0.12349641 3.6459508 -0.84221673 20
0.122534 3.5989728 0.18872347 22
0.12479003 3.6652353 -0.71286243 21
0.12292995 3.5921683 0.31445792 26
0.12521805 3.6404419 -0.5769304 23
0.12379753 3.5809524 0.43994835 22
0.12621471 3.6325121 -0.44628558 20
0.12491798 3.5772023 0.56691855 42
0.12703682 3.6378784 -0.31846708 18
0.12504731 3.5630765 0.69301832 20
0.12749381 3.6147885 -0.18956086 21
0.12584053 3.550324 0.82017154 18
0.12884313 3.6171551 -0.063177712 26
0.12729141 3.5561936 0.95348942 18
0.12713356 3.434412 -0.92087817 7
0.1343758 3.6129513 0.0631079 24
0.13694932 3.6649714 -0.84671575 20
0.13576959 3.6164858 0.18966553 21
0.1375089 3.6628158 -0.71248084 22
0.13599482 3.6056538 0.31567809 24
0.13882159 3.6636703 -0.58068478 23
0.13675065 3.5924006 0.44141081 22
0.13927405 3.6419678 -0.44750425 19
0.13732742 3.5747705 0.56660569 41
0.1400398 3.6453764 -0.31916434 20
0.13809063 3.5783126 0.69607127 20
0.14080825 3.6322832 -0.1905029 17
0.13876273 3.563494 0.82332087 18
0.14138965 3.6146851 -0.063142806 20
0.14031176 3.5711703 0.95763052 20
0.13841821 3.4165747 -0.91621947 9
0.14779875 3.6324408 0.063456953 22
0.15037912 3.6800478 -0.85031497 21
0.14904879 3.6319542 0.1905029 21
0.15101917 3.6799676 -0.71591538 21
0.14849727 3.6031663 0.31550378 27
0.15226381 3.6789529 -0.58318776 22
0.14978349 3.6038015 0.44287321 23
0.15281306 3.6612928 -0.44994166 19
0.15005398 3.5801907 0.56754434 34
0.15276465 3.6448655 -0.31916434 18
0.15124011 3.5935011 0.69912422 18
0.15416032 3.6477334 -0.19134027 16
0.15202799 3.5824575 0.82781988 20
0.15460156 3.6281548 -0.063387141 23
0.1531062 3.5783792 0.95970106 20
0.15025778 3.4141409 -0.91570181 7
0.16056667 3.6339004 0.063491859 23
0.16400221 3.697022 -0.8543641 22
0.1626136 3.6513648 0.19154961 21
0.16456173 3.6951087 -0.71896833 21
0.16205363 3.6245205 0.3174212 26
0.1651058 3.6783988 -0.58318776 22
0.16343372 3.6270537 0.4457981 22
0.16631104 3.6766016 -0.45189157 17
0.16380574 3.6072717 0.57192445 31
0.16621068 3.6602325 -0.32055882 18
0.16413969 3.600796 0.70065069 19
0.16798891 3.6711149 -0.19259633 18
0.1652485 3.5974786 0.83141905 19
0.16818553 3.6475687 -0.063736185 22
0.16595437 3.585542 0.96177161 20
0.1623587 3.4174547 -0.91673708 7
0.17381932 3.6453025 0.063701279 23
0.17727807 3.7042129 -0.85616374 24
0.17593417 3.6627448 0.19217765 21
0.17849618 3.7160828 -0.72316611 17
0.17546958 3.6398535 0.31881571 24
0.17842133 3.6876655 -0.58475208 22
0.17599818 3.6244783 0.44555435 21
0.17981936 3.6898777 -0.45359772 16
0.17707117 3.6204889 0.57411456 28
0.17976412 3.6755502 -0.32195333 17
0.17709374 3.6080446 0.70217711 20
0.18060517 3.6665165 -0.19238698 17
0.17857398 3.6124508 0.83501828 19
0.1822059 3.6729236 -0.064189956 27
0.17885269 3.5926588 0.96384215 18
0.17408931 3.4130085 -0.91570181 7
0.18746367 3.6626472 0.064015426 22
0.19070785 3.7133024 -0.85841322 21
0.18912883 3.6700866 0.19259633 21
0.1915669 3.7173977 -0.72354776 17
0.18879224 3.6511571 0.31986156 23
0.19221476 3.7047749 -0.58756793 23
0.18947375 3.6397014 0.44750425 20
0.19290465 3.6931925 -0.4540852 16
0.19053601 3.6356301 0.57661748 27
0.19384536 3.698776 -0.32404503 20
0.19051106 3.6230888 0.70523006 22
0.19455931 3.6878035 -0.19353838 15
0.1915957 3.6195896 0.83681792 19
0.19555692 3.6822493 -0.064364478 24
0.19313897 3.6248076 0.972642 18
0.18621308 3.4162381 -0.91673708 7
0.20155875 3.6859312 0.064434282 22
0.20387948 3.7165058 -0.85931301 7
0.20215917 3.6733928 0.19280569 20
0.20529802 3.7304285 -0.72621906 16
0.20263529 3.6703694 0.32160467 23
0.20634471 3.7257771 -0.5910095 21
0.20327966 3.6588378 0.44994166 21
0.20623797 3.7004249 -0.45506018 15
0.20344359 3.6388874 0.57724321 19
0.20742007 3.7100129 -0.32509091 18
0.20414722 3.6400435 0.70866466 22
0.20844162 3.7050486 -0.19448043 16
0.20433657 3.6208444 0.83726782 17
0.20886047 3.6895304 -0.064504094 25
0.20655833 3.6376123 0.97626543 21
0.19769023 3.4078529 -0.91466653 7
0.21488769 3.6931906 0.064573906 22
0.21707931 3.7196622 -0.8602128 4
0.21526961 3.688653 0.19364306 20
0.21900772 3.7414482 -0.72850877 16
0.21567881 3.6736178 0.32195333 23
0.22004654 3.736866 -0.59288669 22
0.21675336 3.6699958 0.45140409 21
0.22079618 3.7274251 -0.45847249 17
0.21714577 3.6657999 0.58162344 27
0.22096097 3.7192106 -0.32596248 18
0.2175537 3.651067 0.71095431 22
0.22244491 3.7222419 -0.19542249 15
0.21790813 3.6356709 0.84086704 17
0.22157209 3.6968019 -0.064643718 24
0.21873689 3.6388357 0.9767831 21
0.20910788 3.3994293 -0.91259599 7
0.22750114 3.6984453 0.064678617 19
0.22965395 3.7228119 -0.86111259 3
0.22925499 3.7058203 0.1945851 17
0.23340112 3.7622156 -0.73270655 18
0.22949152 3.6887507 0.32334781 23
0.23329686 3.7499163 -0.5950768 18
0.23052847 3.695013 0.45457271 17
0.23402248 3.740541 -0.4601787 17
0.23117836 3.6847343 0.58475208 22
0.23469369 3.7303472 -0.32700834 20
0.22978245 3.6522851 0.71133596 20
0.2357924 3.7374301 -0.19625986 15
0.23131771 3.6563218 0.84581596 20
0.23574202 3.7159626 -0.064992763 24
0.23180291 3.6438341 0.97833604 17
0.22013058 3.3948615 -0.91156071 7
0.2418379 3.719579 0.065062575 22
0.24251828 3.7200432 -0.86066276 1
0.24270953 3.7229769 0.19552715 16
0.24766967 3.7888479 -0.73804927 18
0.2428946 3.7058625 0.3249166 22
0.24716155 3.7609062 -0.59695399 18
0.24329376 3.6922052 0.45432895 18
0.24812594 3.7555475 -0.46212861 18
0.24404652 3.6938028 0.58631647 27
0.24785389 3.7414765 -0.32805422 20
0.2434399 3.6651733 0.71400726 17
0.24910344 3.7405701 -0.1964692 15
0.24537849 3.6749361 0.85031497 19
0.24939658 3.7351131 -0.065341808 25
0.24530548 3.6642485 0.98403007 18
0.23303427 3.4094911 -0.91570181 7
0.25499031 3.7307267 0.065272003 20
0.25432116 3.7114418 -0.85886312 1
0.25597847 3.7260923 0.1957365 16
0.26197392 3.8036292 -0.74110222 17
0.25706348 3.7228813 0.32648543 23
0.26126394 3.7837141 -0.60070843 18
0.25635803 3.7032604 0.45579138 20
0.26099175 3.7606447 -0.46285981 17
0.25872043 3.7185464 0.59038377 24
0.26243499 3.7624521 -0.32997164 17
0.25777769 3.6956818 0.72011316 22
0.26276118 3.7576547 -0.19741124 16
0.25810629 3.6818781 0.85211456 20
0.26369214 3.7521727 -0.065655954 22
0.25931746 3.6807132 0.98868877 18
0.24323362 3.3932843 -0.91156071 7
0.26958716 3.7517538 0.065655954 19
0.26867607 3.7299685 -0.86336219 1
0.2694822 3.7411599 0.19657388 16
0.27430221 3.7988229 -0.74033892 18
0.27070314 3.739893 0.32805422 22
0.27561465 3.7985406 -0.60321134 18
0.27101228 3.7261009 0.45871624 18
0.27527124 3.7755497 -0.46480972 17
0.27090752 3.715698 0.59007084 22
0.27607313 3.7774575 -0.33136615 17
0.27182499 3.7104237 0.72316611 22
0.27631429 3.7626905 -0.19772527 15
0.27153012 3.6887288 0.8539142 20
0.2768684 3.7612493 -0.065830477 24
0.27294257 3.6990993 0.99386519 15
0.25420713 3.3808565 -0.9084549 7
0.28292581 3.7628038 0.065865383 17
0.27840674 3.6940789 -0.85526395 1
0.28374419 3.7561288 0.19741124 17
0.28933883 3.8213346 -0.74491841 17
0.28435844 3.7468717 0.32875144 20
0.28880668 3.8054845 -0.6044628 20
0.28487369 3.7449756 0.46115363 20
0.28944919 3.7963889 -0.46749085 18
0.28522995 3.7324564 0.59288669 22
0.28941038 3.7784572 -0.33154044 16
0.28562811 3.7290769 0.7269823 20
0.29092985 3.789633 -0.19919068 15
0.28525519 3.7072382 0.85841322 19
0.28968939 3.7562721 -0.065760665 21
0.28644794 3.7058287 0.99593574 16
0.2651155 3.376143 -0.90741962 7
0.29637349 3.7657802 0.065935194 17
0.29313779 3.716397 -0.86066276 1
0.29905659 3.7829902 0.19887665 20
0.30324805 3.8360109 -0.7479713 17
0.29756978 3.7558389 0.32962301 23
0.30302775 3.8162682 -0.60634005 18
0.29920337 3.759789 0.46310353 20
0.30412069 3.8131647 -0.46968448 16
0.29951707 3.747191 0.59538966 19
0.30320784 3.7933655 -0.33293492 16
0.29895601 3.731971 0.72774553 20
0.30543602 3.8045213 -0.20002805 15
0.30007055 3.7295291 0.86381203 20
0.30520952 3.7851367 -0.066284239 21
0.30093899 3.7240617 1.0011121 23
0.27752995 3.3828986 -0.90949017 7
0.3106629 3.7786739 0.066179529 16
0.30514956 3.7036982 -0.85796332 1
0.3137382 3.7998374 0.1998187 18
0.31889725 3.8623214 -0.75331396 17
0.31182757 3.7686768 0.33084321 19
0.31699929 3.8230619 -0.60759157 20
0.31232485 3.7587218 0.46310353 20
0.31891102 3.8298841 -0.47187814 17
0.31423724 3.7658079 0.59851831 21
0.31810331 3.812139 -0.33467805 16
0.31247121 3.7367742 0.72889042 19
0.3197161 3.8153734 -0.20065607 15
0.31471708 3.7478781 0.86831105 23
0.32009801 3.8039744 -0.066633284 19
0.31572309 3.7441638 1.0068061 46
0.28900671 3.3780596 -0.9084549 7
0.32487687 3.7895203 0.066388957 17
0.31540829 3.6715448 -0.85076487 1
0.32699937 3.7987192 0.1998187 18
0.33305004 3.869009 -0.75484043 17
0.32720771 3.7933707 0.33310926 24
0.33272481 3.8494844 -0.61197168 20
0.32766929 3.7833188 0.46627215 22
0.3329654 3.836658 -0.47285309 17
0.32840824 3.7764957 0.60039556 21
0.33382577 3.838794 -0.33711842 16
0.32704616 3.7532635 0.73232496 22
0.33372641 3.8221931 -0.20107476 15
0.32864791 3.7564633 0.87056059 50
0.3349435 3.8207629 -0.06694743 21
0.32912806 3.7468877 1.0078415 35
0.30114025 3.3808784 -0.90949017 7
0.34023514 3.8122647 0.066807814 17
0.3299574 3.6898317 -0.85526395 1
0.34221905 3.819437 0.20097008 17
0.34672961 3.8697784 -0.75522202 16
0.34294036 3.8199868 0.33554959 23
0.34792891 3.8679738 -0.61510038 20
0.34212184 3.7959912 0.46797833 18
0.34653354 3.8374496 -0.47309685 17
0.34194389 3.7792611 0.60102129 24
0.34883863 3.8554637 -0.33868721 16
0.34386873 3.7931588 0.74033892 45
0.34887403 3.8408954 -0.20212148 16
0.34211087 3.7591746 0.87146038 45
0.34791628 3.8155873 -0.066877626 19
0.34150308 3.7380207 1.0057708 26
0.31187212 3.3682647 -0.90638429 7
0.35557139 3.8329566 0.067191765 19
0.34319696 3.692538 -0.85616374 1
0.35684657 3.8321393 0.20170279 17
0.36309829 3.8919384 -0.75980145 15
0.35645679 3.8207505 0.33572391 22
0.36253265 3.8785367 -0.61697763 20
0.35796252 3.8224442 0.47139066 18
0.36252189 3.8638864 -0.47650915 15
0.35735333 3.8016448 0.60477573 48
0.36296824 3.8541591 -0.33868721 16
0.35758382 3.7899184 0.73995733 41
0.36520392 3.8634517 -0.20337754 15
0.35541517 3.7598975 0.87191027 28
0.36387354 3.8422205 -0.067366287 19
0.35308674 3.7214203 1.0016297 25
0.32384428 3.3632534 -0.90534908 7
0.36961663 3.8316276 0.067191765 17
0.3535409 3.6582804 -0.84851533 2
0.3724286 3.8467095 0.20254017 17
0.37906918 3.9081681 -0.76323599 16
0.37142271 3.8293338 0.33659548 24
0.37750909 3.8850465 -0.61822909 18
0.37350789 3.8369126 0.47334057 40
0.37880358 3.8842642 -0.47919029 14
0.37205207 3.8081734 0.60602719 37
0.37806153 3.8627176 -0.33955875 17
0.37032545 3.7768588 0.73766762 31
0.38131332 3.8819642 -0.20442426 15
0.36843067 3.7508121 0.87011069 24
0.38010681 3.8627522 -0.067750245 21
0.36558968 3.7085657 0.99852395 23
0.33693713 3.3697331 -0.90741962 7
0.38605222 3.8541236 0.067610621 17
0.36577863 3.6453261 -0.84581596 6
0.38872144 3.8671784 0.20369156 21
0.39516017 3.9243329 -0.76667058 16
0.38884798 3.8616467 0.33955875 49
0.39432234 3.9091871 -0.62229639 17
0.38756752 3.8355181 0.47334057 33
0.39463606 3.8986499 -0.4811402 13
0.38700464 3.8166108 0.60759157 31
0.39422914 3.8811281 -0.34130189 17
0.38257509 3.7598507 0.73461467 30
0.39634997 3.8884885 -0.20484295 15
0.38158372 3.7436206 0.868761 27
0.39669859 3.8852053 -0.068169102 21
0.37917897 3.707201 0.99852395 25
0.34888628 3.3646324 -0.90638429 7
0.4024474 3.874562 0.067994572 22
0.38014624 3.6536524 -0.8480655 6
0.40496224 3.8855932 0.20473827 47
0.4115786 3.9423847 -0.77048677 17
0.40361881 3.8661404 0.34008169 34
0.40905946 3.9116447 -0.62292212 16
0.40079468 3.8261747 0.47236562 27
0.41078618 3.9149458 -0.48333386 14
0.40016386 3.8073087 0.60634005 30
0.41116259 3.9054158 -0.34356794 16
0.39594042 3.7545185 0.73385143 28
0.41185734 3.8989267 -0.20547098 15
0.3940731 3.7305689 0.86606157 28
0.41199082 3.8936682 -0.068343624 19
0.39317042 3.7096286 0.99955922 23
0.35904688 3.3596776 -0.90534908 7
0.41717103 3.8971384 0.068413429 35
0.39245296 3.6601906 -0.84986508 7
0.4175967 3.8882728 0.20494762 32
0.42390415 3.9470022 -0.7716316 19
0.41554877 3.8628724 0.33990738 33
0.42451987 3.9398005 -0.62761515 15
0.41175082 3.815028 0.47114691 27
0.42393598 3.9215302 -0.48430881 16
0.40999562 3.7863936 0.60321134 28
0.42553779 3.929929 -0.34583399 16
0.40792644 3.7611344 0.73537791 28
0.42601159 3.9215147 -0.20672706 15
0.40494716 3.7215636 0.86426198 28
0.42595363 3.908258 -0.068622865 34
0.40419295 3.7026136 0.99800628 25
0.3690739 3.3430424 -0.90120792 9
0.43297094 3.9155345 0.068762481 37
0.40436995 3.6510508 -0.8480655 6
0.43050343 3.8808362 0.20463361 27
0.44005749 3.9669628 -0.77582937 22
0.42683107 3.8415961 0.33816427 31
0.44001868 3.9540009 -0.63011813 16
0.42506263 3.8135676 0.47114691 26
0.43982556 3.939755 -0.48674619 15
0.42189404 3.7731607 0.60133415 30
0.43947569 3.9303999 -0.3460083 15
0.41995767 3.7499325 0.73346978 26
0.44326076 3.9517605 -0.2084018 27
0.41750124 3.716254 0.86336219 28
0.44249934 3.9325805 -0.069076627 45
0.41451985 3.678144 0.99179465 25
0.38030457 3.3378949 -0.90017265 7
0.44482154 3.8981051 0.068483248 33
0.41799635 3.6573615 -0.84986508 6
0.44404849 3.8793099 0.20463361 27
0.45635915 3.9868584 -0.78002721 26
0.43887761 3.8282065 0.33711842 30
0.45494384 3.9622531 -0.63168246 16
0.43746579 3.8041723 0.47017199 27
0.45630178 3.9618599 -0.48967105 19
0.43438241 3.7657778 0.60039556 31
0.45593151 3.9525931 -0.34810004 25
0.43146864 3.7347915 0.73079848 28
0.45820114 3.9601092 -0.20892516 37
0.43002141 3.7109025 0.86246234 28
0.45483986 3.9190936 -0.068867192 43
0.42601913 3.6651607 0.98868877 25
0.39375609 3.3518963 -0.9043138 7
0.45678928 3.8826263 0.068238907 30
0.42962116 3.6462033 -0.84761554 7
0.45665008 3.8698025 0.20421492 26
0.4730331 4.0086374 -0.78460658 26
0.45223525 3.8266516 0.33711842 30
0.47039822 3.9743726 -0.63387251 15
0.44957301 3.7927659 0.46895328 28
0.47363782 3.9898124 -0.49332717 23
0.44775897 3.7662001 0.60070843 30
0.47207913 3.970762 -0.34984317 37
0.44311115 3.7215657 0.72850877 30
0.47060204 3.9465868 -0.20829713 30
0.44343543 3.713249 0.86336219 28
0.46780598 3.9115255 -0.068762481 33
0.43880957 3.6636512 0.98868877 26
0.4054549 3.3505015 -0.9043138 7
0.46961874 3.8750529 0.068134196 28
0.44164103 3.6388779 -0.84626585 6
0.46774662 3.8483582 0.2031682 27
0.4865503 4.0030642 -0.7838434 16
0.46510953 3.8210936 0.33676979 31
0.48833111 4.0060406 -0.63919127 25
0.46064562 3.7734392 0.46675962 26
0.48852471 3.9960163 -0.49430209 34
0.46042189 3.7606928 0.6000827 31
0.48642015 3.9730449 -0.35019177 35
0.45538163 3.7141504 0.72736394 30
0.48413104 3.9429376 -0.20819245 23
0.45353961 3.6884682 0.85796332 28
0.48072287 3.9039147 -0.068657771 31
0.45159465 3.6620975 0.98868877 26
0.41667119 3.3452315 -0.90327853 7
0.48388401 3.8793428 0.068238907 28
0.45216751 3.6199107 -0.84221673 6
0.48093018 3.8447201 0.20306353 27
0.50125277 4.0071859 -0.78498828 9
0.4779487 3.8154929 0.33642116 31
0.50575513 4.0317521 -0.6435715 32
0.47455782 3.7777166 0.46749085 28
0.50321287 4.0001955 -0.49503332 31
0.47033766 3.7335839 0.59601539 31
0.49953967 3.9653921 -0.34966883 28
0.46932751 3.7203295 0.72889042 30
0.49638873 3.9293346 -0.20756441 22
0.46543473 3.6791291 0.85616374 28
0.49258894 3.8883257 -0.068413429 33
0.46340171 3.6528327 0.98661828 26
0.4258903 3.3245947 -0.89810216 7
0.49615139 3.8677127 0.068064384 28
0.4650481 3.6202433 -0.84266669 6
0.49316737 3.8391421 0.20285419 27
0.51523656 4.0054116 -0.78498828 8
0.48897451 3.7960169 0.33485237 34
0.52159363 4.0436769 -0.64576155 31
0.48774078 3.7760375 0.46749085 28
0.51564634 3.9866023 -0.49357089 24
0.48246196 3.7300451 0.59570253 33
0.51133031 3.9478178 -0.34827435 26
0.48029011 3.7030928 0.72583747 30
0.5106172 3.9315393 -0.20777377 22
0.47676569 3.6658874 0.85346431 30
0.50444806 3.8787389 -0.068273813 33
0.47326809 3.6340349 0.98195946 27
0.43799788 3.3269186 -0.89913744 7
0.50636536 3.8462203 0.067715339 27
0.47704998 3.6186814 -0.84266669 6
0.50578052 3.8314571 0.20254017 27
0.53024513 4.011374 -0.7865147 5
0.50091588 3.784411 0.3339808 31
0.53137231 4.0145082 -0.64138144 26
0.49895504 3.76456 0.46627215 30
0.52860343 3.9829025 -0.49332717 23
0.4949598 3.7244215 0.5950768 33
0.52458113 3.9420588 -0.34792572 23
0.49153075 3.6936955 0.72431099 31
0.52207011 3.9179456 -0.20714574 22
0.48788968 3.6565597 0.85166472 28
0.51798344 3.8769548 -0.068273813 34
0.48646364 3.6361899 0.98299474 27
0.4490273 3.325448 -0.89913744 7
0.51871377 3.836503 0.067575715 27
0.49072537 3.6247184 -0.84446627 6
0.51861614 3.8257098 0.20233083 27
0.54248863 4.001812 -0.78498828 5
0.51319218 3.780755 0.33380648 34
0.54298705 3.9950125 -0.6385656 25
0.50968456 3.7450924 0.46407849 28
0.54169631 3.9751327 -0.49259594 23
0.50742257 3.7187569 0.59445107 31
0.53711301 3.9363494 -0.3475771 23
0.50203025 3.6744506 0.7208764 33
0.53303516 3.8963113 -0.20609902 22
0.50250101 3.6683495 0.85481399 30
0.53097099 3.8711605 -0.068204008 34
0.49705148 3.6191587 0.97885364 27
0.46248811 3.3372552 -0.90276086 9
0.5315538 3.8307076 0.067505911 28
0.5014987 3.6094718 -0.84131694 6
0.52893913 3.8021162 0.20117943 27
0.55726498 4.0057278 -0.78613311 4
0.5258376 3.7749939 0.33345786 33
0.55774862 3.9989619 -0.63950419 26
0.5222044 3.7393587 0.46359101 28
0.55364561 3.959456 -0.49088979 24
0.52067524 3.718919 0.59476393 34
0.55085117 3.9344504 -0.3475771 22
0.51485264 3.6726761 0.7208764 33
0.54524362 3.8845377 -0.20557566 20
0.51069325 3.6337667 0.8471657 27
0.54392254 3.8653233 -0.068134196 33
0.51102686 3.626967 0.98144192 30
0.47223237 3.3222322 -0.89913744 7
0.54464149 3.826849 0.067471005 28
0.51354277 3.6038408 -0.84041709 6
0.54069853 3.7944095 0.20086543 27
0.56708568 3.9746039 -0.7804088 5
0.53844905 3.7691905 0.33310926 34
0.57030302 3.9872139 -0.63793981 23
0.53469217 3.7335827 0.46310353 28
0.56633729 3.9496386 -0.48991477 24
0.52991986 3.6956632 0.59132236 33
0.56344634 3.9246151 -0.34687987 22
0.5276705 3.6708562 0.7208764 34
0.55936998 3.8865643 -0.20578501 21
0.52281594 3.6281044 0.84626585 28
0.55388451 3.8437061 -0.067785151 33
0.52112138 3.6118679 0.97781837 27
0.48271289 3.3129165 -0.89706683 7
0.55617654 3.8171065 0.067331389 30
0.52717954 3.613688 -0.84311652 6
0.5524978 3.7826173 0.20034206 27
0.58209354 3.9803703 -0.78193527 8
0.54929274 3.7515171 0.33171475 34
0.58352304 3.9853005 -0.63793981 23
0.54649359 3.7278612 0.46261609 28
0.57943279 3.9477386 -0.48991477 23
0.54252887 3.6918364 0.5910095 34
0.57482326 3.9068551 -0.34548536 23
0.53983986 3.6690865 0.7208764 34
0.57167417 3.8807361 -0.20557566 20
0.53626698 3.6359901 0.84851533 30
0.56700706 3.8397706 -0.067750245 33
0.5323143 3.600471 0.97523022 28
0.49255455 3.3036549 -0.89499629 7
0.56713295 3.7993197 0.067052148 28
0.53892732 3.6060436 -0.84176683 6
0.56687975 3.7885671 0.20076075 28
0.59499663 3.9764774 -0.78155369 8
0.56054872 3.7417934 0.33101749 34
0.59391582 3.9597969 -0.63418543 23
0.55832481 3.7180781 0.4616411 28
0.59291154 3.9437294 -0.48967105 23
