# .PCD v0.7 - Point Cloud Data file format
VERSION 0.7
FIELDS x y z intensity
SIZE 4 4 4 4
TYPE F F F F
COUNT 1 1 1 1
WIDTH 1414
HEIGHT 1
VIEWPOINT 0 0 0 1 0 0 0
POINTS 1414
DATA ascii
2.9794052 3.548202 -0.56888616 2
3.9310496 4.6798654 0.96801656 2
3.3331347 3.9680552 -0.45338416 1
3.8951073 4.6354337 1.1769099 1
3.7693384 4.4841714 -0.30700275 1
2.0602887 2.4423437 -0.8561734 9
2.2350338 2.6476178 -0.79992598 7
2.4510136 2.9024394 -0.73843086 6
2.7310965 3.2318187 -0.67016536 1
2.9937179 3.5413353 -0.56937367 2
3.9465485 4.6668029 0.96801656 2
3.3443913 3.9533551 -0.45303556 1
3.8947763 4.6023278 1.1719489 1
2.0633748 2.4296076 -0.85410291 9
2.2412782 2.6372211 -0.79902619 7
2.4606256 2.8942947 -0.73843086 6
2.7494793 3.2317703 -0.67204249 1
3.005446 3.5313873 -0.56937367 2
3.9620013 4.6536908 0.96801656 2
3.3729856 3.9604435 -0.45512727 1
3.9252965 4.6073189 1.1765283 1
2.0789523 2.4315624 -0.85720873 9
2.2424092 2.6208901 -0.79632676 7
2.477869 2.8950689 -0.74072057 6
2.7987309 3.2676446 -0.68142867 1
3.010004 3.5118306 -0.56791121 2
3.3841949 3.945622 -0.45477867 1
3.9558902 4.6121597 1.1811076 1
2.0928943 2.4297805 -0.85927927 9
2.2591774 2.6219041 -0.79902619 7
2.4769254 2.8725853 -0.73728597 7
2.7616491 3.2005334 -0.66953957 1
3.0235405 3.5028057 -0.56815493 3
3.3927381 3.9277527 -0.45408139 1
3.9573658 4.5798025 1.1765283 1
3.9644349 4.5847478 -0.10579649 2
2.0849061 2.4034896 -0.85254997 9
3.9619455 4.5657396 0.10551725 4
2.273881 2.6194932 -0.80082577 7
3.9364474 4.5331583 0.3146438 3
2.4907987 2.8683691 -0.73843086 6
3.9002006 4.4898338 0.52031976 4
2.7883534 3.208766 -0.67329407 1
3.0415683 3.4976926 -0.56912988 2
3.4195035 3.9309185 -0.45582449 1
3.9733274 4.5659623 1.1765283 1
3.8462524 4.418376 -0.30700275 1
4.0206184 4.6154199 -0.10684364 2
2.1047213 2.4092917 -0.85720873 9
4.035758 4.6181335 0.10705306 2
2.2804465 2.6086051 -0.79992598 7
3.9785423 4.5494599 0.31673726 1
2.5033803 2.8626134 -0.7391941 6
3.9250333 4.4866881 0.52153993 2
2.7683165 3.1633356 -0.66578513 1
3.0655305 3.500494 -0.57132351 2
3.4305794 3.9159603 -0.4554759 1
3.9892406 4.5520658 1.1765283 1
3.9090514 4.4589887 -0.31077093 1
2.1182234 2.4077313 -0.85927927 9
2.2895379 2.6006293 -0.79992598 7
2.5237386 2.8656437 -0.74224705 6
2.7793407 3.1536536 -0.66578513 1
3.0882359 3.5016818 -0.57327342 2
3.431046 3.8890219 -0.45373279 1
4.0051069 4.5381117 1.1765283 1
3.9034438 4.4213595 -0.30909619 1
2.1240523 2.3974311 -0.858244 9
2.2960169 2.5897045 -0.79902619 7
2.5259106 2.8480031 -0.73995733 6
6.3654509 7.1746278 0.83913547 1
2.8218031 3.1793902 -0.67329407 1
3.0925286 3.4819772 -0.57181102 2
3.4551878 3.8889358 -0.45512727 1
4.0209246 4.5241022 1.1765283 1
3.9400837 4.4315915 -0.31077093 1
2.1336946 2.3914433 -0.85876161 9
2.3076365 2.584583 -0.79992598 7
2.5332205 2.8362408 -0.7391941 6
2.8012884 3.1341748 -0.66578513 1
3.0914311 3.4563642 -0.56937367 2
3.4740567 3.8827896 -0.45582449 1
3.9555299 4.41781 -0.31077093 1
2.1368654 2.378232 -0.85669106 7
2.3240116 2.5856116 -0.80262536 7
2.5509837 2.8361382 -0.74148381 7
2.8275223 3.142489 -0.66953957 1
3.1188164 3.4637954 -0.57229847 2
3.476917 3.8588006 -0.45443004 1
4.0726509 4.5199666 1.1826342 1
3.9888804 4.4254375 -0.31223634 1
2.1460357 2.3725662 -0.85720873 9
4.0854273 4.5150957 0.10628515 2
2.3304081 2.5745935 -0.80172557 7
4.0664959 4.4925923 0.31757462 1
2.5603743 2.8276639 -0.74148381 6
4.0822186 4.5068045 0.53199863 1
2.8384752 3.1325991 -0.66953957 1
3.1308858 3.4528897 -0.57229847 2
3.4816637 3.8383939 -0.45338416 1
3.9371819 4.3375459 -0.30700275 1
4.1067457 4.5227613 -0.1066342 2
2.1543038 2.365061 -0.85720873 9
4.0896063 4.4896955 0.10600592 2
2.3336823 2.5610902 -0.79992598 7
4.0512085 4.4444194 0.31516716 3
2.5689056 2.8172591 -0.74110222 7
4.0146794 4.4012628 0.52119136 6
2.8728094 3.1494393 -0.6751712 1
3.1476729 3.4483519 -0.57327342 2
3.5084789 3.8409269 -0.45512727 1
4.0000472 4.3775434 -0.31077093 1
2.1673567 2.3635998 -0.85927927 9
2.337337 2.5471857 -0.79812634 7
2.5769057 2.8072791 -0.74072057 7
2.8757684 3.1306629 -0.67329407 1
3.1435709 3.4198053 -0.57034856 2
3.5137694 3.8198609 -0.45408139 1
4.0017805 4.348856 -0.30972421 1
2.1786275 2.3584776 -0.86031455 9
2.3541503 2.5475981 -0.80082577 7
2.5965085 2.8079045 -0.74339187 7
2.8872228 3.1201022 -0.67329407 1
3.1554883 3.408812 -0.57034856 2
3.5406222 3.8221874 -0.45582449 1
3.9823892 4.2960773 -0.30700275 1
2.1763201 2.3395433 -0.8561734 9
2.3740935 2.5503643 -0.804425 7
2.5996039 2.7916408 -0.74148381 7
2.8927088 3.1042247 -0.67204249 1
3.1842077 3.4146442 -0.57327342 2
3.5457878 3.801065 -0.45477867 1
4.0655069 4.3551483 -0.31223634 1
2.1950397 2.3432105 -0.86031455 9
2.3825386 2.5424767 -0.804425 7
2.6187339 2.7925732 -0.74415511 7
2.8921762 3.0830889 -0.66953957 1
3.187361 3.3953831 -0.57181102 2
3.5590353 3.7886636 -0.45477867 1
4.1483126 4.4144168 -0.31746995 1
2.1974971 2.3302963 -0.858244 9
2.3860497 2.5284746 -0.80262536 7
2.6239376 2.7795904 -0.74301028 6
2.9029212 3.0729737 -0.66953957 1
3.2087388 3.394335 -0.5735172 2
3.5770562 3.78263 -0.4554759 1
4.2363133 4.473515 -0.10754173 2
2.2109387 2.3282151 -0.86031455 9
4.2020168 4.4233608 0.10649458 4
2.3921747 2.5173068 -0.80172557 7
4.1420197 4.3571568 0.31506249 3
2.6363292 2.7732606 -0.74377352 6
4.1285601 4.3414812 0.52415466 4
2.9299676 3.0799973 -0.67329407 1
3.2055125 3.3672972 -0.57083601 2
3.5792456 3.7585788 -0.45408139 1
4.110137 4.3130546 -0.31223634 1
1.9085945 2.0014226 -0.048273355 1
2.2243936 2.3260677 -0.86238509 9
2.4144211 2.52302 -0.80622458 7
2.6351335 2.7526951 -0.74072057 7
4.172627 4.3572626 0.52781516 1
2.9352343 3.0640457 -0.67204249 1
3.2241151 3.3632531 -0.57205474 2
3.611649 3.7661953 -0.45652178 1
4.1058078 4.2785048 -0.31077093 1
1.8920234 1.9702281 -0.047679976 27
2.2298179 2.3155072 -0.86134982 9
2.4178052 2.5089631 -0.804425 7
2.6474493 2.7463088 -0.74148381 6
2.9294555 3.0367205 -0.66828811 1
3.2482452 3.3648317 -0.57424843 2
3.6206224 3.7492647 -0.45599884 1
4.1595788 4.3043623 -0.31370175 1
1.8849869 1.9492382 -0.047330927 61
2.2298181 2.2993882 -0.858244 9
2.4292619 2.5033054 -0.80532479 7
2.6597552 2.7398672 -0.74224705 6
2.9482956 3.0349782 -0.67016536 1
3.2668898 3.3605883 -0.57546705 2
3.6309087 3.7337472 -0.45565021 1
4.1550784 4.2697759 -0.31223634 1
1.9071264 1.9584049 -0.047714882 94
2.2432303 2.2971184 -0.86031455 9
2.4270902 2.48366 -0.80172557 7
2.6775382 2.7389889 -0.74453676 5
2.9257197 2.9907773 -0.66265643 1
3.2661004 3.3363996 -0.57327342 2
3.6494968 3.7267432 -0.45634744 1
4.1503839 4.2352781 -0.31077093 1
1.9111509 1.9488796 -0.04764507 100
2.2539437 2.2920294 -0.86134982 9
1.9156122 1.9473011 0.047679976 9
2.4384768 2.4779525 -0.80262536 7
2.6898365 2.7324245 -0.74529999 6
3.0193195 3.0649807 -0.68142867 1
3.2846954 3.332046 -0.57449216 2
3.651293 3.702632 -0.45495299 1
4.1679492 4.2236071 -0.31098029 1
1.9207522 1.945043 -0.047714882 100
2.2673688 2.2896378 -0.86342037 9
1.9294341 1.9477062 0.047854498 83
2.4498558 2.4721932 -0.80352521 7
4.2675138 4.3049169 0.31767929 3
2.691066 2.7146523 -0.74301028 5
4.2396178 4.2752886 0.52676928 1
3.0021739 3.0263765 -0.6751712 1
3.2893133 3.3135166 -0.57327342 2
3.6754236 3.7011759 -0.45634744 1
4.1995621 4.2260318 -0.31223634 1
1.91343 1.9241464 -0.047365833 100
2.2644339 2.2707665 -0.85927927 9
1.9333971 1.9381273 0.04778469 84
2.4694834 2.4746611 -0.80712438 7
4.302927 4.3119493 0.31924936 1
2.6977508 2.7024639 -0.74224705 6
4.2432542 4.2491841 0.52537483 4
3.004344 3.0074925 -0.67329407 1
3.3134911 3.3146489 -0.57546705 2
3.6883216 3.6883228 -0.45634744 1
4.2142873 4.2113471 -0.31223634 1
1.9254586 1.923444 -0.04750545 100
2.2750835 2.2655749 -0.86031455 9
1.9327282 1.9246504 0.047610167 94
2.4721522 2.4609582 -0.80532479 7
2.718302 2.7041078 -0.74529999 6
3.0115001 2.9947267 -0.67266828 1
3.3300962 3.3092403 -0.576442 2
3.7181382 3.6922739 -0.4584392 1
4.2991009 4.267705 -0.31746995 1
1.9321605 1.9167116 -0.04750545 100
2.2853315 2.2607346 -0.86134982 10
1.9365916 1.9150797 0.047540355 94
2.4751835 2.4468346 -0.80352521 7
2.724462 2.692318 -0.74453676 6
3.0135014 2.9758689 -0.67079103 1
3.3388028 3.2948067 -0.57595456 2
3.7105055 3.6603334 -0.45599884 1
4.2257872 4.1657391 -0.31098029 1
1.9473875 1.9183751 -0.047714882 100
2.295965 2.2554519 -0.86238509 9
1.9518248 1.9167149 0.047749784 94
2.4892716 2.4436409 -0.80532479 7
2.7366455 2.6855423 -0.74529999 6
3.0295117 2.9708645 -0.67204249 1
3.3389401 3.2720175 -0.57400465 2
3.7289519 3.6529367 -0.45669609 1
11.208911 10.976573 3.0495095 6
4.2916822 4.201261 -0.31474847 1
1.9569314 1.9143618 -0.04778469 100
2.3010588 2.244725 -0.86134982 9
1.9613676 1.9126819 0.047819596 94
2.5005765 2.4376578 -0.80622458 7
1.9753786 1.9250007 0.14455192 4
2.7375674 2.6677513 -0.74301028 5
3.0540149 2.9740536 -0.6751712 1
3.3588777 3.2686479 -0.57546705 2
3.7473924 3.6454563 -0.45739332 1
4.3435574 4.2224503 -0.31746995 1
1.9578639 1.9019461 -0.04764507 100
2.3061047 2.2339911 -0.86031455 9
1.9680316 1.9058243 0.047819596 94
2.5146718 2.4343352 -0.80802423 7
1.9806507 1.9167051 0.14444725 69
2.7496841 2.6609101 -0.74377352 6
4.462101 4.316534 0.5431546 1
3.0359781 2.93591 -0.66891384 1
4.4629588 4.3143497 0.76217091 3
3.3759763 3.2624218 -0.576442 2
3.7457654 3.6185093 -0.45565021 1
4.3582687 4.2072635 -0.31746995 1
4.3709021 4.2179856 1.4023448 12
1.9587348 1.8895464 -0.04750545 100
2.3083196 2.2205713 -0.858244 9
1.9717898 1.89617 0.047749784 94
2.5203445 2.4228408 -0.80712438 7
1.9887687 1.911164 0.14455192 100
2.7660329 2.6580985 -0.74568158 7
4.3463912 4.1753259 0.52729225 4
3.0319607 2.9116116 -0.66578513 1
4.4765592 4.2973709 0.76192719 1
3.3916414 3.2547402 -0.57717323 2
3.7698774 3.6164453 -0.45704472 1
4.4082818 4.2273941 1.1872137 106
4.4132991 4.2307234 -0.32040074 1
1.9739816 1.8909992 -0.047714882 100
4.3616042 4.1767869 1.6181368 50
2.3216448 2.2178371 -0.86031455 9
1.9812889 1.8920385 0.047819596 94
2.5175095 2.4032643 -0.80352521 7
1.9925386 1.9014519 0.14434259 87
2.7752955 2.6484261 -0.74568158 7
4.3940978 4.1917582 0.53130138 6
3.1135836 2.9691739 -0.68142867 1
4.3607817 4.1570735 0.73974699 3
3.4130425 3.2524672 -0.57887942 2
4.4510136 4.2401261 0.97364825 26
3.7997882 3.6197557 -0.45913643 1
4.4144826 4.203856 1.184924 100
1.9834685 1.8868531 -0.04778469 99
2.3321748 2.2123792 -0.86134982 9
1.9907827 1.8878632 0.047889404 92
2.5287123 2.3971426 -0.804425 7
1.9933645 1.8889904 0.14392389 92
2.7887976 2.6427743 -0.74682647 6
4.400022 4.1681762 0.5302555 6
3.0809 2.9175384 -0.67204249 1
4.3622928 4.1295428 0.73755336 10
3.4041867 3.2214336 -0.57546705 2
4.3538566 4.1186767 0.94924444 11
3.8066118 3.600992 -0.4584392 1
1.9985733 1.8892978 -0.14413324 3
4.3369331 4.0983663 1.3776002 14
1.9958578 1.8854102 -0.047924306 99
4.279695 4.0414538 1.5772433 3
2.3511333 2.2148216 -0.86549091 9
2.0002728 1.8836439 0.047959212 94
2.5484145 2.3989887 -0.80802423 7
2.0028555 1.8847575 0.14413324 94
2.7865684 2.6222589 -0.74377352 7
4.4290581 4.1664424 0.53199863 6
3.0910633 2.9067686 -0.67204249 1
4.3969293 4.1333265 0.74096566 8
3.4154117 3.2095301 -0.57546705 2
4.3552465 4.0912843 0.9464286 9
3.8423908 3.6095114 -0.46122819 1
4.3320937 4.0681076 1.1551577 11
2.025543 1.9014469 -0.14559864 67
4.3000565 4.0351958 1.3614038 10
1.9965929 1.8729597 -0.04778469 100
4.2712307 4.0053463 1.5689611 8
2.3503859 2.1986821 -0.86238509 9
2.0126774 1.8821139 0.048098832 87
2.5567737 2.3900778 -0.80802423 7
2.0181785 1.8859361 0.14476126 92
2.804312 2.620558 -0.74606317 7
3.1156297 2.9094424 -0.6751712 1
4.4258423 4.1314983 0.74340308 5
3.4382045 3.2084241 -0.57741702 2
4.3695021 4.0760555 0.9464286 7
3.8316572 3.5743308 -0.4584392 1
4.3534474 4.0596542 1.1570657 9
2.0350895 1.8970889 -0.14580798 100
4.3155384 4.0214925 1.3618537 8
2.0001929 1.8632524 -0.047714882 100
4.2767024 3.9825141 1.5658553 8
2.3580451 2.1904659 -0.86238509 9
2.0133741 1.8696334 0.047959212 90
2.5708144 2.3864408 -0.80982381 7
2.0335321 1.8870326 0.1453893 90
2.8177578 2.6147614 -0.74720806 7
2.0157576 1.8698821 0.24054985 7
3.1547365 2.9254117 -0.68142867 1
4.5770807 4.2428813 0.76631445 1
3.4464719 3.1937034 -0.57692951 2
4.5242734 4.1909909 0.97677696 2
3.8674979 3.5825968 -0.46122819 1
4.3891964 4.0644445 1.1627901 3
2.0329056 1.8818326 -0.14517996 91
4.3395634 4.0156674 1.365003 7
2.0242994 1.8725544 -0.048133738 100
4.3019257 3.9780529 1.5699965 8
2.3713572 2.1874604 -0.86445564 9
2.0198886 1.8625935 0.047959212 92
2.5705311 2.3695281 -0.80712438 7
2.0368421 1.8775709 0.14517996 94
2.8311999 2.6089001 -0.74835294 6
2.0266688 1.8668833 0.24107277 64
3.1445842 2.895649 -0.67704844 1
4.6152325 4.2483883 0.77021432 1
3.45906 3.1829967 -0.57717323 2
4.5788479 4.2134156 0.98553723 2
3.8799789 3.5690756 -0.46122819 1
4.5276408 4.1633816 1.1956092 1
2.0306401 1.8666146 -0.14455192 91
2.0275528 1.8631257 -0.04806393 100
4.4602103 4.0970678 1.6227955 1
2.3818271 2.1817796 -0.86549091 9
2.0319512 1.8612894 0.048098832 90
2.5812488 2.3636239 -0.80802423 7
2.0404377 1.8677521 0.14497061 94
2.8460824 2.6043034 -0.74987942 7
2.047873 1.8732467 0.24281588 95
3.1745749 2.903872 -0.68142867 1
4.6615257 4.2625294 0.77557659 1
3.4695959 3.1715093 -0.57717323 2
3.8835881 3.5474465 -0.46018231 1
4.5646162 4.1695285 1.2017151 1
2.0427182 1.8652579 -0.14497061 91
2.042907 1.8641235 -0.048273355 100
4.5144486 4.1179261 1.6372893 1
2.3890495 2.1738684 -0.86549091 9
2.0443535 1.8595668 0.048238453 96
2.5952516 2.3598425 -0.80982381 7
2.0499003 1.8633053 0.14517996 92
2.8401759 2.581645 -0.74606317 7
2.0599725 1.8718044 0.24351314 100
3.1846924 2.892772 -0.68142867 1
4.6998901 4.2675843 0.7794764 1
3.4791751 3.1580455 -0.57692951 2
3.9218893 3.5586488 -0.46331993 1
2.0521753 1.8607997 -0.14517996 91
2.0345836 1.8435534 -0.047924306 100
4.5545673 4.1254883 1.6466069 1
2.3880227 2.1577454 -0.86238509 9
2.0538003 1.8550997 0.048308261 87
2.6063652 2.3533814 -0.8107236 7
2.0563927 1.856138 0.14517996 94
2.8520858 2.5743454 -0.74682647 6
2.0472643 1.8472503 0.24124709 97
3.1654332 2.8551769 -0.6751712 1
4.7501416 4.2830544 0.78532612 1
3.4960763 3.1511972 -0.57790446 2
3.8928418 3.5075946 -0.4584392 1
2.0631115 1.8576337 -0.14549398 96
2.0499253 1.8444657 -0.048133738 100
2.4041679 2.1571367 -0.86549091 9
2.0513313 1.8399084 0.048098832 90
2.6116631 2.3416667 -0.80982381 7
2.0688078 1.8542811 0.14559864 90
2.8683639 2.5709264 -0.74873453 7
2.0596349 1.8454114 0.24194433 97
3.1518381 2.8230224 -0.67016536 1
4.7857671 4.284987 0.78873843 1
3.5085332 3.1402988 -0.57814825 2
3.9199107 3.5072687 -0.46018231 1
2.0755384 1.8557462 -0.14591266 96
2.0623155 1.8426286 -0.048273355 100
2.4145672 2.1513021 -0.86652619 9
2.0607285 1.8353964 0.048168644 87
2.6139998 2.327352 -0.80802423 7
2.0842192 1.855016 0.14622667 97
2.8817196 2.5648148 -0.74987942 6
2.0690417 1.8408591 0.24229297 100
3.1793859 2.8277557 -0.67391974 1
2.1006746 1.8676918 0.34513399 1
3.5298607 3.1372631 -0.57985443 2
3.9321303 3.4935634 -0.46018231 1
2.07603 1.8431853 -0.14549398 88
2.0777097 1.8433821 -0.048482787 96
2.4249566 2.1454206 -0.86756152 9
2.073113 1.8334924 0.048308261 92
2.6250274 2.3207951 -0.80892402 7
2.0817027 1.8397931 0.14559864 97
2.8950686 2.5586398 -0.75102425 7
2.0873988 1.84418 0.24368747 97
3.2040431 2.8297174 -0.67704844 1
2.0833719 1.8393263 0.34123421 36
3.5244174 3.1104736 -0.57717323 2
3.9502769 3.4850893 -0.46087953 1
2.0809524 1.834607 -0.1453893 91
2.0871329 1.8387613 -0.048552595 96
2.4266248 2.1318429 -0.86549091 9
2.085511 1.8315222 0.048447877 90
2.6170039 2.2974749 -0.80397505 6
2.0851095 1.829881 0.1453893 94
2.889226 2.5355692 -0.74720806 7
2.0938239 1.8368819 0.24368747 97
3.2020206 2.8080957 -0.67454553 1
2.0897791 1.8320432 0.34123421 110
3.5516756 3.1125453 -0.57985443 2
3.9654164 3.4739044 -0.46122819 1
2.0948575 1.8339102 -0.14591266 86
2.0845091 1.8235644 -0.048343167 94
2.434052 2.1233587 -0.86549091 9
2.0949063 1.8268592 0.048517693 94
2.4090712 2.1000881 -0.73783946 2
2.1005194 1.8304638 0.14601734 92
2.9128609 2.5383658 -0.75102425 7
2.0942142 1.8243265 0.24299021 100
3.1909454 2.7787421 -0.67016536 1
2.1021509 1.8299502 0.34220913 122
3.5774944 3.1131589 -0.58229178 2
3.9684966 3.4521978 -0.46018231 1
10.656157 9.2665215 2.7449784 2
2.1087832 1.8331376 -0.14643602 91
2.0923707 1.8175887 -0.048378069 93
2.44437 2.1173785 -0.86652619 9
2.0891764 1.8090638 0.048238453 92
2.4208078 2.0954919 -0.73918921 6
2.1159585 1.8309611 0.14664535 90
2.9172506 2.5243278 -0.74987942 6
2.1035829 1.8196125 0.24333882 100
3.2036147 2.7701695 -0.67079103 1
2.1055229 1.8200043 0.34172165 123
3.5703144 3.085078 -0.57936692 2
4.0076637 3.4617662 -0.46331993 1
2.1136572 1.8244609 -0.14633135 93
2.1047599 1.8154978 -0.048517693 93
2.4517446 2.1088347 -0.86652619 9
2.107609 1.8121897 0.048517693 87
2.4059403 2.0679743 -0.73244059 31
2.1189888 1.821331 0.14643602 94
2.9379551 2.5243671 -0.75293231 7
2.1129451 1.8148545 0.24368747 97
3.2042727 2.7512479 -0.66891384 1
2.1148744 1.8152308 0.34220913 118
3.5910687 3.0822725 -0.58107305 2
5.0072398 4.2962737 1.0449823 2
4.967567 4.2592282 1.2719328 50
2.1139474 1.8118721 -0.14591266 88
2.1138058 1.8111107 -0.048587501 93
2.4646001 2.1057119 -0.86859673 9
2.1166477 1.8077885 0.048587501 94
2.4127836 2.0599861 -0.73244059 7
2.1280534 1.8168893 0.14664535 90
2.9403377 2.5095117 -0.75140589 6
2.1280456 1.8155971 0.24473332 100
3.2284081 2.7534263 -0.67204249 1
2.1148405 1.8030555 0.34123421 118
3.5816336 3.0536034 -0.57790446 2
5.027472 4.2847714 1.0462338 2
2.1247637 1.8102337 -0.24421038 6
4.9801702 4.2414575 1.2715513 100
2.1260269 1.8100314 -0.14633135 85
4.9500222 4.2142911 1.5008734 12
2.1228459 1.8066826 -0.048657309 93
4.9232955 4.1885734 1.7320172 38
2.4406374 2.0712776 -0.85772634 2
2.1256812 1.803346 0.048657309 92
2.4270334 2.0582752 -0.73469019 6
2.1313362 1.8068664 0.14643602 92
2.9336674 2.4870524 -0.74758971 6
2.1310153 1.8059534 0.24438471 97
3.2314918 2.7375987 -0.67079103 1
2.1268671 1.8011645 0.34220913 121
3.601362 3.0487773 -0.57936692 2
2.1366858 1.8081993 0.44333532 2
2.1371529 1.8079545 -0.24490763 56
2.1381183 1.8081294 -0.14675003 93
4.9334488 4.1705675 1.4914254 4
2.123029 1.7941002 -0.048517693 95
4.9319844 4.1663747 1.7299466 12
2.4142311 2.0336916 -0.84582067 1
2.1380804 1.8010689 0.048796929 92
2.4476194 2.0610871 -0.73873925 4
2.1467988 1.8071324 0.14706406 94
2.9547813 2.4863951 -0.75064266 6
2.1330457 1.7942835 0.24386176 93
3.2596476 2.7409916 -0.67454553 1
2.1392193 1.7988393 0.34318411 118
3.6226184 3.0451295 -0.58107305 2
2.1323988 1.7918338 0.44114524 54
2.1373487 1.7953569 -0.24421038 85
5.0382261 4.2305727 1.2788019 2
2.1508496 1.8054173 -0.14716873 93
2.1277473 1.7853926 -0.048482787 91
4.9198546 4.1267867 1.7206291 4
2.4094598 2.015337 -0.84167957 1
2.1385312 1.7880888 0.048657309 90
2.4506712 2.0483537 -0.73738956 5
2.1592231 1.8047515 0.14748274 87
2.9694684 2.4811015 -0.75216907 5
2.1469419 1.7932123 0.24473332 97
3.2631295 2.7245331 -0.67329407 1
2.1518936 1.796075 0.34415907 110
3.6337559 3.0318305 -0.58107305 2
2.1431913 1.7881753 0.44208387 85
2.1436024 1.7878858 -0.24421038 90
9.9053736 8.2587118 2.5068486 2
2.1602075 1.8004556 -0.14737807 96
2.1431842 1.785635 -0.048692215 91
5.0173573 4.1788244 1.7496167 2
2.2738092 1.888425 -0.79198635 2
2.1444478 1.7809887 0.048657309 87
2.4424572 2.0277672 -0.73289055 6
2.1685841 1.7997539 0.14769208 97
2.9811332 2.4732273 -0.75293231 5
2.1593225 1.7907952 0.24543057 97
3.2599833 2.7036083 -0.67079103 1
2.1517253 1.7838608 0.34318411 112
3.6483743 3.0235648 -0.58180428 2
2.1600678 1.7895052 0.44427395 86
2.1528997 1.7829334 -0.24455902 90
9.7935991 8.1106119 2.4717398 2
2.1615503 1.7894615 -0.14706406 91
2.1586492 1.7857902 -0.048901644 91
9.7869244 8.0935736 3.4029529 2
2.2726085 1.8747272 -0.78939813 6
2.1568232 1.778581 0.048796929 87
2.4284685 2.0018756 -0.72659194 6
2.1625218 1.7820126 0.14685471 92
2.990833 2.4645772 -0.75331396 3
2.1652489 1.7836251 0.24543057 100
3.2907488 2.7097926 -0.6751712 2
2.1548734 1.7738162 0.34269661 110
3.6543071 3.0070279 -0.58107305 2
2.1663008 1.7819548 0.44427395 83
2.1649547 1.7808475 -0.24525626 85
9.6823435 7.9616566 2.436631 1
2.1662402 1.7806377 -0.14695938 88
2.1664155 1.7795131 -0.04893655 93
9.6687994 7.9392204 3.3522243 1
2.2731609 1.8618858 -0.78732753 13
2.1661131 1.7735744 0.048866738 92
2.3751206 1.9440153 -0.70859581 10
2.1749127 1.7795115 0.14727339 94
2.3673222 1.9369408 -0.59456086 6
2.1791732 1.7823627 0.24630213 93
3.3307729 2.7232974 -0.68142867 1
2.1733487 1.7763329 0.34464651 110
3.6586335 2.9892287 -0.58009815 1
2.1694474 1.7718835 0.44364822 83
2.1727006 1.7745404 -0.24543057 94
9.5671215 7.8110991 2.400759 1
2.1817272 1.7806418 -0.14758742 83
2.1648653 1.7656212 -0.048762023 87
9.5616989 7.7955542 3.3056369 3
2.2796459 1.8539401 -0.78732753 6
2.1816006 1.7735714 0.049076166 92
2.3924787 1.9443152 -0.71174508 21
2.1904118 1.7794654 0.14790143 94
2.3725448 1.927428 -0.59417921 20
2.1807413 1.7709774 0.24577919 97
2.3571985 1.9135953 -0.4808796 10
2.1857021 1.7737386 0.3456215 115
2.374088 1.9259322 -0.3753576 1
2.1740856 1.7630551 0.44333532 81
2.1742396 1.76318 -0.24490763 90
2.1941359 1.7780455 -0.1480061 93
2.1756778 1.7618283 -0.048866738 95
9.4507093 7.6503072 3.2580142 3
2.2921152 1.8508266 -0.78939813 6
2.1784425 1.7584088 0.048866738 94
2.4750812 1.9971383 -0.73424023 24
2.1997187 1.7743169 0.14811078 92
2.3853705 1.9240655 -0.59570575 11
2.1884611 1.7646042 0.24595349 91
2.3638642 1.905355 -0.4808796 30
2.1980619 1.7710817 0.34659645 110
2.3452394 1.8889927 -0.36975163 20
2.1848428 1.7591712 0.44427395 83
2.1865888 1.7605771 -0.24560487 90
2.1916213 1.7640005 0.54685861 7
2.2049978 1.7741313 -0.14832011 91
2.1911638 1.7617427 -0.049076166 95
9.3538847 7.5180283 3.2155681 3
2.3121276 1.8536893 -0.79405683 5
2.1908076 1.7557977 0.049006358 92
2.4820371 1.988487 -0.73424023 31
2.2090173 1.7691239 0.14832011 92
3.0249527 2.4225779 -0.75331396 3
2.2054956 1.7656702 0.24717368 95
2.3643315 1.8921555 -0.47962815 7
2.1949308 1.755957 0.34513399 112
2.3626714 1.8894727 -0.37145779 27
2.2002275 1.7589353 0.44615117 86
2.1927209 1.7529342 -0.24560487 87
2.1885638 1.7489852 0.5445689 60
2.2018147 1.7589433 -0.14769208 91
2.1973007 1.7540827 -0.049076166 95
9.278903 7.4045959 3.1808863 1
2.3200953 1.8468108 -0.7945745 6
2.2031827 1.7531196 0.049145978 90
2.4904888 1.9810234 -0.73469019 14
2.2057989 1.7539444 0.14769208 90
2.4801881 1.9721255 -0.61593145 3
2.2147636 1.7604419 0.24752231 100
3.3375409 2.651947 -0.6751712 1
2.2010465 1.7482852 0.34513399 112
3.7248857 2.9576066 -0.58399796 1
2.2079015 1.7524719 0.446464 88
2.2081902 1.752701 -0.24665076 90
2.2054217 1.7498763 0.5472402 75
2.2110698 1.7537309 -0.14790143 91
4.826859 3.8270924 1.4221406 3
2.2096794 1.7513701 -0.049215786 95
4.8105764 3.8114524 1.6445363 1
2.3219812 1.8351067 -0.79302156 6
2.2155654 1.7503763 0.049285594 92
2.5004458 1.9747354 -0.73558998 14
2.218179 1.7511839 0.14811078 90
2.4978442 1.9719708 -0.61860281 14
2.2255878 1.7564025 0.24804525 91
2.4875944 1.9624718 -0.50184184 8
2.213371 1.7455078 0.34610897 112
2.2093496 1.7410877 0.44552541 83
2.2174232 1.7474502 -0.24699937 90
2.217685 1.7470275 0.54876673 86
2.2203166 1.7484728 -0.14811078 91
4.8279357 3.8005803 1.4185413 1
2.2126358 1.7411733 -0.049145978 93
4.8208165 3.7922473 1.643501 3
2.3268535 1.8257972 -0.79250389 7
2.2279551 1.747569 0.049425215 92
2.5134583 1.9708042 -0.73738956 10
2.2305665 1.7483581 0.14852946 83
2.5000775 1.9596058 -0.61745793 9
2.216022 1.7363354 0.24630213 93
2.4897645 1.9501218 -0.50090319 25
2.225703 1.7426656 0.3470839 110
2.4698665 1.9331459 -0.38510716 10
2.2185256 1.735799 0.44615117 86
2.2219408 1.7384709 -0.24682505 94
2.2237701 1.739275 0.54876673 83
2.2358468 1.7480934 -0.1487388 91
2.2202764 1.7346696 -0.04918088 91
4.8066173 3.7539933 1.6341835 3
2.3328948 1.8180714 -0.79250389 6
2.2274277 1.735256 0.049285594 87
2.5292056 1.9696419 -0.740089 9
2.2458076 1.7483134 0.14915749 92
3.0534196 2.3770223 -0.75216907 5
2.2312014 1.7363192 0.24734798 91
2.4837449 1.9321506 -0.49840027 7
2.2330363 1.7364944 0.34732765 105
2.4793975 1.9273818 -0.38559461 23
2.2383082 1.7393407 0.44896698 81
2.2308404 1.7335377 -0.24717368 94
2.2264245 1.7294829 0.54800349 86
2.2447867 1.7431188 -0.14894815 91
5.2370038 4.065166 1.5305669 53
2.2307558 1.7309756 -0.049285594 93
4.9075756 3.8067067 1.6642065 3
2.3499219 1.818193 -0.79612744 7
2.2366354 1.7299165 0.049355406 90
2.53144 1.9572257 -0.73873925 7
2.2518964 1.740464 0.14915749 92
3.0958722 2.3927629 -0.76056474 6
2.2419789 1.732174 0.24787092 95
3.3706613 2.6032631 -0.67454553 3
2.2390838 1.7286894 0.34732765 108
2.4672527 1.9041609 -0.38266978 2
2.2443666 1.7315164 0.44896698 81
2.2416112 1.7293905 -0.24769662 90
2.2293382 1.7193031 0.5472402 83
2.239785 1.7267365 -0.14821544 88
2.2526252 1.7353824 -0.049634643 93
5.2070527 4.009973 1.7610049 17
2.3608508 1.813509 -0.79768038 7
2.245832 1.7245347 0.049425215 92
2.5351646 1.9460049 -0.73783946 7
2.2544866 1.7305551 0.14894815 87
3.0901883 2.3711843 -0.75713015 5
2.252754 1.727976 0.24839386 88
3.3828626 2.5938859 -0.6751712 3
2.248256 1.7232778 0.34781513 105
2.2529826 1.7269007 -0.34854636 9
2.256367 1.7288715 0.45021844 81
2.250797 1.7239789 -0.24804525 90
2.2446795 1.7186716 0.54952991 81
2.2521434 1.723763 -0.14863414 88
2.2599564 1.7291176 -0.049669549 91
2.4298236 1.8537122 -0.81890345 7
2.2610793 1.724353 0.049634643 87
2.395927 1.8265299 -0.69554865 7
2.2602134 1.7230688 0.14894815 90
2.4687457 1.8813617 -0.60333806 1
2.2616422 1.72291 0.24874248 88
3.402446 2.5910318 -0.67736137 2
2.2602761 1.7206229 0.34879011 103
2.2650144 1.7242299 -0.34952128 69
2.2573721 1.7177902 0.44927984 86
2.26443 1.7225372 -0.2489168 83
2.2628682 1.7207258 0.55258286 83
2.2673872 1.7235376 -0.14926216 88
2.2577167 1.7155651 -0.049495026 93
2.4836917 1.8818101 -0.83495027 7
2.2699728 1.7192606 0.049704451 92
2.3895411 1.8091645 -0.69194949 16
2.2693999 1.7175786 0.14915749 90
2.3794794 1.8008915 -0.58005941 10
2.260987 1.7105929 0.24804525 88
2.4263146 1.8350068 -0.4818182 1
2.2754705 1.7203003 0.35025251 103
2.2694352 1.7151167 -0.34927759 69
2.2602026 1.707518 0.44865409 86
2.2621815 1.709013 -0.24804525 90
2.2732625 1.716761 0.55372775 89
2.2762778 1.7184162 -0.14947151 88
2.2668846 1.7100815 -0.049564835 93
2.5211222 1.896355 -0.84530306 7
2.2695677 1.7065188 0.049564835 92
2.4254396 1.8230585 -0.70049757 10
2.2945423 1.7240441 0.15041354 90
2.384181 1.7913957 -0.57967776 24
2.2749104 1.7086722 0.2489168 87
2.3631988 1.7743403 -0.46805197 14
2.2814612 1.7123474 0.35025251 82
2.2801726 1.710758 -0.35000879 68
2.2772112 1.7079152 0.4508442 81
2.2697268 1.7023017 -0.24821955 94
2.2651033 1.6982167 0.55029315 75
2.2886555 1.7152506 -0.14989018 86
2.2824433 1.7093509 -0.049774267 93
2.5819037 1.9279979 -0.86342037 6
2.2755105 1.6985866 0.049564835 90
2.5520501 1.9043201 -0.73514003 4
2.3005466 1.7160234 0.15041354 85
2.2872493 1.7054853 0.24961405 85
2.3693779 1.7660809 -0.46805197 23
2.2778745 1.6972562 0.34879011 103
2.2893145 1.7051591 -0.35049626 70
2.2894964 1.7046751 0.45209566 88
2.2807462 1.6975397 -0.24874248 87
2.2804675 1.6973324 0.55258286 81
2.2882199 1.7024819 -0.14947151 86
2.2916062 1.703759 -0.049844075 93
2.467886 1.8288072 -0.8230446 1
2.2878528 1.695395 0.049704451 92
2.5023098 1.8536404 -0.71894354 11
2.3001013 1.70323 0.14999487 85
2.512131 1.8595577 -0.6075359 2
2.2950871 1.6982752 0.24978836 83
2.4584169 1.8184708 -0.48432118 1
2.2869759 1.6916572 0.34927759 103
2.2888677 1.6924372 -0.34952128 68
2.2986102 1.6990204 0.45272139 88
2.2978735 1.6978576 -0.24996266 90
2.2850935 1.6877967 0.55220127 52
2.2976575 1.6964568 -0.14968085 86
2.3007567 1.6981249 -0.049913883 97
2.436908 1.7927065 -0.81062132 1
2.3101606 1.6988455 0.0500535 90
2.5232179 1.854845 -0.72299272 19
2.3028147 1.6928242 0.14978553 85
2.5027866 1.8391511 -0.60371965 16
2.3074236 1.694972 0.2504856 81
2.4902258 1.8285844 -0.48932707 6
2.2995627 1.6879605 0.35025251 103
2.301163 1.6891352 -0.35049626 68
2.2997489 1.6874813 0.45178279 83
2.3069997 1.6921824 -0.25031129 90
2.3067868 1.690788 -0.14989018 86
2.3002176 1.6853564 -0.049774267 93
2.4709177 1.8051288 -0.81993878 1
2.3190112 1.6935347 0.050123312 90
2.5875919 1.8889804 -0.73963904 7
2.3213212 1.6945988 0.15062289 85
2.5088713 1.830842 -0.60371965 12
2.3098121 1.684963 0.25013697 83
2.4962764 1.8203158 -0.48932707 23
2.3179805 1.6896807 0.35220242 82
2.3099597 1.683834 -0.35098374 68
2.3117177 1.6844995 0.45303425 95
2.3093781 1.6821759 -0.24996266 87
2.3220694 1.690182 -0.15051822 85
2.3074114 1.6788951 -0.049809169 85
2.4331057 1.7651631 -0.8054449 12
2.3149021 1.6787906 0.049913883 87
2.6159303 1.8964028 -0.74593771 7
2.3304574 1.6888291 0.15083225 85
3.1555848 2.2867799 -0.75751179 5
2.3105469 1.673787 0.24961405 85
2.486299 1.8004425 -0.48619837 16
2.3251793 1.6831481 0.35244617 77
2.3270802 1.683907 -0.35268989 60
2.3207853 1.6787348 0.45366001 83
2.3181722 1.6768445 -0.25031129 90
2.3406112 1.6918318 -0.15135561 81
2.3229845 1.6778551 -0.050018597 87
2.4549294 1.767948 -0.81062132 1
2.32724 1.6753726 0.0500535 85
2.7727993 1.9953967 -0.78867841 6
2.3363371 1.6806854 0.15083225 85
3.1762962 2.2849247 -0.76056474 6
2.330934 1.6761799 0.25118285 81
3.4854252 2.5054567 -0.67986429 3
2.3262031 1.6715479 0.35171497 103
2.4167824 1.7359945 -0.36536431 11
2.3346541 1.6763836 0.45522434 92
2.3304853 1.6733902 -0.25100854 87
2.3367665 1.6766644 -0.15072757 85
2.3320763 1.6720681 -0.050088406 87
2.457943 1.7571205 -0.80958605 2
2.3363268 1.6695658 0.050123312 90
2.8970907 2.0695281 -0.82197118 6
2.3454409 1.6748407 0.15104158 90
3.1874487 2.2761047 -0.76132792 5
2.3400137 1.6703488 0.25153148 83
3.4989743 2.4967163 -0.68080288 3
2.3368726 1.6668755 0.35244617 79
3.8888071 2.772836 -0.58643532 2
2.3469255 1.6728107 0.45647582 88
2.3460464 1.6721841 -0.25205442 90
5.9463553 4.2367992 1.4192374 5
2.3426044 1.6684978 -0.15072757 81
2.3476744 1.670874 -0.050297838 91
2.4861178 1.764182 -0.81683296 1
2.3519268 1.6683413 0.05033274 87
2.9090664 2.0627837 -0.82332087 7
2.3512726 1.6666437 0.15104158 90
3.1889672 2.2604237 -0.75980145 5
2.3523324 1.6667783 0.25222871 83
3.5125048 2.4879117 -0.68174148 3
2.3523967 1.6655911 0.3539086 75
3.8919804 2.7546582 -0.58546036 2
2.3463006 1.6600436 0.45522434 88
2.3518698 1.6639839 -0.25205442 85
2.3581994 1.6672291 -0.15135561 81
2.3469591 1.6580541 -0.050158214 91
5.9664898 4.2135797 1.9571897 2
2.640723 1.8600656 -0.86549091 3
2.361007 1.6624234 0.050402552 92
2.9274039 2.0604687 -0.8264702 7
2.36361 1.6630226 0.15146028 85
3.2000501 2.2515371 -0.76056474 5
2.3548772 1.6562639 0.25188008 83
3.5276313 2.4801812 -0.68299294 2
2.358197 1.6573688 0.3539086 77
3.9291861 2.7604547 -0.58960396 2
2.3553138 1.6541146 0.45585006 88
2.3511415 1.6511846 -0.25135714 85
2.3738141 1.6658703 -0.15198363 77
2.3510959 1.648703 -0.050123312 93
2.6836143 1.8762971 -0.87739658 9
2.3635168 1.6518812 0.05033274 92
2.937773 2.0524704 -0.82736999 6
2.3759508 1.6593357 0.15187897 85
3.2175477 2.2470968 -0.7628544 6
2.3606439 1.6480343 0.25188008 78
3.5411265 2.4712443 -0.68393159 3
2.3704808 1.6536696 0.35488355 77
3.9371691 2.7455876 -0.58936024 2
2.3659344 1.6492723 0.45678869 86
2.3634284 1.6475253 -0.25205442 87
5.2365642 3.6490021 1.2406402 1
2.3730588 1.6530082 -0.15156494 72
2.369967 1.6496246 -0.050402552 95
2.7044318 1.8768302 -0.88205534 9
2.372555 1.6458999 0.050402552 87
2.9289055 2.0310988 -0.82287097 6
2.388294 1.6555839 0.15229765 85
3.2350526 2.2425632 -0.76514411 5
2.3729334 1.6443228 0.25257733 83
3.5562258 2.4633682 -0.68518305 3
2.3713424 1.6419954 0.35415235 103
3.9761102 2.7521627 -0.5937475 2
2.3797996 1.6466229 0.45835301 92
2.3727286 1.641118 -0.25240302 75
5.225049 3.6139498 1.2349159 1
2.3722436 1.6401707 -0.15114626 74
2.385582 1.6481622 -0.050611977 93
5.1964111 3.5887818 1.6921589 2
2.7208388 1.8734796 -0.88516116 9
2.3782856 1.6376088 0.050402552 92
2.9391885 2.0230718 -0.82377076 6
2.3874767 1.6427091 0.15187897 83
3.2432497 2.2306919 -0.76514411 6
2.3887944 1.6423876 0.25362319 83
3.5587196 2.4458416 -0.68393159 3
2.380331 1.6359569 0.3546398 103
3.966058 2.7247787 -0.59082258 2
2.3904178 1.6416612 0.45929164 86
5.2852025 3.6269908 1.2459828 1
2.3848269 1.6359847 -0.15156494 74
2.3946192 1.642086 -0.050681788 95
5.2025337 3.5662506 1.6900884 4
2.7209828 1.8596097 -0.88309062 9
2.3974812 1.6379044 0.050681788 87
2.9514108 2.015583 -0.82512045 6
2.3931959 1.6343657 0.15187897 81
3.2445314 2.2149291 -0.76361769 6
2.4010963 1.6385307 0.25432047 83
3.567235 2.4334049 -0.68393159 3
2.3928719 1.6316946 0.35561478 82
3.9694579 2.7057507 -0.58984768 2
2.3896053 1.6288562 0.45804018 86
5.3594913 3.650517 1.2604843 2
2.3938251 1.6298976 -0.15177429 76
2.393723 1.6292183 -0.050542168 97
5.2500892 3.5719771 1.7014765 4
2.7194633 1.8446788 -0.88050246 9
2.4028993 1.6299455 0.050681788 85
2.9709826 2.0145333 -0.82871968 7
2.4088061 1.6327249 0.15250699 83
3.248992 2.2013879 -0.7628544 5
2.3969033 1.6234361 0.25327459 83
3.5900054 2.431531 -0.68674743 3
2.4114194 1.6326544 0.35756469 103
3.9849851 2.697022 -0.59082258 2
2.3985481 1.622719 0.45866591 86
4.5303564 3.0638251 -0.47848502 1
5.5179305 3.7317095 1.2948298 2
2.4091451 1.6286613 -0.15240233 74
2.406024 1.6253295 -0.050681788 93
5.2721329 3.5601144 1.7045823 4
2.7303722 1.8388885 -0.88205534 9
2.4052565 1.6193149 0.050611977 87
2.9893141 2.0117657 -0.83186901 6
2.4241498 1.6314182 0.15313502 83
3.2627904 2.1949842 -0.76438087 5
2.4055798 1.6177028 0.25362319 81
3.578799 2.4057593 -0.68299294 2
2.4154565 1.6231192 0.35732093 79
4.0141478 2.6963809 -0.5937475 2
2.4006364 1.612554 0.45804018 43
4.5140271 3.0310133 -0.47569603 1
5.4233375 3.6402106 1.2696431 2
2.4181316 1.6224691 -0.15261166 74
2.4163833 1.620683 -0.050786503 87
5.4604135 3.6609511 1.7615224 4
2.7448056 1.8347136 -0.88464355 7
2.4139385 1.6135517 0.050681788 87
2.9846263 1.9942638 -0.82871968 7
2.4381325 1.6284946 0.15365838 78
3.2769632 2.1879432 -0.76590741 5
2.4178412 1.6137196 0.25432047 83
3.5900426 2.3960724 -0.68361872 2
2.4158707 1.6117967 0.35658973 103
4.011507 2.6753433 -0.59204131 2
4.5610561 3.0395441 -0.4795309 1
5.3112178 3.5394611 1.2406402 1
2.4168503 1.6100115 -0.15219298 74
2.4286847 1.6166699 -0.050926123 91
5.4152584 3.6033428 1.7428875 4
2.7540934 1.8277384 -0.88567883 7
2.4295547 1.6117479 0.050891217 92
2.9769521 1.9741409 -0.82467055 6
2.4335327 1.6137769 0.15303035 78
3.2809274 2.1748955 -0.76514411 5
2.4431098 1.6188987 0.25641218 83
3.6115589 2.3922536 -0.68612164 2
2.4314137 1.609929 0.35805216 103
4.0290985 2.6668015 -0.59325999 2
5.261281 3.4823649 0.99930352 2
4.5445223 3.0068154 -0.47674191 1
5.2514877 3.4732511 1.2238491 1
2.4307861 1.6070722 -0.15271634 61
2.4340315 1.608609 -0.050926123 91
5.2885561 3.4937887 1.6983706 2
2.7652972 1.8213007 -0.88723171 9
2.444906 1.6102823 0.051100649 90
2.9948752 1.9717598 -0.82781988 6
2.4424884 1.6074679 0.1532397 76
3.2917802 2.1655869 -0.76590741 4
2.4470799 1.6092676 0.25623786 85
3.6227727 2.3824356 -0.68674743 2
2.4400568 1.6040374 0.35853964 82
4.0412378 2.655607 -0.5937475 2
5.2288241 3.4346995 0.99085599 4
4.5649838 2.997494 -0.47778779 1
5.1973333 3.4127123 1.2085842 1
2.4346159 1.596812 -0.050821409 93
5.2037854 3.4117525 1.6673124 1
2.7538497 1.8000108 -0.88153768 9
2.4507914 1.601311 0.051100649 87
3.0118728 1.9671615 -0.83051926 6
2.4583974 1.6050568 0.15386772 76
3.3124702 2.1626701 -0.7689603 5
2.4510145 1.5996265 0.25606358 81
3.6414087 2.3756151 -0.68862462 2
2.4558959 1.6015902 0.36000207 105
4.0509434 2.6407783 -0.5937475 1
5.2331057 3.410116 0.98929167 4
4.5787582 2.9837151 -0.47813639 1
5.2114511 3.3947129 1.2089659 3
5.2772136 3.4362388 -0.33003056 1
2.4421277 1.5889691 -0.050856311 91
5.164432 3.358952 1.6507479 1
2.7698412 1.7966944 -0.88464355 7
2.4530096 1.5905708 0.051030833 90
3.0285316 1.9629978 -0.83321869 6
2.4706905 1.6008091 0.15428641 75
3.3134096 2.1468234 -0.76743382 5
2.4632728 1.5953927 0.25676081 78
3.6364117 2.3543036 -0.68612164 2
2.4648049 1.5951641 0.36048955 82
4.0668039 2.6309333 -0.59472245 1
5.2599039 3.4014859 0.99210751 7
4.5991821 2.9742088 -0.47918224 1
5.2166748 3.372236 1.2074393 7
5.2891769 3.4177954 -0.33003056 1
5.1907353 3.3528993 1.4266397 1
2.462779 1.5901966 -0.051170457 93
5.1404176 3.3178551 1.6393598 3
2.7825933 1.791198 -0.8867141 7
2.4652739 1.5863262 0.051170457 87
3.025532 1.9460883 -0.83051926 6
2.4829824 1.5964961 0.15470509 78
3.3274877 2.139492 -0.7689603 4
2.4688263 1.5867851 0.25676081 83
3.6512561 2.345866 -0.6873731 2
2.4636765 1.5822601 0.35951459 82
4.0793033 2.6188676 -0.59520996 2
5.2684212 3.3809698 0.99148178 26
4.6095366 2.9581356 -0.47918224 1
5.2317204 3.3561246 1.2082026 19
5.2674489 3.3777506 -0.32793713 1
5.213891 3.3421228 1.4297889 11
2.4733665 1.5848261 -0.051275171 87
5.1731148 3.3134379 1.6460892 5
2.7920842 1.7835546 -0.88774931 7
2.4775381 1.5820154 0.051310074 87
3.029021 1.9334189 -0.82961947 6
2.4851725 1.5856711 0.15449576 70
3.3399005 2.1310325 -0.77010518 4
2.4894691 1.5877995 0.25832963 85
3.6660845 2.3373551 -0.68862462 2
2.4742069 1.5768507 0.36024579 79
4.085072 2.6024778 -0.59472245 1
5.2451997 3.3402772 0.98491156 64
4.6601672 2.9677136 -0.48336574 1
5.230154 3.3294091 1.2051498 36
5.3432398 3.4000869 -0.33191466 1
5.2238803 3.3228574 1.4293389 28
2.4890082 1.582621 -0.051484596 87
5.1976938 3.3036492 1.6502303 18
2.7950301 1.7717283 -0.8867141 7
2.4864235 1.5754988 0.051379886 85
3.0406909 1.9259614 -0.83096921 6
2.4906929 1.576986 0.15449576 73
3.3373671 2.113059 -0.76781541 4
2.4966793 1.580166 0.25850391 81
3.6725523 2.3234866 -0.6883117 2
2.4830513 1.570327 0.36073327 79
4.1041989 2.5945678 -0.59618485 2
5.2534881 3.3198357 0.98428577 95
4.6570239 2.9429121 -0.48197123 1
5.2284641 3.3027453 1.2020967 84
5.2909017 3.3408945 -0.32793713 1
5.1893067 3.2754765 1.4167417 39
2.4776046 1.5632529 -0.051135551 74
5.1895852 3.2731199 1.6440187 35
2.8077383 1.766076 -0.88878465 7
2.4986796 1.5710669 0.051519506 81
3.0655446 1.9267418 -0.83591807 6
2.5063293 1.5746578 0.1551238 73
3.3513715 2.1055746 -0.76934189 4
2.498806 1.5693214 0.25815532 83
3.6923518 2.3180037 -0.69050181 2
2.498606 1.5679816 0.36219573 75
4.1132312 2.5802245 -0.59618485 2
5.2650456 3.301476 0.98428577 80
4.6537657 2.9181695 -0.48057678 1
5.2349696 3.2813475 1.2009518 77
5.3871555 3.3754265 -0.33317071 1
5.1974063 3.2552724 1.4158419 86
5.4627013 3.4201102 -0.11249821 78
5.1682277 3.2344861 1.6336659 69
2.8007758 1.7480806 -0.88464355 7
2.5041473 1.5623369 0.051519506 81
3.0656371 1.9119051 -0.83411849 6
2.52198 1.5722386 0.15575182 75
3.3653657 2.0980172 -0.77086836 4
2.5059595 1.5616437 0.25832963 76
3.6937137 2.3009241 -0.68925035 2
2.5108051 1.5634469 0.36317068 77
4.1188412 2.5637536 -0.5956974 1
5.2933097 3.2935143 0.98741448 90
4.6673064 2.9040129 -0.48092538 1
5.2513943 3.2661631 1.2020967 84
5.378551 3.3439481 -0.33191466 1
5.2170129 3.2422545 1.4180914 71
5.4864984 3.4084063 -0.11274255 90
5.1762037 3.2143886 1.6326306 91
2.8167145 1.7443969 -0.88774931 7
2.5129867 1.5556908 0.051589314 81
3.0789211 1.9052933 -0.83591807 6
2.5308497 1.5655274 0.15596117 70
3.3726683 2.0862577 -0.77086836 4
2.5215626 1.5591742 0.25937548 76
3.7118053 2.2942472 -0.69112754 2
2.5061142 1.548413 0.36170825 77
4.1395884 2.5566635 -0.59740359 2
5.3165407 3.2822797 0.98960453 95
4.6875873 2.8939819 -0.48197123 1
5.2610936 3.2467802 1.2017151 80
5.4343863 3.3524182 -0.33463615 1
5.241569 3.2322052 1.4216906 82
5.5102792 3.3965776 -0.11298689 100
5.1956162 3.201369 1.6352189 95
2.8277247 1.7375875 -0.88930225 7
2.5201063 1.5479553 0.05162422 75
3.0656238 1.8823004 -0.83051926 6
2.5328948 1.5545934 0.15575182 75
3.3765843 2.0724175 -0.77010518 4
2.5303867 1.552446 0.25972411 76
3.7214735 2.2823114 -0.6914404 2
2.523351 1.5469174 0.36341441 68
4.1383324 2.5359735 -0.59594113 2
5.3262787 3.2626731 0.98929167 87
4.7146487 2.8880122 -0.48371434 1
5.2790914 3.2324975 1.2032416 77
5.4222064 3.3188291 -0.33317071 1
5.2461686 3.2098248 1.419891 76
5.5340428 3.3846271 -0.11323121 90
5.2150006 3.1882503 1.6378069 91
2.8420205 1.7327338 -0.89189047 7
2.5391543 1.5474749 0.05190346 76
3.0821614 1.8776703 -0.83321869 6
2.54513 1.5498972 0.15617052 74
3.3888288 2.0636809 -0.77125001 4
2.5391939 1.5456762 0.26007274 76
3.7412307 2.2764943 -0.69363046 2
5.3746238 3.2691057 0.77240795 42
4.1539435 2.5256386 -0.59691608 2
5.346076 3.2491894 0.99085599 83
4.728107 2.8736057 -0.484063 1
5.3037667 3.222204 1.2062945 80
5.4337578 3.2998829 -0.33317071 1
5.2606735 3.1935139 1.4207909 75
5.5424051 3.3632128 -0.1131614 95
5.2393117 3.1780436 1.6419481 91
2.8414388 1.7188053 -0.88981992 7
2.5548081 1.5448097 0.052112885 73
3.1053748 1.8769798 -0.83771771 6
2.5502553 1.5414492 0.15617052 75
3.3993709 2.0538716 -0.77201319 4
2.5496905 1.5398928 0.26059568 78
3.7457731 2.2613783 -0.69300479 2
5.4131937 3.2667394 0.77630776 75
4.174633 2.5182996 -0.59862226 2
5.3652802 3.2365437 0.99242038 90
4.7312851 2.8529675 -0.48336574 1
5.3217058 3.2077284 1.207821 80
5.5307808 3.3324318 -0.33840433 1
5.2918215 3.1871943 1.4261897 75
5.5638046 3.3510063 -0.11337084 95
5.2465105 3.1586602 1.6409128 91
2.8441088 1.7068872 -0.88878465 7
2.5547729 1.5332428 0.052008174 54
3.1099098 1.8656712 -0.83726782 6
2.5693233 1.5407555 0.15700789 83
3.4065199 2.0419922 -0.77201319 4
2.5499234 1.5279106 0.26007274 74
3.7668078 2.257066 -0.69550771 4
5.4239974 3.248769 0.77630776 64
4.1931801 2.5105617 -0.60008472 1
5.3833256 3.2218521 0.99367183 90
4.7446337 2.8384814 -0.48371434 1
5.337369 3.1930859 1.2089659 84
5.5075178 3.2935724 -0.33631086 1
5.3090539 3.1736269 1.4279894 76
5.5874839 3.3387461 -0.11361516 100
5.2624807 3.1432977 1.6424657 93
2.8630316 1.7053546 -0.89292574 7
5.5463295 3.3023438 0.11267274 85
3.1046817 1.8478267 -0.83411849 6
2.5815518 1.5358616 0.15742657 78
3.4132733 2.0306838 -0.77201319 4
2.5703871 1.5286136 0.26164153 87
3.7627761 2.2368405 -0.69331765 5
5.433599 3.2288005 0.7760641 70
4.1985035 2.4938824 -0.59959722 1
5.3979344 3.2050619 0.99429762 76
4.7545137 2.8219011 -0.48371434 1
5.3501711 3.175436 1.2093475 80
5.5086756 3.2682116 -0.33568287 1
5.3268013 3.1590555 1.4297889 84
5.6111455 3.3263581 -0.1138595 90
5.2817316 3.1298316 1.645054 91
2.8759158 1.6987802 -0.89499629 7
5.5750418 3.2931321 0.11302178 97
3.1211817 1.8429221 -0.83681792 6
2.5800169 1.5227808 0.15700789 78
3.4274566 2.0221512 -0.77353972 4
2.5776892 1.5201938 0.26181585 85
3.779458 2.228049 -0.69488198 2
5.4465461 3.2108231 0.77630776 68
4.1952124 2.4721563 -0.59789103 2
5.424408 3.1952217 0.99711335 83
4.7815027 2.8153975 -0.48545748 1
5.3770008 3.1647692 1.212782 84
5.5034027 3.2378728 -0.33463615 1
5.329946 3.1345692 1.4275393 73
5.6330643 3.312835 -0.11406893 95
5.3026166 3.1172514 1.6481597 90
2.8851621 1.6906838 -0.89603156 7
5.5991516 3.2797527 0.11326612 100
3.1363235 1.8363941 -0.83906746 6
2.5887635 1.5157844 0.15721723 81
3.4294119 2.0071988 -0.7723949 4
2.5950172 1.5182301 0.26303601 87
3.780391 2.2108545 -0.69363046 2
5.4702744 3.1978505 0.77801394 61
4.2145281 2.4627733 -0.59935349 2
5.4423504 3.1802554 0.99836493 87
4.7913008 2.7986908 -0.48545748 1
5.3947973 3.1499388 1.2143085 90
5.5767684 3.2548873 -0.33840433 1
5.3526368 3.1228206 1.4306886 76
5.641139 3.2911377 -0.11399912 95
5.3234787 3.1045606 1.6512655 90
2.8776844 1.6728358 -0.89189047 7
5.6186419 3.2661905 0.11344065 97
3.1407113 1.8250036 -0.8386175 4
2.6044016 1.5127569 0.15784526 83
3.433001 1.9932448 -0.7716316 4
2.6003015 1.5091618 0.26303601 87
3.7945364 2.2022715 -0.69488198 4
5.5031705 3.1926439 0.78118259 66
4.2295413 2.4527659 -0.60032845 2
5.4534187 3.161237 0.99836493 83
4.783803 2.7719588 -0.48371434 1
5.4154053 3.1379385 1.2165983 84
5.5011182 3.1863222 -0.33317071 1
5.3798289 3.1148164 1.4351877 84
5.6664395 3.2794383 -0.11427836 95
5.3342824 3.0859601 1.6512655 90
2.8865623 1.6652153 -0.89292574 7
5.6300082 3.2465591 0.11344065 97
3.1436856 1.8120837 -0.83771771 6
2.620049 1.5096399 0.15847328 81
3.4480975 1.9867511 -0.77353972 4
2.5966589 1.4955592 0.26216447 85
3.8124728 2.1949251 -0.69675916 2
5.510839 3.1714354 0.78069508 65
4.2243114 2.4300694 -0.59837854 1
5.4781208 3.150058 1.0008678 83
4.7929692 2.7560787 -0.48371434 1
5.4280267 3.1199956 1.2169799 86
5.5987964 3.2168493 -0.33840433 1
5.4041886 3.1037812 1.438787 82
5.6830544 3.2626266 -0.11438307 87
5.3550768 3.0730894 1.6543714 90
2.9024184 1.6608853 -0.89603156 7
5.6482487 3.2308598 0.11358026 92
3.1483004 1.8001308 -0.83726782 6
2.6270373 1.5014755 0.15857796 23
3.4481936 1.9708048 -0.77201319 4
2.6122432 1.4924167 0.26321036 85
3.8132493 2.177686 -0.69550771 2
5.5253253 3.1541467 0.78118259 61
4.2569056 2.4290838 -0.60179085 2
5.50281 3.1387477 1.0033708 87
4.8198667 2.7492034 -0.48545748 1
5.4440017 3.1039448 1.2181247 90
5.6099901 3.1972876 -0.33840433 1
5.4183755 3.0868285 1.4396867 76
5.7135239 3.2536526 -0.11476702 90
5.3741646 3.0591576 1.6569597 86
2.9081979 1.6507444 -0.89603156 7
5.6716676 3.21803 0.1138246 100
3.1596501 1.7920152 -0.8386175 6
5.6328669 3.1934166 0.33934638 59
3.4926252 1.9800588 -0.7804088 4
2.6347711 1.4931116 0.26495346 85
3.8208272 2.1643629 -0.69550771 2
5.5397558 3.1367979 0.78167003 60
4.2688146 2.4161642 -0.60227835 2
5.5188909 3.1224365 1.0043093 85
4.843307 2.7402098 -0.48685199 1
5.4667649 3.0916893 1.220796 86
5.6663213 3.2032416 -0.34112579 1
5.4223323 3.0640595 1.4378871 76
5.7318101 3.2376239 -0.11490664 90
5.4016323 3.0498791 1.662136 86
2.9240432 1.6462687 -0.89913744 7
5.6985512 3.2070379 0.11413874 92
3.1709809 1.7838421 -0.83996725 5
5.6526852 3.178628 0.33986974 64
3.4738476 1.9534202 -0.77468461 4
2.6399672 1.4839048 0.26495346 85
3.8352473 2.1548839 -0.69675916 2
5.5731726 3.1300769 0.78483868 60
4.2876096 2.407078 -0.60374081 1
5.5331998 3.1050904 1.0049351 80
4.8528409 2.7232904 -0.48685199 1
5.4877982 3.0783496 1.2230858 82
5.632175 3.1580446 -0.33840433 1
5.4499922 3.0546453 1.4423862 82
5.7395887 3.2156403 -0.11483683 95
5.4139318 3.0319476 1.6626536 82
2.9145913 1.6275755 -0.89447862 7
5.7166948 3.1910267 0.11427836 97
3.1822941 1.7756102 -0.84131694 6
5.6742129 3.1647129 0.34049776 64
3.487504 1.9451065 -0.77621108 4
2.6416504 1.4727408 0.26460484 85
3.8565505 2.1491749 -0.69926214 2
5.5927362 3.1154323 0.78605735 61
4.2786407 2.3824401 -0.60130334 1
5.5474582 3.087677 1.0055609 75
4.8483911 2.698581 -0.48545748 1
5.5122356 3.0668089 1.2261386 82
5.6920376 3.1655469 -0.34133515 1
5.4640288 3.0374949 1.4432859 76
5.7455349 3.1926703 -0.11473212 38
5.4295478 3.0158463 1.6642065 84
2.9253244 1.6202005 -0.89603156 7
5.7277999 3.1710508 0.11427836 80
3.1816521 1.7607174 -0.8395173 6
5.6974568 3.1516581 0.34123048 73
3.4891171 1.9300723 -0.7750662 4
5.6631923 3.1314099 0.56616372 42
3.8432832 2.1242321 -0.69550771 2
5.6087875 3.0987749 0.78678852 60
4.2834568 2.3655701 -0.60081595 1
5.5668497 3.0730658 1.0071251 77
4.8822017 2.6951196 -0.48789781 1
5.5263433 3.0494499 1.2269019 82
5.7275372 3.1591618 -0.34280053 1
5.493371 3.0287516 1.4482349 80
5.7566423 3.1725991 -0.11473212 19
5.4434271 2.9987381 1.6652418 84
2.9208031 1.6043979 -0.89292574 7
5.721303 3.141417 0.11392931 20
3.1929042 1.7524126 -0.84086704 5
5.7276855 3.1423166 0.34238186 38
3.5113246 1.9263791 -0.7785008 4
5.6688461 3.1087525 0.56564075 99
3.8610673 2.1165016 -0.69738495 2
5.6282749 3.0839455 0.7880072 66
4.3265071 2.3696785 -0.60569072 1
5.5879383 3.0593078 1.0090024 77
4.9020648 2.6838031 -0.4889437 1
5.5352325 3.029197 1.2265203 84
5.7525487 3.1468167 -0.34363794 1
5.5175881 3.0170386 1.4518342 73
5.7852297 3.1620746 -0.11508117 19
5.4725108 2.9899061 1.6709359 82
2.9535286 1.6089799 -0.90120792 7
5.7568212 3.1348138 0.11441798 22
3.2075605 1.7459141 -0.84311652 6
5.7140579 3.1089418 0.34091645 15
3.5318236 1.9216177 -0.78155369 4
5.6954169 3.0975115 0.56720954 39
3.8649614 2.1011231 -0.69675916 2
5.6494708 3.0699685 0.78946966 73
4.3207984 2.3469806 -0.60374081 1
5.6176801 3.0501504 1.0124439 95
4.9359174 2.6799836 -0.49138409 1
5.5613017 3.0182865 1.2299548 82
