# .PCD v0.7 - Point Cloud Data file format
VERSION 0.7
FIELDS x y z intensity
SIZE 4 4 4 4
TYPE F F F F
COUNT 1 1 1 1
WIDTH 1433
HEIGHT 1
VIEWPOINT 0 0 0 1 0 0 0
POINTS 1433
DATA ascii
2.5315807 3.3607433 -0.66641092 1
3.6807432 4.8845096 0.75095892 10
2.7770281 3.6839051 -0.56644875 2
3.6346891 4.8198972 0.95612758 4
3.1220963 4.1386499 -0.4535585 1
3.6199689 4.7968931 1.1681327 26
3.5318954 4.6784868 -0.30721208 1
3.5963857 4.7639132 1.3780502 3
3.6394587 4.8192153 -0.10541254 2
3.6472189 4.8277392 1.6212426 1
1.9249767 2.540664 -0.85410291 9
3.6321609 4.7921386 0.10495877 7
2.0875177 2.7531981 -0.79767644 7
3.6125078 4.7627549 0.31328306 5
2.2962816 3.0263362 -0.73843086 7
3.5828519 4.7219443 0.51857668 6
2.5582128 3.3703246 -0.67016536 1
3.685415 4.8535962 0.74827784 3
2.8001182 3.6863475 -0.56839865 2
3.667866 4.8269906 0.96019489 2
3.1227746 4.1081457 -0.45146674 1
3.6494105 4.7992191 1.1719489 19
3.5490181 4.6655111 -0.30721208 1
3.615001 4.7522516 1.3785001 5
3.683737 4.8408537 -0.10618044 2
1.93662 2.5366631 -0.85513818 9
2.102329 2.7517209 -0.79947603 7
2.3104074 3.0229824 -0.73957568 7
2.55615 3.3420947 -0.66641092 1
3.7055912 4.8432102 0.74876529 3
2.8136098 3.6760602 -0.56839865 2
3.6738887 4.8000388 0.95737904 4
3.1564765 4.1225305 -0.45425573 1
3.6649461 4.7848935 1.1715673 19
3.6312122 4.7374206 1.3780502 3
1.9525293 2.5390756 -0.858244 9
2.1090655 2.7416456 -0.79857624 7
2.3209462 3.0148985 -0.73957568 7
2.5672178 3.3336 -0.66641092 1
3.7240534 4.8340411 0.7492528 1
2.8245738 3.6651368 -0.56815493 2
3.7002711 4.7996998 0.95988196 4
3.1635444 4.1020231 -0.45320985 1
3.6759963 4.7664962 1.1700408 24
3.5806954 4.6412439 -0.30721208 1
1.960938 2.5325871 -0.858244 9
2.1114607 2.7250245 -0.7958768 7
2.3321335 3.0087376 -0.73995733 6
2.639374 3.402662 -0.68205434 1
3.7628112 4.8492413 0.75364012 1
2.8288307 3.6442773 -0.56644875 2
3.7230599 4.7945561 0.96144634 2
3.1869066 4.1040978 -0.45460433 1
3.6938174 4.7551847 1.1704224 11
3.5968759 4.6287155 -0.30721208 1
1.9697659 2.5257273 -0.858244 9
2.1305523 2.7299271 -0.79947603 7
2.3377883 2.9943891 -0.73843086 6
2.6074545 3.3373892 -0.67079103 1
3.7846036 4.8423338 0.75461507 1
2.8500907 3.6453295 -0.56815493 2
3.7276046 4.7659702 0.95831764 2
3.2110338 4.1055026 -0.45599884 1
3.7019246 4.7314391 1.1677511 8
3.6130099 4.6161332 -0.30721208 1
1.9678305 2.5051625 -0.85358524 9
2.1376593 2.7194099 -0.79857624 7
2.3433733 2.9800367 -0.73690438 5
2.6313033 3.343791 -0.67391974 1
3.8211308 4.8540492 0.75851488 1
2.8664834 3.6400366 -0.56888616 2
3.7613311 4.7746544 0.9626978 2
3.1883566 4.0473175 -0.45076951 1
3.7281401 4.730823 1.170804 14
3.6291003 4.6034937 -0.30721208 1
1.98016 2.5028229 -0.85513818 9
3.7342038 4.7181582 0.10502858 2
2.1543963 2.7210989 -0.80127567 7
3.7176604 4.6938839 0.31380641 3
2.3635135 2.9841502 -0.73995733 6
3.6772413 4.641191 0.51805371 2
2.6135123 3.297431 -0.66641092 1
3.8380527 4.8406801 0.75851488 1
2.877938 3.6284542 -0.56864244 2
3.7632422 4.7429252 0.95894337 2
3.2148499 4.0517702 -0.45251262 1
3.7421913 4.714704 1.1700408 14
3.768137 4.7422915 -0.10572667 4
1.9888839 2.4958959 -0.85513818 9
3.7556376 4.7113485 0.10516821 2
2.1565924 2.7044199 -0.79857624 7
3.7630899 4.7190075 0.31631854 1
2.373915 2.9758823 -0.73995733 7
3.7046058 4.6423421 0.51962256 4
2.6028228 3.2605002 -0.66077924 1
2.8967817 3.6261396 -0.56986111 3
3.8085394 4.7674613 0.96645224 2
3.2314603 4.0436373 -0.45286122 1
3.753721 4.6954794 1.1685143 9
3.6611505 4.5780458 -0.30721208 1
2.0024214 2.4949644 -0.85720873 9
2.1582279 2.6881363 -0.7958768 7
2.3867483 2.970638 -0.74072057 5
2.6532207 3.3011222 -0.67079103 1
2.9050591 3.6118727 -0.56912988 2
3.817729 4.7449031 0.96457505 2
3.2530501 4.041646 -0.4539071 1
3.7791183 4.6952424 1.1715673 3
2.0155404 2.4943211 -0.85927927 9
2.1700494 2.6836164 -0.79677659 7
2.386708 2.9504962 -0.73766762 6
2.6299276 3.2488494 -0.66203076 1
2.9213953 3.6063392 -0.56986111 2
3.8185182 4.7138 0.96082056 2
3.2614186 4.0246434 -0.45320985 1
3.7967224 4.6835456 1.1719489 1
2.0108206 2.4707887 -0.85358524 9
2.1838577 2.682451 -0.79857624 7
2.399472 2.9451919 -0.73843086 6
2.6731331 3.2799234 -0.67016536 1
2.9157746 3.5750947 -0.56644875 2
3.8324533 4.6973805 0.96019489 2
3.2678895 4.0039721 -0.45216399 1
3.8159583 4.6754918 1.1730938 1
3.7704613 4.6181054 -0.3124457 1
2.0251243 2.4715791 -0.8561734 9
2.2006221 2.6838527 -0.80127567 7
2.4042444 2.9311473 -0.73690438 6
2.6595008 3.2400343 -0.663908 1
2.9395771 3.5786998 -0.56864244 2
3.8814344 4.7236543 0.96832943 2
3.2970254 4.011013 -0.45425573 1
3.8310058 4.6606293 1.1727122 4
2.0329392 2.4626505 -0.85565579 9
2.1988087 2.6626315 -0.79722655 6
2.4249787 2.9344208 -0.73995733 6
3.9137475 4.7342734 0.53740233 1
2.6638041 3.2211316 -0.66203076 1
2.9469907 3.5622976 -0.56766742 2
3.897898 4.7100773 0.96832943 2
3.3059254 3.9933403 -0.4535585 1
3.8355427 4.631433 1.168896 4
3.8586168 4.6559896 -0.10555216 4
2.0415239 2.4555387 -0.85565579 9
3.8526735 4.6323352 0.10516821 4
2.2122917 2.6590493 -0.79857624 7
3.8304272 4.6023226 0.31380641 5
2.4352052 2.92594 -0.73995733 6
3.8053186 4.5705276 0.52031976 6
2.6927297 3.2330642 -0.66641092 1
2.9727361 3.5667222 -0.57010484 2
3.9151366 4.6957583 0.96832943 2
3.3326044 3.9970775 -0.45530161 1
3.8604858 4.6285725 1.1715673 3
2.0538042 2.4528406 -0.85720873 9
2.2240636 2.6542976 -0.79947603 7
2.4403598 2.9114025 -0.73843086 5
2.7674739 3.2993171 -0.68205434 1
2.9672997 3.535038 -0.56669247 2
3.9315028 4.6820645 0.96832943 2
3.3452542 3.9838951 -0.45512727 1
3.881671 4.6210809 1.1730938 1
2.0598621 2.4427032 -0.8561734 9
2.2383435 2.6524746 -0.80127567 7
2.4479742 2.8998666 -0.73766762 6
2.6973901 3.1930594 -0.66203076 1
2.9949994 3.5428514 -0.56961739 2
3.346276 3.9569795 -0.45338416 1
3.9117243 4.623991 1.1772915 1
3.7867677 4.4746971 -0.30721208 1
2.068377 2.4354975 -0.8561734 9
2.24965 2.6480081 -0.80217546 7
2.4657123 2.9002779 -0.73995733 6
2.7258794 3.2051642 -0.66641092 1
3.014452 3.5419693 -0.57107979 2
3.9632816 4.6551948 0.96832943 2
3.3652346 3.9513426 -0.45408139 1
3.9270382 4.6109929 1.1772915 1
3.8015866 4.4621143 -0.30721208 1
2.0789523 2.4315624 -0.85720873 9
2.2512774 2.6312554 -0.79947603 7
2.4727626 2.8891027 -0.7391941 6
2.7370505 3.1956301 -0.66641092 1
3.0112958 3.5133379 -0.56815493 2
3.3938806 3.9583125 -0.45617315 1
3.9431086 4.5972576 1.1772915 1
2.0899482 2.4272189 -0.858244 9
2.2528169 2.6145225 -0.79677659 7
2.482832 2.8804541 -0.7391941 6
2.7868965 3.2309299 -0.67579699 1
3.03262 3.5133245 -0.56986111 2
3.3920527 3.9283445 -0.45408139 1
3.9591331 4.5834651 1.1772915 1
3.8326452 4.4354653 -0.30721208 1
3.9827464 4.6059246 -0.10628515 2
2.1034708 2.4257462 -0.86031455 9
3.9428036 4.5452828 0.10502858 4
2.2721467 2.618418 -0.80037582 7
3.9309382 4.5300069 0.3143298 3
2.495446 2.8747342 -0.73995733 6
3.9150929 4.5085664 0.52241153 4
2.7852025 3.20627 -0.67266828 1
3.029237 3.4847403 -0.56693625 2
3.4240472 3.9375293 -0.45652178 1
3.9751074 4.5696173 1.1772915 1
4.0085011 4.6047587 -0.1065644 2
2.1030312 2.4082029 -0.85669106 9
4.0367765 4.6225548 0.10712288 2
2.2859449 2.6167397 -0.80217546 7
3.9795845 4.553854 0.31694657 1
2.5054662 2.8660054 -0.73995733 7
3.9216251 4.4843755 0.52119136 4
2.7880166 3.1880949 -0.67079103 1
3.0407774 3.4746749 -0.56693625 2
3.4272707 3.9135611 -0.45512727 1
3.9902403 4.5564094 1.1772915 1
2.1097295 2.3997653 -0.8561734 9
2.2976403 2.61167 -0.80307525 7
2.5201442 2.8635769 -0.74148381 5
2.8121843 3.1931672 -0.67391974 1
3.0817616 3.4968038 -0.57229847 2
3.4481344 3.9111421 -0.45617315 1
4.0061221 4.5424523 1.1772915 1
3.9124691 4.4347053 -0.30993357 1
2.1283374 2.4039581 -0.86031455 9
2.2933686 2.5894473 -0.79857624 7
2.5301239 2.8547628 -0.74148381 6
2.8175173 3.177911 -0.67266828 1
3.0946574 3.4880507 -0.57254225 2
3.4538302 3.8901417 -0.45512727 1
4.0211625 4.5291433 1.1772915 1
3.9404159 4.4366407 -0.31098029 1
2.1294184 2.3874912 -0.85720873 9
2.3019962 2.579169 -0.79812634 7
2.5353394 2.8396132 -0.73995733 7
2.837595 3.1759081 -0.67454553 1
3.0921512 3.4583836 -0.56961739 2
3.4627512 3.8715172 -0.45443004 1
4.0385246 4.5136685 1.1772915 1
3.9094708 4.3679013 -0.30721208 1
2.1441946 2.3872294 -0.85979694 9
2.3196542 2.5816677 -0.80127567 7
2.5478621 2.8336649 -0.74072057 7
2.8454695 3.1635423 -0.67391974 1
3.1155541 3.4613903 -0.57181102 2
3.4869106 3.8712504 -0.45582449 1
4.0534668 4.5002546 1.1772915 1
3.9239328 4.3549142 -0.30721208 1
2.1469171 2.3743734 -0.85772634 7
4.1168361 4.5513997 0.10712288 2
2.3338799 2.5793364 -0.80307525 7
4.1147466 4.5458994 0.3213428 1
2.5598805 2.8281107 -0.74148381 6
4.0373034 4.458777 0.52624637 1
2.8432317 3.138952 -0.67079103 1
3.1382835 3.4622593 -0.57376093 2
3.4916987 3.8508112 -0.45477867 1
4.0825491 4.4961133 -0.10600592 2
2.1486895 2.3597224 -0.85513818 9
4.0788331 4.4778686 0.10572667 2
2.34812 2.5769348 -0.80487484 7
4.0471716 4.4399915 0.31485313 3
2.5710602 2.8206081 -0.7418654 7
4.0125685 4.4004908 0.52101701 6
2.8674843 3.1436014 -0.67391974 1
3.1369665 3.4366229 -0.57132351 2
3.5104938 3.8444836 -0.4554759 1
4.0216036 4.401134 -0.3124457 1
2.1621344 2.3579044 -0.85720873 9
2.34656 2.5572367 -0.80127567 7
2.5861988 2.8174031 -0.74339187 7
2.865078 3.1190248 -0.67079103 1
3.1570048 3.4344199 -0.57278597 3
3.5238931 3.8322053 -0.4554759 1
3.9693227 4.3135834 -0.30721208 1
2.1755948 2.3560195 -0.85927927 9
2.3550279 2.5494404 -0.80127567 7
2.590688 2.8025913 -0.7418654 7
2.8754046 3.1095071 -0.67079103 1
3.1616344 3.4166477 -0.57156724 2
3.523711 3.8052633 -0.45373279 1
3.9836044 4.3003974 -0.30721208 1
2.1860268 2.3516212 -0.86031455 9
2.3639123 2.5412049 -0.80127567 7
2.593281 2.7867978 -0.73995733 6
2.8943179 3.1081257 -0.67266828 1
3.1789541 3.4114003 -0.57254225 2
3.5498967 3.80813 -0.4554759 1
3.9985905 4.2864671 -0.30721208 1
2.1863005 2.3355148 -0.85720873 9
2.3754334 2.5357814 -0.80217546 7
2.6029923 2.777729 -0.73995733 6
2.9105551 3.1037664 -0.67391974 1
3.1989939 3.4089673 -0.57400465 2
3.5727124 3.8058844 -0.45669609 1
4.081903 4.3452668 -0.3124457 1
2.1944389 2.3278694 -0.85720873 9
2.3922935 2.5359797 -0.80487484 7
2.6194105 2.7757647 -0.7418654 7
2.9023836 3.0734818 -0.66953957 1
3.2136016 3.4006646 -0.57449216 2
3.5805004 3.7875996 -0.45599884 1
4.1656747 4.4035368 -0.31767929 1
4.1970401 4.4335923 -0.1065644 2
2.210531 2.3286018 -0.86031455 9
4.1819668 4.4037938 0.10600592 4
2.3877101 2.5134845 -0.80037582 7
4.1591425 4.3767028 0.31642324 3
2.6385486 2.7765682 -0.74453676 6
4.1195664 4.3335371 0.52310878 2
2.9321525 3.0833714 -0.67391974 1
3.217241 3.3807991 -0.5730297 2
3.5991955 3.7808495 -0.45669609 1
4.1121392 4.3166642 -0.3124457 1
2.2106373 2.3124924 -0.85720873 9
2.4045513 2.5135841 -0.80307525 7
2.6536546 2.7730141 -0.74606317 6
4.1732464 4.3594279 0.52798945 1
2.9319673 3.0617044 -0.67141682 1
3.230397 3.3709805 -0.57327342 2
3.5958252 3.7510042 -0.45460433 1
4.1271834 4.3022823 -0.3124457 1
2.2320945 2.3186789 -0.86238509 9
2.4133112 2.5051746 -0.80307525 7
2.6496959 2.7495968 -0.74224705 6
2.9426374 3.0514507 -0.67141682 1
3.2407637 3.3582573 -0.5730297 2
3.6255033 3.7556303 -0.45669609 1
4.0727901 4.2160292 -0.30721208 1
2.2321062 2.3025513 -0.85927927 10
2.4274695 2.5023296 -0.80487484 7
2.659277 2.7403312 -0.74224705 5
2.9532719 3.0411596 -0.67141682 1
3.2566173 3.3511946 -0.57376093 2
3.6247039 3.7286651 -0.45495299 1
2.2401307 2.2947452 -0.85927927 9
2.4334643 2.4910545 -0.80397505 7
2.6660829 2.7282231 -0.74148381 6
2.9555807 3.0223601 -0.66953957 1
3.2613544 3.3327117 -0.57254225 2
3.6404824 3.7188396 -0.45530161 1
4.172009 4.2588282 -0.3124457 1
2.2481253 2.2869132 -0.85927927 9
2.440779 2.4811554 -0.80352521 7
2.6893585 2.7328954 -0.74529999 6
2.9688859 3.0148394 -0.67016536 1
3.3008344 3.3495865 -0.57741702 2
3.6618342 3.7146215 -0.45634744 1
4.1868491 4.2442398 -0.3124457 1
4.3170671 4.3731852 -0.10726249 2
2.2669678 2.2900345 -0.86342037 9
4.2929754 4.3351388 0.10649458 4
2.4507957 2.4740052 -0.80397505 7
4.2625422 4.3014073 0.31736526 1
2.6961184 2.7207012 -0.74453676 6
4.2627196 4.3000808 0.52973258 1
2.9793909 3.0044582 -0.67016536 1
3.2887366 3.3140891 -0.57327342 3
3.6747777 3.7018173 -0.45634744 1
4.1847486 4.2125945 -0.31118962 1
4.3971539 4.4233289 -0.10886811 2
2.2804039 2.2875795 -0.86549091 9
2.4594173 2.4654346 -0.80397505 7
4.3219218 4.3324957 0.32071477 1
2.6972792 2.7029347 -0.74224705 6
4.2495503 4.2569742 0.52624637 5
2.9731107 2.9772656 -0.66641092 1
3.2988811 3.3011856 -0.5730297 2
3.6904953 3.6917846 -0.45669609 1
4.2163773 4.2149067 -0.3124457 1
2.2746882 2.2659719 -0.86031455 9
2.4648173 2.4545157 -0.80307525 7
2.7150469 2.7018125 -0.74453676 6
2.9829669 2.9673905 -0.66641092 1
3.3182561 3.2986257 -0.57449216 2
3.7005336 3.6760705 -0.45634744 1
4.2104897 4.1812 -0.31098029 1
2.2821906 2.2584157 -0.86031455 9
2.4816847 2.4541178 -0.80577469 7
2.7225957 2.6914132 -0.74415511 7
3.0101717 2.9736185 -0.67016536 1
3.3354018 3.2925999 -0.57546705 3
3.715539 3.6665785 -0.45669609 1
4.3160748 4.2562284 -0.31767929 1
2.2955713 2.2558525 -0.86238509 9
2.4818928 2.4372482 -0.80307525 7
2.7417808 2.6915212 -0.74682647 6
3.0205324 2.9630935 -0.67016536 1
3.3412056 3.2753778 -0.57449216 2
3.7226224 3.6480098 -0.45599884 1
11.198575 10.970291 3.04722 5
4.2938051 4.204803 -0.3149578 1
2.3089616 2.2532232 -0.86445564 9
2.4931765 2.4312901 -0.80397505 7
2.7455354 2.6764531 -0.74529999 6
3.0846267 3.00491 -0.68205434 1
3.3526177 3.2636957 -0.57449216 2
3.7267673 3.6266549 -0.45495299 1
4.3456836 4.2259927 -0.31767929 1
4.4815297 4.3550549 -0.10907754 2
2.3140385 2.24246 -0.86342037 9
4.4510217 4.3118348 0.10817002 2
2.5016475 2.4225731 -0.80397505 7
4.4284463 4.2869701 0.32301757 1
2.7520409 2.6641212 -0.74453676 6
4.464211 4.3200836 0.54350317 1
3.0610218 2.9611621 -0.67454553 1
4.4550714 4.308229 0.76095223 3
3.3668439 3.2547333 -0.57497966 2
3.7766542 3.6496227 -0.45948508 1
4.2885742 4.1414261 -0.3124457 1
4.3673615 4.2160416 1.4014452 7
4.4434624 4.2880073 -0.10778606 4
2.3162849 2.2290101 -0.86134982 9
4.4314575 4.2630005 0.1073323 4
2.5269451 2.4300346 -0.80937392 7
4.3944292 4.2244234 0.31945869 3
2.7669854 2.6599402 -0.74606317 6
4.3341684 4.1650429 0.52589774 4
3.062793 2.9422474 -0.67266828 1
4.4557652 4.2789006 0.75851488 1
3.3839121 3.2484605 -0.57595456 2
3.7663708 3.6143439 -0.45669609 1
4.4160466 4.2363157 1.1895033 107
4.4096756 4.2287307 -0.32019141 1
4.4685106 4.2821541 -0.10803039 6
4.3525028 4.1695318 1.6150309 45
2.3212576 2.2182422 -0.86031455 9
4.4405279 4.2419786 0.10719268 7
2.5269554 2.4131246 -0.80667448 7
4.4337072 4.2325044 0.32123813 5
2.777673 2.6516213 -0.74644482 7
4.3904819 4.1897764 0.53095281 5
3.0816214 2.9397187 -0.67454553 1
4.3701124 4.1674242 0.74145311 3
3.402415 3.2434759 -0.57717323 2
4.4531355 4.2436261 0.97427392 26
3.7847347 3.606672 -0.45739332 1
4.422277 4.2127514 1.1872137 100
4.4244113 4.2133112 -0.32019141 1
4.4877758 4.2706666 -0.1081351 4
2.3345926 2.2154448 -0.86238509 9
4.4611106 4.2319589 0.1073323 7
2.5297067 2.3989258 -0.80487484 7
4.4506159 4.2205276 0.32144746 5
2.7854879 2.6405582 -0.74606317 6
4.4094181 4.1785378 0.53147572 8
3.0717852 2.9099269 -0.67016536 1
4.3731027 4.1412234 0.73950326 8
3.4079509 3.2261198 -0.57619828 2
4.3409424 4.1093321 0.94674152 7
3.8059816 3.6016583 -0.4584392 1
4.3520226 4.1155028 -0.31391108 1
4.3574576 4.119206 1.3843488 14
4.5048189 4.2585096 -0.10820492 4
4.302156 4.0655022 1.5860431 3
2.3451219 2.2099333 -0.86342037 9
4.4954934 4.2363434 0.10782097 4
2.5404856 2.3931959 -0.80577469 7
4.4507823 4.1912727 0.32040074 5
2.7975457 2.633512 -0.74682647 6
4.4225268 4.1617532 0.53130138 6
3.081419 2.8997235 -0.67016536 1
4.3839188 4.1239796 0.73901576 8
3.425859 3.2216032 -0.57741702 2
4.3581381 4.0968609 0.94736725 7
3.8272431 3.5965359 -0.45948508 1
4.3220887 4.0615525 1.152868 11
4.345264 4.0819063 -0.3124457 1
4.28444 4.0233579 1.3569047 10
4.2712426 4.0081563 1.5694788 8
2.3580794 2.2074246 -0.86549091 9
2.554517 2.3896377 -0.80757427 7
2.803396 2.6215379 -0.74606317 7
4.4654121 4.1742778 0.5347876 1
3.094409 2.8916464 -0.67079103 1
4.4156942 4.1249142 0.74194062 5
3.4486914 3.2204628 -0.57936692 2
4.3680811 4.0775785 0.9464286 9
3.847888 3.5919812 -0.46053094 1
4.3362393 4.046442 1.152868 9
4.4325099 4.1348319 -0.31767929 1
4.3055854 4.0150218 1.3591542 8
4.2852049 3.9932258 1.5694788 8
2.3572814 2.1912878 -0.86238509 9
2.5685523 2.3860133 -0.80937392 7
2.8154078 2.6144075 -0.74682647 7
3.1276498 2.9023278 -0.67579699 1
4.5785122 4.2471766 0.76680195 1
3.4555459 3.2043548 -0.57863569 2
4.5387435 4.2073436 0.98021847 2
3.8370221 3.5568588 -0.45774195 1
4.3935394 4.071312 1.1643165 3
4.4469175 4.1193333 -0.31767929 1
4.3395891 4.018508 1.3654529 8
4.5594397 4.2206101 -0.10844925 2
4.2906122 3.9703698 1.566373 8
2.3677545 2.185667 -0.86342037 9
4.5278535 4.1781845 0.10754173 2
2.5740011 2.3743894 -0.80847406 7
4.4988341 4.1484957 0.32071477 1
2.8259606 2.6058939 -0.74720806 7
4.4402428 4.0930371 0.52833807 2
3.1464782 2.8994234 -0.67767417 1
4.625432 4.260756 0.77216423 1
3.4608684 3.1868951 -0.57766074 2
4.5824709 4.2182302 0.98647583 2
3.8494153 3.5434422 -0.45774195 1
4.5218549 4.1609712 1.1944643 1
4.4318695 4.0767431 -0.31558585 1
4.4438477 4.083468 1.6171014 1
2.3753691 2.1773891 -0.86342037 9
2.5793993 2.3627579 -0.80757427 7
2.8364856 2.5973418 -0.74758971 6
4.488306 4.1084533 0.53234726 1
3.1769824 2.9070928 -0.68205434 1
4.6549211 4.2579861 0.77460164 1
3.4851573 3.1868505 -0.57985443 2
3.8764675 3.5434251 -0.45948508 1
4.5682364 4.1742983 1.20286 1
4.4165816 4.034307 -0.31349242 1
4.5037403 4.1095986 1.6336659 1
2.3943849 2.179487 -0.86756152 9
2.5876317 2.353739 -0.80757427 7
2.8513458 2.5927069 -0.74911612 6
3.1432521 2.8561316 -0.67266828 1
4.6697569 4.2417097 0.77460164 1
3.4800932 3.159987 -0.57717323 2
3.8976636 3.5379074 -0.46053094 1
4.4454298 4.0322852 -0.31453913 1
4.5545583 4.1283746 1.6471245 1
2.3962448 2.1659346 -0.86549091 9
2.6040978 2.3529844 -0.81027371 7
2.8458066 2.5695817 -0.74529999 7
3.1585722 2.8509855 -0.67391974 1
4.7486463 4.2847123 0.78532612 1
3.4964485 3.1537485 -0.57814825 2
3.9099903 3.5242796 -0.46053094 1
4.5032892 4.0576305 -0.31767929 1
2.397665 2.1528132 -0.86342037 9
2.6064942 2.3386738 -0.80847406 7
2.8601587 2.5653729 -0.74682647 7
3.17733 2.8478541 -0.67579699 1
4.7783575 4.2813582 0.78776348 1
3.5207448 3.1534431 -0.58034182 2
3.9216549 3.5112951 -0.46053094 1
4.4787273 4.0072594 -0.3149578 1
2.402281 2.1418598 -0.86238509 9
2.6204615 2.3347473 -0.81027371 7
2.8808255 2.565819 -0.74987942 6
3.2167628 2.863013 -0.68205434 1
4.8259015 4.2936807 0.79312575 1
3.5332155 3.1424527 -0.5805856 2
3.9338872 3.4975853 -0.46053094 1
4.5315089 4.0260906 -0.31767929 1
4.6550827 4.1329751 -0.10865869 2
2.4184206 2.1411452 -0.86549091 9
4.631619 4.0991521 0.10796059 2
2.6227577 2.32042 -0.80847406 7
4.5929928 4.0621123 0.3213428 1
2.886821 2.5531483 -0.74911612 7
4.5810113 4.0500865 0.53496194 1
3.1734519 2.8046727 -0.67079103 1
4.8646598 4.2978415 0.79702556 1
3.5396991 3.126159 -0.57985443 2
3.955035 3.4917431 -0.46157682 1
4.5455341 4.0102491 -0.31767929 1
2.4316843 2.1377921 -0.86756152 9
2.633769 2.3138237 -0.80937392 7
2.9001417 2.5469415 -0.75026101 7
4.5771546 4.0182967 0.53287023 1
3.1921306 2.8013968 -0.67266828 1
4.891571 4.2913055 0.79897547 1
3.540143 3.1046209 -0.57814825 2
3.9821801 3.491051 -0.46331993 1
4.52946 3.9680347 -0.31558585 1
2.4478641 2.1369128 -0.87066728 9
2.6447673 2.3071775 -0.81027371 7
2.9016171 2.53035 -0.74835294 7
3.1989119 2.7876403 -0.67204249 1
4.9184966 4.2846351 0.80092543 1
3.5629325 3.1026762 -0.58009815 2
4.0183868 3.4980588 -0.46610889 1
10.678099 9.2921505 2.751466 2
4.6125979 4.0125022 -0.32040074 1
2.4377909 2.1131713 -0.86445564 9
2.6645892 2.3081381 -0.81387293 7
2.9148839 2.5240622 -0.74949777 7
3.2175865 2.7842116 -0.67391974 1
4.9484358 4.2804279 0.80336279 1
3.5752437 3.0915174 -0.58034182 2
3.9943984 3.4527397 -0.46192542 1
4.6416912 4.0094309 -0.32144746 1
2.4510095 2.1096892 -0.86652619 9
2.6696732 2.2962832 -0.81297308 7
2.922189 2.5125914 -0.74911612 6
3.2182941 2.7652414 -0.67204249 1
4.987442 4.2838221 0.8072626 1
3.5995691 3.0906565 -0.58253551 2
4.9952488 4.2890129 1.0427923 25
3.994329 3.4283972 -0.46053094 1
4.964592 4.2596812 1.2715513 36
4.6405001 3.9801998 -0.32040074 1
2.4554203 2.0986123 -0.86549091 9
2.6698658 2.2810874 -0.8107236 7
2.9428847 2.5125759 -0.75216907 5
3.2274468 2.7545531 -0.67204249 1
5.0167208 4.2801452 0.80970001 1
3.587142 3.059381 -0.57887942 2
5.0192084 4.2792411 1.0446695 5
4.0275021 3.4325256 -0.4629713 1
4.6141462 3.9311113 -0.31767929 1
4.9596715 4.223999 1.5040227 14
4.758182 4.0509644 -0.10907754 2
4.9225659 4.1894302 1.7320172 30
2.475621 2.1017101 -0.87014967 9
4.746243 4.0279589 0.10865869 2
2.6807849 2.2742748 -0.81162345 7
4.7129226 3.9968517 0.32385492 1
2.9497039 2.5015326 -0.75178748 7
3.2280016 2.7356069 -0.67016536 1
5.0679808 4.2934031 0.81554973 1
3.6068878 3.054539 -0.58034182 2
5.0431623 4.269351 1.0465467 2
4.0631943 3.4397471 -0.46576029 1
4.6278372 3.9149842 -0.31767929 1
4.9490914 4.1852684 1.4963745 4
4.9312553 4.1672378 1.7299466 8
2.4785116 2.0893197 -0.86859673 9
2.6931779 2.2686701 -0.81297308 7
2.9434011 2.478574 -0.7479713 5
4.6840057 3.9429026 0.53565919 2
3.2647362 2.7472165 -0.67579699 1
10.007889 8.4184742 1.6057506 2
3.6175289 3.0419292 -0.58034182 2
4.0873766 3.4357998 -0.46715477 1
5.012701 4.2121234 1.2726961 2
4.6414757 3.8988049 -0.31767929 1
4.9428129 4.1475139 1.7289113 4
2.4813459 2.0769348 -0.86704385 9
2.7070594 2.2642572 -0.81477273 7
2.965591 2.4796178 -0.75140589 6
3.2652099 2.7282047 -0.67391974 1
9.9153309 8.2816839 1.5862515 2
3.6433623 3.0420065 -0.58277923 2
9.994091 8.3445148 2.0621192 5
4.090167 3.4138522 -0.46610889 1
9.9296293 8.2848043 2.5137179 2
4.7102728 3.9286344 -0.32144746 1
5.00106 4.1682043 1.7444404 2
2.4930375 2.0719655 -0.86859673 9
2.7235472 2.2627389 -0.8174721 6
2.9742279 2.4692516 -0.75140589 6
3.2620795 2.707269 -0.67141682 1
9.8205166 8.1473608 1.5667524 2
3.6519032 3.02864 -0.58253551 2
4.0959229 3.3944676 -0.46541166 1
9.8089075 8.1290636 2.4763193 2
4.7078958 3.90025 -0.32040074 1
9.7632627 8.0797462 3.3957062 1
2.4984043 2.0624576 -0.86807907 9
2.7118862 2.2370977 -0.81162345 7
2.9854286 2.4618738 -0.75216907 5
3.262362 2.688329 -0.66953957 1
9.72019 8.0070133 1.5462784 2
3.6578548 3.0120888 -0.58180428 2
9.7456789 8.0251551 1.9995456 5
4.119463 3.3909974 -0.46680617 1
9.6886549 7.9725256 2.4389207 1
4.7214808 3.8837936 -0.32040074 1
9.7064276 7.9786305 3.3667183 1
2.5190358 2.0647449 -0.87273788 9
2.7192893 2.2280929 -0.81162345 6
2.9970427 2.4539244 -0.75293231 5
3.2819591 2.6862545 -0.67172968 2
9.589982 7.8465142 1.521417 2
3.67397 3.0049684 -0.58277923 2
4.0973363 3.3488567 -0.4629713 1
9.5843124 7.8335009 2.4061015 1
4.7188683 3.8554769 -0.31935403 1
4.8638315 3.9710867 -0.10960111 2
9.566597 7.8078885 3.3087428 3
2.521374 2.0527217 -0.87118495 7
4.8374929 3.9369357 0.10886811 2
2.7376325 2.2271955 -0.81477273 6
4.8276367 3.9275143 0.32615772 1
3.0021172 2.4414954 -0.75216907 5
3.2943826 2.6772728 -0.67235541 2
9.524868 7.7378926 1.5067927 2
3.6844363 2.9921262 -0.58277923 2
4.1548238 3.3729241 -0.46820062 1
9.4926939 7.7035003 2.3763354 1
4.7850327 3.8817637 -0.32291287 1
9.4723816 7.6787953 3.2673318 3
2.5315282 2.0463374 -0.87222022 7
2.7480352 2.2205536 -0.81567252 7
4.8599629 3.9256976 0.3274138 1
3.0106206 2.4310019 -0.75216907 5
4.7673116 3.8481083 0.53600776 2
3.3216884 2.6812215 -0.67610979 3
4.9621696 4.0039649 0.78288871 1
3.6974282 2.9823854 -0.58326674 2
4.17588 3.3659015 -0.46924651 1
9.3928461 7.5709534 2.3450427 1
4.7978783 3.8658755 -0.32291287 1
9.3606701 7.5342517 3.2197092 3
2.5296171 2.0302324 -0.8691144 7
2.7667966 2.2190018 -0.81882185 6
3.0313427 2.4303017 -0.75522202 5
3.3129928 2.6542082 -0.67235541 2
4.8915911 3.9175026 0.76948309 3
3.7067869 2.9675703 -0.58302301 2
4.879807 3.9052703 0.9899174 4
4.1782699 3.3438358 -0.46820062 1
4.8612695 3.8890433 1.2101108 1
4.8120179 3.8482611 -0.32291287 1
9.2795525 7.4130702 3.1824391 1
2.5366879 2.0213907 -0.8691144 7
2.7562325 2.1947625 -0.81342304 6
3.0459511 2.4245968 -0.7567485 5
3.3284223 2.6475456 -0.67360687 3
4.9067888 3.9016409 0.76972687 3
3.7186749 2.9558508 -0.58326674 2
4.8872237 3.883296 0.98866594 4
4.2055163 3.3416238 -0.46994376 1
4.8363814 3.8415246 1.2005702 3
4.7847509 3.7991529 -0.32019141 1
4.8161483 3.8199732 1.6471245 1
2.5573642 2.0233104 -0.87377316 9
2.76999 2.1899645 -0.81522262 6
3.0482357 2.4090796 -0.75522202 6
3.3500435 2.6457078 -0.67610979 3
4.9951668 3.9435298 0.78142631 1
3.722738 2.9379323 -0.58229178 2
4.9124789 3.8768589 0.99116892 4
4.1921253 3.3071823 -0.46715477 1
4.8559289 3.8294804 1.2020967 3
4.8199434 3.7997375 -0.32165682 1
4.8105798 3.7896345 1.6409128 3
2.5689695 2.0179508 -0.87532604 7
2.789499 2.1903942 -0.81882185 7
3.0519934 2.394788 -0.7540772 3
3.357245 2.6333642 -0.67579699 3
5.2862759 4.1449723 0.82481176 1
3.737148 2.9292438 -0.58302301 2
5.272728 4.1313782 1.0609387 22
4.2130561 3.2998991 -0.46820062 1
4.9319696 3.8629923 1.2177432 1
4.8293729 3.7812691 -0.32144746 1
4.9862008 3.9012587 -0.11050864 2
4.8207364 3.7704375 1.6398776 3
2.5665066 2.0022926 -0.87222022 7
4.9655161 3.8725162 0.10991526 2
2.7971287 2.1806428 -0.81882185 6
4.9277349 3.840282 0.3274138 1
3.0614662 2.3858614 -0.75445884 5
3.3788857 2.6313381 -0.67829996 3
5.2756515 4.1069827 0.820912 1
3.7567477 2.9234982 -0.58448541 2
5.2933545 4.1177974 1.0621902 2
4.2239766 3.2859089 -0.46820062 1
5.2677841 4.0964303 1.2971196 25
4.8646159 3.7815526 -0.32291287 1
5.2348747 4.0679073 1.5305669 48
4.9132118 3.8152003 1.6667948 3
2.5765352 1.9956868 -0.87325549 7
2.8093462 2.1744447 -0.82017154 7
3.0713279 2.3763626 -0.75484043 5
4.8682637 3.7653384 0.53844815 1
3.372422 2.6074452 -0.6751712 3
5.3088021 4.1031103 0.8238368 1
3.7857804 2.9249296 -0.58741027 2
4.2448826 3.2784505 -0.46924651 1
5.3379946 4.1212101 1.3108579 2
4.8588138 3.7499049 -0.32165682 1
5.2080121 4.0150576 1.76204 19
2.5834866 1.9866802 -0.87325549 7
2.8061023 2.1563139 -0.81702226 6
3.0936172 2.3763902 -0.75827497 5
3.3721011 2.5884414 -0.67329407 3
5.2821465 4.053133 0.81749964 1
3.7723405 2.8935754 -0.58375424 1
4.2626243 3.2684631 -0.46994376 1
4.8718734 3.7329223 -0.32165682 1
2.5965474 1.9823397 -0.87532604 9
2.8147871 2.1481781 -0.8174721 6
3.1065762 2.369149 -0.75941986 5
6.9986095 5.3353753 0.76993382 1
3.393234 2.5868247 -0.67579699 3
5.3208194 4.0548472 0.82139945 1
3.7850745 2.8834548 -0.58424169 2
4.3041282 3.2764943 -0.47325566 1
4.9032989 3.7312582 -0.32291287 1
2.5938699 1.9667158 -0.87222022 7
2.833142 2.1465769 -0.82062149 6
3.1050248 2.3517227 -0.75713015 5
7.016263 5.312139 0.76993382 1
3.4022439 2.5749633 -0.67579699 3
5.3064451 4.0146923 0.81701219 1
3.7998669 2.873816 -0.58497292 2
4.3181491 3.2646053 -0.47360432 1
4.9386053 3.7309737 -0.32437828 1
2.6007197 1.9576489 -0.87222022 7
2.8390598 2.1355035 -0.82017154 6
3.1147847 2.3420489 -0.75751179 6
7.0347643 5.2876134 0.76993382 1
3.4301622 2.577312 -0.67955142 3
5.3712192 4.0342922 0.82481176 1
3.8193991 2.8676867 -0.58643532 2
4.3008351 3.2279851 -0.4704667 1
4.9292288 3.6969359 -0.32291287 1
5.0917497 3.8160512 -0.11106712 2
2.6137271 1.9531851 -0.87429082 7
5.0576859 3.7781301 0.11019449 2
2.8543048 2.1314094 -0.82242107 6
5.0192299 3.7466743 0.32825115 1
3.1292336 2.33586 -0.75903821 5
3.4391387 2.5653217 -0.67955142 3
3.8230193 2.8495924 -0.58546036 2
4.3350081 3.2288609 -0.47290704 1
4.9421024 3.6797082 -0.32291287 1
2.6239724 1.9458928 -0.87532604 7
2.8476365 2.1109903 -0.81837195 6
3.1346195 2.3220375 -0.75827497 5
4.9876809 3.6933885 0.54298031 1
3.4469292 2.5515246 -0.6792385 2
3.8536882 2.8515797 -0.58862901 2
4.3206196 3.1947575 -0.47011805 1
5.035872 3.7209158 -0.32814649 1
2.6400826 1.9435939 -0.87843186 7
2.866344 2.1086202 -0.82152128 6
3.152195 2.3180606 -0.76056474 5
3.4701421 2.550004 -0.68205434 3
3.8497128 2.8268621 -0.58643532 2
4.3574438 3.1985183 -0.47290704 1
5.006959 3.6726003 -0.32542503 1
2.6468515 1.9343659 -0.87843186 9
2.8733203 2.0991042 -0.82152128 7
3.150754 2.300097 -0.75827497 6
7.1088114 5.1876359 0.76993382 1
3.4642172 2.528003 -0.6792385 3
3.8670862 2.8199275 -0.58765399 2
4.3814621 3.1926785 -0.47430155 1
5.0029674 3.6442153 -0.32437828 1
2.646997 1.9210396 -0.87636131 7
2.8837848 2.0913503 -0.82242107 6
3.1710799 2.2988553 -0.76132792 5
7.1840558 5.2061205 0.776209 1
3.490617 2.5286436 -0.68268013 3
3.8833389 2.8110671 -0.58862901 2
4.3791132 3.1687858 -0.47290704 1
5.0318432 3.6384313 -0.32542503 1
5.159194 3.7277784 -0.11110201 2
2.6536863 1.9117888 -0.87636131 7
2.9005573 2.0881019 -0.82512045 6
3.1790845 2.2877727 -0.76132792 6
3.4833856 2.5049102 -0.67955142 3
3.8963499 2.7998137 -0.58911645 1
4.3901486 3.1534796 -0.47290704 1
5.0445104 3.6208482 -0.32542503 1
2.6697721 1.909256 -0.87946719 7
5.1747432 3.6992912 0.11103221 2
2.8998995 2.0723011 -0.82287097 7
5.1160965 3.6546686 0.32950723 1
3.1966367 2.2835078 -0.76361769 5
3.5017543 2.4996226 -0.68142867 5
3.8980198 2.7804313 -0.58789778 2
4.407618 3.1427639 -0.47360432 1
5.9472146 4.238977 1.4196191 5
5.0994115 3.6333489 -0.32814649 1
2.6795719 1.902161 -0.88050246 7
2.9087052 2.0632925 -0.82332087 7
3.2109945 2.2768772 -0.76514411 5
5.1055717 3.6189632 0.54751235 1
3.5088458 2.4862423 -0.68111575 3
3.9093208 2.7679555 -0.5881415 2
4.4413285 3.1434746 -0.47604465 1
5.1120625 3.6155279 -0.32814649 1
2.6830363 1.8905709 -0.87946719 7
2.9158905 2.0531259 -0.82332087 6
3.2060785 2.2566154 -0.76209116 5
3.5336611 2.4853423 -0.68424439 3
5.3199077 3.7402818 0.79848802 1
3.9157114 2.7520084 -0.58765399 1
5.3252268 3.7426326 1.0309032 2
4.429451 3.1119163 -0.47360432 1
5.1246529 3.5976598 -0.32814649 1
2.6801205 1.8745508 -0.87636131 7
2.9386532 2.0546122 -0.82781988 6
3.2107172 2.2431624 -0.76132792 5
3.538645 2.4713473 -0.68361872 3
5.322515 3.7158029 0.79702556 1
3.9362106 2.7469616 -0.58936024 2
5.2734556 3.678812 1.0183885 2
4.4402862 3.0964365 -0.47360432 1
5.2449503 3.6575696 1.2429299 1
5.1365542 3.580647 -0.32814649 1
2.6990166 1.8744681 -0.88050246 7
2.9458079 2.0443411 -0.82781988 6
3.2245908 2.2369781 -0.7628544 5
3.5391328 2.4533541 -0.68205434 3
5.3615599 3.7152898 0.80092543 1
3.9604611 2.7433789 -0.59155381 2
5.2797675 3.6558847 1.0171371 2
4.4701872 3.0953045 -0.47569603 1
5.256073 3.6381204 1.2425482 1
5.1490226 3.5626941 -0.32814649 1
5.2683969 3.6425726 -0.11180011 2
5.1776772 3.5785134 1.6864649 2
2.7055428 1.865036 -0.88050246 7
5.2774053 3.6365623 0.11186992 2
2.9497161 2.0318356 -0.82692009 6
3.2323792 2.2257094 -0.7628544 5
3.5590658 2.4488239 -0.68424439 3
5.4987988 3.7820482 0.81944954 1
3.9749212 2.7329106 -0.59228504 2
5.3543591 3.6799507 1.029026 2
4.4612603 3.0661407 -0.47360432 1
5.2849212 3.6308696 1.2463645 1
5.1614265 3.5446999 -0.32814649 1
5.4129825 3.7146804 -0.11459251 2
5.2060666 3.5713472 1.6916413 4
2.7152255 1.8577615 -0.88153768 7
5.3362837 3.6497262 0.11284725 2
2.9551814 2.0204277 -0.8264702 6
5.2403622 3.5814369 0.33264738 1
3.246613 2.2188427 -0.76438087 5
5.236434 3.5774121 0.55483341 1
3.5839043 2.4475265 -0.6873731 3
5.5185266 3.7673063 0.8204245 1
3.9729598 2.7111852 -0.59057891 1
5.5564661 3.7903676 1.0653188 2
4.5180202 3.0819874 -0.47848502 1
5.3283825 3.6334133 1.2536151 2
5.1737695 3.5266604 -0.32814649 1
5.4259171 3.6957617 -0.11459251 2
5.2344704 3.564024 1.6968178 4
2.7280865 1.8526142 -0.88360828 7
5.4085522 3.6715107 0.11410383 2
2.9654417 2.0122874 -0.82736999 7
5.3850603 3.6528184 0.34102112 1
3.2462142 2.2019868 -0.76247281 5
5.2060142 3.5300407 0.55030131 1
3.5760751 2.4239171 -0.68424439 3
5.5020614 3.7279782 0.81603718 1
3.9971912 2.7073202 -0.59277254 2
5.5075059 3.7288632 1.0534298 2
4.5155535 3.0572608 -0.47709054 1
5.5101256 3.7292311 1.2933035 2
5.2356749 3.542155 -0.33128664 1
5.3393865 3.6096005 -0.11249821 2
5.2820926 3.5695288 1.7082058 4
2.7297304 1.8398415 -0.88205534 9
5.3616333 3.6123831 0.11284725 2
2.9789126 2.0062788 -0.82916957 6
5.3480744 3.600538 0.33788097 1
3.2522516 2.1895461 -0.76209116 5
5.3703752 3.614186 0.566338 1
3.6058221 2.4257526 -0.6883117 3
5.3733754 3.6134844 0.79507565 1
3.9983802 2.6878126 -0.59155381 2
5.4450688 3.6589336 1.0390378 2
4.5261984 3.0414786 -0.47709054 1
5.439992 3.6541479 1.2738409 2
5.2645898 3.5349901 -0.33233336 1
5.3486304 3.5887163 -0.1124284 2
5.435708 3.6457627 1.753758 4
2.7377419 1.831375 -0.88257295 7
5.3442864 3.5736413 0.11221898 5
2.9875183 1.9969505 -0.82961947 6
5.3141127 3.5507772 0.33495015 3
3.2696698 2.1847239 -0.76438087 5
5.2669797 3.5179582 0.55413622 1
3.5929098 2.3988924 -0.68424439 2
5.303401 3.5396049 0.78288871 1
4.0242496 2.684859 -0.59399122 2
5.2507358 3.501806 0.99961638 2
4.536787 3.0256615 -0.47709054 1
5.2958961 3.5305893 1.2372056 1
5.2104173 3.4722865 -0.32814649 1
5.4110584 3.6032732 -0.11347555 2
5.4098067 3.6010735 1.7413346 4
2.7505555 1.8260821 -0.88464355 7
5.3533974 3.5527515 0.11214916 2
2.9847279 1.9800454 -0.82692009 6
5.3291879 3.5353422 0.33515951 3
3.2870927 2.1798079 -0.76667058 5
5.290853 3.5072558 0.55535638 4
3.6177292 2.3972468 -0.6873731 2
5.2462153 3.4750304 0.77265167 1
4.0298219 2.6693058 -0.59350377 1
5.2623186 3.484376 0.99961638 2
4.5838728 3.0339985 -0.48092538 1
5.2754412 3.490417 1.2295732 1
5.2225037 3.4540815 -0.32814649 1
5.3779402 3.555532 -0.11253312 26
5.3153448 3.5128188 1.7071705 2
2.7533698 1.8148252 -0.88360828 7
5.343442 3.5206749 0.1116954 9
3.0042968 1.9787126 -0.83051926 6
5.3141937 3.5000741 0.33348474 1
3.2975824 2.1710556 -0.76743382 5
5.3007913 3.4885948 0.5551821 4
3.6223578 2.3830662 -0.68674743 2
5.2477574 3.4510708 0.77118921 3
4.0353332 2.6537468 -0.59301627 1
5.2342296 3.4408627 0.99210751 2
4.5805879 3.0100288 -0.4795309 1
5.1983776 3.4146998 1.2089659 1
5.2339301 3.4367425 -0.32814649 1
5.3629522 3.5201228 -0.11197464 47
5.2365117 3.4358261 1.6781827 1
2.772305 1.8141463 -0.88774931 7
5.3433723 3.4952748 0.11145107 33
3.0124736 1.9698046 -0.83096921 6
5.3247066 3.4804111 0.33338007 15
3.2965472 2.1547365 -0.7655257 5
5.2956505 3.4601002 0.55343896 3
3.6401644 2.377521 -0.68862462 2
5.282445 3.4488418 0.77460164 8
4.0478978 2.641814 -0.59350377 1
5.2412462 3.4193313 0.99116892 4
4.5771956 2.9861119 -0.47813639 1
5.2113175 3.3985133 1.2093475 3
5.2887988 3.4477267 -0.33086795 1
5.3634772 3.493742 -0.11173031 78
5.1772428 3.3711431 1.6554067 1
2.7624192 1.7939355 -0.88257295 7
5.3505082 3.473336 0.11134635 78
3.0209644 1.96034 -0.83141905 6
5.3183918 3.449846 0.33222869 61
3.3056965 2.144284 -0.76590741 5
5.2993369 3.4361751 0.55256736 33
3.6418092 2.3605049 -0.6873731 2
5.2961183 3.4314597 0.77484536 17
4.0537629 2.6255085 -0.59301627 2
5.2498312 3.3988717 0.99054313 7
4.6043139 2.9809475 -0.4798795 1
5.2297425 3.384567 1.210874 7
5.2572021 3.4010365 -0.32814649 1
5.1906142 3.3566773 1.4270895 1
5.3873968 3.4825966 -0.11197464 80
5.1403027 3.3215947 1.6398776 3
2.7849023 1.7947476 -0.88774931 9
5.36092 3.4535539 0.11131145 85
3.0327046 1.9529474 -0.8327688 6
5.3287215 3.4301801 0.33212399 66
3.3181131 2.1359205 -0.76705217 5
5.2878437 3.4025612 0.55012703 74
3.6550114 2.3509831 -0.6883117 2
5.278008 3.3936281 0.7704581 29
4.0829415 2.6242228 -0.59594113 1
5.2699742 3.3858631 0.99210751 28
4.6079874 2.9605484 -0.47918224 1
5.2283092 3.357805 1.207821 15
5.2690411 3.3826661 -0.32814649 1
5.2055807 3.3406422 1.4279894 11
5.4045711 3.4670074 -0.11207936 87
5.1551175 3.3057182 1.6409128 3
2.7911501 1.7850161 -0.88774931 7
5.3662043 3.4305103 0.11117183 85
3.0296502 1.9360538 -0.83006936 6
5.3457117 3.4147854 0.33243802 68
3.3387845 2.132781 -0.77010518 5
5.3080854 3.3894427 0.55099863 63
3.6648602 2.3392739 -0.68862462 2
5.2663927 3.3602359 0.76704568 63
4.0954247 2.6120884 -0.59642857 1
5.2384529 3.3398371 0.98397291 57
4.5981331 2.9315934 -0.47709054 1
5.223443 3.3289816 1.2040049 36
5.2808175 3.3642516 -0.32814649 1
5.2221398 3.3255918 1.4293389 22
5.4368815 3.4610078 -0.11249821 87
5.1927037 3.3042958 1.649195 16
2.8006265 1.7773321 -0.88878465 7
5.3984084 3.4246132 0.11159069 83
3.0396819 1.9275532 -0.83096921 6
5.3677211 3.402519 0.33306605 68
3.3395767 2.1169083 -0.76857871 4
5.3282986 3.3762262 0.55187017 64
3.6629915 2.3201241 -0.68674743 2
5.2797685 3.3428934 0.76728946 61
4.0910983 2.5892851 -0.59447873 1
5.261766 3.3289225 0.98616302 99
4.6723204 2.9560022 -0.48371434 1
5.2217565 3.3023343 1.2009518 80
5.326292 3.3671434 -0.33023992 1
5.1875911 3.278193 1.4167417 37
5.4573827 3.4473498 -0.11267274 95
5.1960382 3.2809937 1.6466069 35
2.8035438 1.7654867 -0.88774931 7
5.417098 3.4100106 0.11173031 90
3.0414443 1.9138166 -0.82961947 5
5.3761835 3.3816357 0.33285671 73
3.3535926 2.1094198 -0.77010518 5
5.3467989 3.3618469 0.55256736 72
3.7011724 2.3262436 -0.692379 2
5.3014894 3.33078 0.76875186 64
4.1001124 2.5749874 -0.59447873 2
5.2666626 3.3063326 0.98491156 83
4.682611 2.9396734 -0.48371434 1
5.2299256 3.2820008 1.2001886 78
5.388772 3.3803694 -0.33338007 1
5.1874466 3.2528169 1.4135925 76
5.4642992 3.4250941 -0.11256802 85
5.1747193 3.2423205 1.6362541 65
2.8096898 1.7556891 -0.88774931 7
5.4425354 3.3995569 0.11200955 100
3.0729005 1.9186703 -0.83636802 6
5.4032049 3.3723645 0.33379877 66
3.3509431 2.0914629 -0.76781541 4
5.3618798 3.3452754 0.55291605 70
3.6992128 2.3070388 -0.69050181 2
5.3248768 3.3196044 0.7704581 66
4.1259227 2.5711594 -0.59691608 2
5.2899079 3.2952411 0.98710161 90
4.6556382 2.9001355 -0.4798795 1
5.2546835 3.2720256 1.2032416 84
5.3801904 3.3488746 -0.33212399 1
5.210351 3.2418971 1.4167417 73
5.4813166 3.4091659 -0.11267274 95
5.1827235 3.2221985 1.6352189 88
2.8092334 1.7417994 -0.88567883 7
5.4509711 3.3784301 0.11193974 87
3.0712969 1.9027998 -0.83411849 6
5.4302249 3.3629491 0.33474082 68
3.36323 2.082855 -0.7689603 4
5.3735251 3.3265374 0.55291605 73
3.7139635 2.2982695 -0.69175333 2
5.344872 3.3062191 0.77167672 70
4.1450019 2.5630062 -0.59837854 2
5.2963381 3.2736385 0.98616302 78
4.6962399 2.9027209 -0.48301712 1
5.2593913 3.2495368 1.2017151 78
5.4122386 3.342669 -0.33338007 1
5.2332439 3.2308545 1.419891 67
5.5067978 3.3984118 -0.11295197 95
5.1922951 3.2030747 1.6347013 95
2.8284602 1.7400801 -0.88981992 7
5.4712481 3.3646178 0.11211426 97
3.0762587 1.8910488 -0.83366859 6
5.4481521 3.3491077 0.33515951 73
3.3888803 2.0824077 -0.77315807 4
5.3986869 3.3161008 0.5543105 73
3.723645 2.2863271 -0.69206619 2
5.3614569 3.2906556 0.77240795 66
4.153924 2.5485206 -0.59837854 2
5.3307366 3.2705202 0.99054313 83
4.6995482 2.8821471 -0.48231989 1
5.2740512 3.2332091 1.2024784 78
5.4238744 3.323755 -0.33338007 1
5.254458 3.2186785 1.4225905 75
5.5350871 3.3905811 -0.11330102 90
5.2127738 3.1918898 1.6378069 95
2.8444109 1.7362347 -0.89292574 7
5.4960313 3.3547897 0.11239351 92
3.0758593 1.8767763 -0.83186901 6
5.4632211 3.3321486 0.33536884 73
3.3843951 2.0634108 -0.77048677 4
5.4238391 3.3055317 0.55570501 73
3.7160256 2.2647133 -0.68925035 2
5.3723388 3.2728593 0.77240795 66
4.162353 2.5347309 -0.59837854 2
5.3471818 3.2549748 0.99148178 80
4.7300057 2.8781519 -0.4844116 1
5.294806 3.2218261 1.2047681 85
5.4348674 3.3057489 -0.33338007 1
5.2634382 3.2002225 1.4221406 80
5.5503073 3.3733151 -0.11337084 90
5.2337914 3.1796918 1.6409128 93
2.8385859 1.7197872 -0.88930225 7
5.5179687 3.3418031 0.11260293 97
3.0873933 1.869055 -0.83321869 6
5.4714022 3.3109884 0.33515951 68
3.3845003 2.0481114 -0.7689603 4
5.4415894 3.2916536 0.55640227 73
3.7408125 2.2619481 -0.692379 2
5.3990211 3.2633271 0.77460164 70
4.1779704 2.5242949 -0.59935349 2
5.3602028 3.2373097 0.99179459 83
4.7327032 2.8583295 -0.48371434 1
5.3177853 3.2104254 1.2074393 80
5.422431 3.2723141 -0.33191466 1
5.277915 3.1838417 1.4230404 73
5.5688992 3.3580494 -0.11351045 95
5.253129 3.166393 1.643501 91
2.8396049 1.7068816 -0.88774931 7
5.5433135 3.3307595 0.11288217 97
3.0972385 1.8602754 -0.83411849 6
5.5000491 3.3021512 0.33620623 73
3.3949947 2.0383067 -0.76972359 4
5.4581718 3.2757132 0.55692518 75
3.7402148 2.2437985 -0.69081473 2
5.422296 3.2516084 0.77630776 64
4.1782441 2.5045919 -0.59813482 2
5.3816381 3.2246702 0.99367183 87
4.7614517 2.8530555 -0.48563176 1
5.3441172 3.2009239 1.210874 85
5.4989386 3.292352 -0.3358922 1
5.3007026 3.1724031 1.4261897 75
5.5874505 3.3426974 -0.11365007 95
5.2558603 3.1430779 1.6409128 95
2.8488648 1.6989374 -0.88878465 7
5.5480351 3.3072951 0.11274255 97
3.115432 1.8564347 -0.83726782 6
5.5321345 3.2951963 0.33746228 70
3.4071496 2.0294566 -0.77086836 4
5.4712844 3.2576611 0.55709946 73
3.759907 2.2377999 -0.69300479 5
5.4455557 3.2397645 0.77801394 70
4.1937857 2.4940512 -0.59910977 2
5.3962555 3.2078876 0.99429762 87
4.757679 2.8282762 -0.48423728 1
5.3501954 3.1792397 1.2097291 80
5.4932246 3.2629378 -0.33484548 1
5.3251472 3.161844 1.4297889 82
5.614562 3.3323574 -0.11396421 100
5.2767696 3.1306252 1.6440187 93
2.8614273 1.6929194 -0.89085519 7
5.5698743 3.2940145 0.11295197 92
3.1118288 1.8395976 -0.83456844 6
5.5470409 3.2778983 0.33767161 70
3.4243538 2.0235443 -0.77315807 4
5.4946318 3.2456346 0.55831969 75
3.7710977 2.2266693 -0.69363046 2
5.4482827 3.2156923 0.77679521 66
4.2178531 2.4884739 -0.60130334 2
5.4261374 3.2000682 0.99773914 90
4.7812524 2.8197467 -0.48563176 1
5.3578777 3.1585517 1.2089659 77
5.3411894 3.1462021 1.4311386 80
5.6296058 3.3147693 -0.11403403 97
5.2926593 3.1151278 1.6455716 88
2.8723178 1.6858537 -0.89240813 7
5.5951376 3.2826462 0.11323121 97
3.1215928 1.8306965 -0.83546823 6
5.5584483 3.2585168 0.33767161 68
3.4297023 2.0105867 -0.77277648 4
5.523118 3.2365067 0.56006277 75
3.7703245 2.2085011 -0.69206619 2
5.4697528 3.2026739 0.77825767 66
4.2145219 2.4667156 -0.59959722 2
5.4423895 3.1841018 0.99867773 83
4.7910657 2.803041 -0.48563176 1
5.3925958 3.1537068 1.2143085 93
5.515872 3.2245059 -0.33484548 1
5.3504558 3.1265564 1.4306886 75
5.6532288 3.3021595 -0.11427836 95
5.3151793 3.1034513 1.649195 86
2.8765152 1.6748456 -0.89189047 7
5.616931 3.2691319 0.11344065 97
3.1313334 1.8217479 -0.83636802 6
5.5732431 3.241101 0.33788097 68
3.4451861 2.0035365 -0.77468461 4
5.5361042 3.2182102 0.56023711 73
3.8070464 2.2121975 -0.69738495 2
5.4929152 3.1905394 0.77996385 70
4.2145228 2.4470065 -0.59837854 2
5.4517632 3.1640921 0.99836493 80
4.7904825 2.7802985 -0.48458594 1
5.4188561 3.143729 1.2177432 91
5.5892925 3.2413034 -0.33861366 1
5.3697672 3.112746 1.4329382 80
5.6578012 3.278394 -0.11413874 95
5.3443685 3.0955307 1.6548891 90
2.8823442 1.6647937 -0.89189047 7
5.6404305 3.2565055 0.11368498 100
3.1528633 1.8195738 -0.84041709 5
5.5931721 3.2266183 0.33840433 66
3.4504576 1.990518 -0.7743029 4
5.5542073 3.2028482 0.56093436 70
3.8010535 2.1910038 -0.69488198 2
5.5160584 3.1782846 0.78167003 63
4.2333598 2.4382255 -0.599841 2
5.4781828 3.1539111 1.0011806 87
4.7932525 2.7595816 -0.48388866 1
5.4280939 3.1238163 1.2173615 86
5.6005721 3.2217748 -0.33861366 1
5.3907371 3.0998101 1.4356377 80
5.6813455 3.2656016 -0.11438307 87
5.3517919 3.0749304 1.6538538 90
2.8847861 1.6528009 -0.89085519 7
5.6534977 3.2377915 0.11371988 97
3.1558137 1.8066199 -0.8395173 6
5.6217365 3.2169933 0.33945104 64
3.4607933 1.9804109 -0.7750662 4
5.5722699 3.1873991 0.56163162 73
3.7983899 2.171838 -0.69300479 2
5.535737 3.1639342 0.78288871 66
4.2625279 2.4352512 -0.6027658 1
5.4994497 3.1406484 1.0030578 87
4.8201566 2.7527146 -0.48563176 1
5.4474907 3.1097147 1.2192695 90
5.4150658 3.0886993 1.4392369 80
5.7083454 3.2546628 -0.11469722 90
5.3641706 3.057188 1.6543714 84
2.9140515 1.6560849 -0.89810216 7
5.6717205 3.2219868 0.1138595 97
3.163795 1.7965561 -0.83996725 6
5.643353 3.2032666 0.34007907 61
3.4642699 1.9663807 -0.7743029 4
5.5954938 3.1748099 0.56285179 75
3.8025107 2.1566176 -0.692379 2
5.5450201 3.1436138 0.78264499 61
4.267549 2.4183986 -0.60227835 1
5.5138164 3.1233811 1.0036837 87
4.8436041 2.7437296 -0.48702627 1
5.458312 3.0906818 1.2192695 90
5.6229277 3.1825969 -0.33861366 1
5.4410806 3.0784135 1.4432859 82
5.7283735 3.2396402 -0.11487174 87
5.3899441 3.0470023 1.6590302 90
2.9164493 1.6440048 -0.89706683 7
5.6899028 3.2060945 0.11399912 97
3.1649528 1.7826331 -0.8386175 6
5.6492796 3.1806071 0.33976504 68
3.4728241 1.9552386 -0.77468461 4
5.6152244 3.1601431 0.56372333 73
3.8237884 2.1510804 -0.69488198 2
5.5663424 3.1300757 0.78410745 61
4.282887 2.407377 -0.6032533 1
5.5401845 3.1128252 1.0064995 80
4.8566256 2.7287586 -0.48737493 1
5.4776268 3.0764151 1.2211776 82
5.6340036 3.1629484 -0.33861366 1
5.4500914 3.0584519 1.4428362 86
5.7483683 3.224515 -0.11504627 95
5.4157138 3.0366714 1.6636889 84
2.9289138 1.6375877 -0.89913744 7
5.7115321 3.1920679 0.11420855 97
3.1728578 1.772524 -0.83906746 6
5.6702571 3.1677017 0.3403931 68
3.4830558 1.9450194 -0.77544779 4
5.6436172 3.1502352 0.56546646 70
3.8381748 2.1415689 -0.69613349 2
5.591104 3.11836 0.78605735 61
4.2843285 2.3885467 -0.60227835 1
5.5418501 3.0896246 1.0049351 77
4.8661218 2.7117877 -0.48737493 1
5.5123448 3.0706503 1.2265203 86
5.704339 3.1762998 -0.3421725 1
5.4624381 3.0403552 1.4432859 82
5.746798 3.1986282 -0.11480194 49
5.4274426 3.0196333 1.6642065 82
2.9244759 1.6217319 -0.89603156 7
5.7413225 3.1837792 0.11459251 87
3.1872406 1.7667156 -0.84131694 5
5.6952558 3.1556346 0.34123048 73
3.4915407 1.9338012 -0.77582937 4
5.6476078 3.1266546 0.56476921 73
3.8625379 2.1383958 -0.69926214 2
5.6170444 3.1084566 0.78825098 68
4.2887511 2.3724053 -0.60179085 1
5.562974 3.0759952 1.0068123 77
4.8790464 2.6967118 -0.48772353 1
5.5293694 3.0561538 1.2280468 82
5.7148399 3.1573672 -0.3421725 1
5.4844317 3.0288174 1.4464353 80
5.7404227 3.1688831 -0.11445288 16
5.4430223 3.0034733 1.6657594 86
2.9264526 1.6101615 -0.89499629 7
5.7208619 3.1463709 0.11396421 20
3.1899714 1.7537038 -0.84041709 5
5.7219901 3.1443906 0.3421725 45
3.5051534 1.9253815 -0.77735591 4
5.6666756 3.1127062 0.56564075 88
3.87344 2.1268041 -0.69988787 2
5.6383028 3.0945597 0.78971344 66
4.3283339 2.3746057 -0.60617816 1
5.5875316 3.0641603 1.0093153 77
4.8674636 2.6681726 -0.48563176 1
5.5456982 3.0386984 1.2291917 84
5.740387 3.1440768 -0.34300989 1
5.5086417 3.0171475 1.4500345 80
5.7795129 3.1641917 -0.11501136 19
5.4551687 2.9853814 1.6662771 78
2.9425101 1.6049758 -0.89810216 7
5.7428894 3.1311266 0.11417364 20
3.2134905 1.7513235 -0.84491616 5
5.7194448 3.1157551 0.34133515 15
3.5156345 1.9144001 -0.77811909 4
5.6902938 3.098587 0.56686091 46
3.8777409 2.1107013 -0.69926214 4
5.6443753 3.0710285 0.78898221 76
4.3300319 2.3549328 -0.60520321 1
5.6091404 3.0493174 1.0111924 87
4.9017191 2.6636341 -0.48807216 1
5.5602479 3.0202272 1.2299548 84
5.7518744 3.1230121 -0.34300989 1
5.5350795 3.0053017 1.4540836 76
5.8016157 3.1487119 -0.11522079 19
5.4830537 2.9745803 1.6714535 82
2.9483733 1.5941794 -0.89810216 7
5.7648816 3.1157632 0.11438307 20
3.2061713 1.7321242 -0.84131694 5
5.7373157 3.0995672 0.34175381 15
3.5205688 1.9011829 -0.7777375 5
5.691092 3.0720332 0.56581503 16
3.8837123 2.0955374 -0.69894928 4
5.6695709 3.0578573 0.79093212 37
4.3382263 2.3398025 -0.60520321 1
5.637136 3.0390971 1.0143212 87
4.914495 2.6483965 -0.48842075 1
5.5776711 3.0045228 1.2314813 90
5.7768064 3.1104941 -0.34384724 1
5.5386705 2.982271 1.452284 76
5.8284202 3.1369696 -0.11553493 19
5.5070148 2.9627435 1.6755946 88
2.9638574 1.5898732 -0.90120792 7
5.7928061 3.1060767 0.11473212 20
3.2136145 1.7224038 -0.84176683 6
5.7528429 3.0833561 0.34206784 15
3.5320463 1.8922783 -0.77888238 4
5.7170572 3.0616076 0.56738389 15
3.8993473 2.0873091 -0.7005136 2
5.6639285 3.0306094 0.78873843 13
4.3424621 2.3235297 -0.60471576 2
5.6280231 3.0101376 1.0108796 32
4.9478483 2.645237 -0.49086115 1
5.6014566 2.9934111 1.2345343 97
5.7729974 3.0837905 -0.34300989 1
5.5554061 2.9675586 1.4540836 91
5.8352618 3.115742 -0.11546512 16
5.5236273 2.9481022 1.6776651 91
2.9571753 1.5736837 -0.8975845 6
5.8242598 3.0981209 0.11515098 20
3.2313538 1.7181408 -0.84491616 6
5.7812066 3.0726309 0.34311455 14
3.5469687 1.8851645 -0.78079039 4
5.7201395 3.0388944 0.56668663 15
3.9097376 2.0762188 -0.70113939 2
5.6897254 3.0201905 0.79093212 13
