# .PCD v0.7 - Point Cloud Data file format
VERSION 0.7
FIELDS x y z intensity
SIZE 4 4 4 4
TYPE F F F F
COUNT 1 1 1 1
WIDTH 1415
HEIGHT 1
VIEWPOINT 0 0 0 1 0 0 0
POINTS 1415
DATA ascii
5.3517628 4.0050888 0.58481503 1
4.2343335 3.1676877 -0.83755022 1
4.9758639 3.7210691 -0.76290214 1
5.3904152 4.0296135 1.0659446 2
5.4263768 4.0550208 -0.59265906 2
5.3713164 4.0124145 1.3032255 2
5.4435978 4.0634499 -0.11857165 2
5.2843709 3.9431567 1.7666988 2
2.8700769 2.1361735 -0.95866579 4
5.3858018 4.0071454 0.11717546 2
3.2227254 2.3969016 -0.92724824 2
5.3030114 3.944114 0.3463594 1
3.6725416 2.7304542 -0.88955158 1
5.2850604 3.9278944 0.57609946 1
4.2321291 3.1442051 -0.8350473 1
5.3021297 3.9377086 0.81091869 1
5.029613 3.7353199 -0.76923937 1
5.3244457 3.9528403 1.0503011 2
5.3341975 3.9586399 -0.58115447 2
5.2616072 3.9033411 1.2734593 2
5.3550382 3.9712043 -0.34939486 1
5.3140697 3.9393897 -0.11546512 4
5.2415419 3.8842027 1.7480639 2
2.8724837 2.1231997 -0.95711285 4
5.3154259 3.9274731 0.1153604 5
3.2149816 2.3746228 -0.92274922 2
5.3199611 3.9279501 0.34656873 3
3.679996 2.7170951 -0.88916999 1
5.2964525 3.9091651 0.57592511 4
4.2488918 3.1348438 -0.83629876 1
5.2608399 3.8800442 0.80263156 3
5.0426221 3.7177389 -0.76923937 1
5.2698331 3.8838377 1.0368477 5
5.360817 3.9494488 -0.58254898 2
5.2350059 3.8567607 1.2639189 4
5.3360147 3.9297359 -0.34730142 1
5.2462893 3.8622487 1.5040227 4
5.3406739 3.9302969 -0.11574436 7
5.208385 3.831538 1.7325348 4
2.8818038 2.1138005 -0.95763052 4
5.3452287 3.9207208 0.11570945 5
3.224823 2.3645372 -0.92319912 2
5.3304172 3.9069958 0.3463594 8
3.6915128 2.7047503 -0.88955158 1
5.3171754 3.8944337 0.57662237 9
4.2476015 3.109915 -0.83379585 1
5.2967749 3.8780756 0.80604392 6
5.0139165 3.6696351 -0.76290214 1
5.2897363 3.8700831 1.0380992 7
5.4067354 3.9542336 -0.58603519 2
5.2649546 3.8491356 1.2677351 8
5.3761816 3.9290087 -0.34897619 1
5.2541165 3.8383944 1.5022231 8
5.3559766 3.9128084 -0.11577927 2
5.2373266 3.8247309 1.7377111 8
2.8938501 2.1071391 -0.95918339 4
5.3530946 3.8963969 0.11556984 2
3.2444978 2.3607283 -0.92634839 2
5.3333955 3.8792071 0.34562668 12
3.7009325 2.6918468 -0.88955158 1
5.329123 3.8746819 0.57644808 16
4.2712154 3.1043591 -0.83629876 1
5.3029237 3.8528004 0.80482519 13
5.0112705 3.6395693 -0.76046479 1
5.2926946 3.8425465 1.0359092 10
5.3640738 3.8943686 -0.5799343 27
5.2878923 3.8376508 1.2700247 32
5.3591452 3.8879383 -0.34698743 19
5.264327 3.8177438 1.5013233 16
5.3200917 3.8567684 -0.11469722 21
5.2638273 3.814575 1.7418523 24
2.8933592 2.091367 -0.95659518 4
5.3261428 3.8484073 0.11469722 30
3.2621975 2.3562338 -0.92904782 2
5.3048019 3.8301699 0.34290522 24
3.7103057 2.6789126 -0.88955158 1
5.2957659 3.8222394 0.57139301 42
4.288434 3.0940526 -0.83755022 1
5.2921891 3.8168495 0.80116916 19
5.162426 3.7218916 -0.78142631 1
5.2756276 3.8021028 1.0299646 27
5.3420763 3.8499918 -0.57609946 49
5.2598391 3.7893336 1.2601026 42
5.3435121 3.8481972 -0.34510332 52
5.2491546 3.7788494 1.4932251 40
5.3270283 3.833503 -0.11455759 64
5.2175145 3.7533114 1.722182 58
2.8943639 2.0767486 -0.9545247 4
5.3086705 3.8076463 0.11403403 72
3.2608984 2.3380213 -0.92634839 2
5.3262572 3.8174453 0.34342858 80
3.7324014 2.6750939 -0.89260459 1
5.3009787 3.7979274 0.57052147 88
4.2799349 3.0652652 -0.83379585 1
5.2909546 3.7879515 0.79897547 56
5.1560163 3.6899843 -0.77850145 1
5.2776189 3.7756226 1.0277746 75
5.3603411 3.8348024 -0.57662237 76
5.2570662 3.7595284 1.2562865 84
5.3569131 3.82952 -0.34510332 52
5.2623105 3.7605071 1.4932251 74
5.3517685 3.8230202 -0.11480194 90
5.2337303 3.7373204 1.7232174 92
2.9015949 2.0666335 -0.9545247 5
5.3365898 3.7995317 0.11434817 87
3.2626898 2.3221037 -0.9245488 2
5.3314142 3.7930396 0.34290522 66
3.7417169 2.6620481 -0.89260459 1
5.3223209 3.7851748 0.57139301 81
4.3034887 3.0594623 -0.83629876 1
5.3009095 3.7671585 0.79848802 61
5.1073689 3.6282785 -0.76923937 1
5.3004303 3.7640383 1.0296518 85
5.3850665 3.8241415 -0.57784253 76
5.274961 3.7445629 1.2574313 100
5.375134 3.814266 -0.34541735 56
5.2769957 3.7432413 1.493675 88
5.3716068 3.8089414 -0.11494155 97
5.2546234 3.7246149 1.7258054 94
2.9151006 2.0609541 -0.95659518 4
5.3563538 3.7854955 0.11448779 97
3.2739584 2.3129504 -0.92544866 2
5.3439608 3.7753429 0.34290522 66
3.7477772 2.6467083 -0.89184129 3
5.3403854 3.7700198 0.57191598 78
4.3464208 3.0672016 -0.84255612 1
5.322135 3.7543571 0.7997067 56
5.1816516 3.6538985 -0.77850145 1
5.3193417 3.7509923 1.0309032 85
5.4016409 3.807615 -0.57819116 81
5.2879992 3.7261281 1.2574313 100
5.3851504 3.7931781 -0.34520799 59
5.282064 3.719187 1.4914254 92
5.3874774 3.7934103 -0.11501136 100
5.2748451 3.7127278 1.7283937 100
2.9222775 2.050765 -0.95659518 4
5.3786974 3.774606 0.11469722 97
3.286397 2.3054373 -0.9267984 2
5.3554716 3.7555175 0.34280053 70
3.7377024 2.6200857 -0.88726187 1
5.3649335 3.7593598 0.57313615 81
4.3565688 3.0527704 -0.84255612 1
5.3459377 3.7446582 0.80141288 61
5.1547122 3.6093698 -0.77265167 1
5.3291655 3.7301378 1.0302775 80
5.4230604 3.7944491 -0.57906276 78
5.3148031 3.718703 1.2608659 100
5.4173384 3.7890372 -0.34646407 59
5.3055472 3.7094686 1.4945749 88
5.3974075 3.7722919 -0.11494155 97
5.294107 3.6987195 1.7304642 100
2.9195526 2.0344357 -0.95348942 4
5.3934803 3.7569516 0.11473212 100
3.2992218 2.2972929 -0.92814809 2
5.3849416 3.7482092 0.34384724 70
3.7624843 2.6188915 -0.89107805 1
5.3790054 3.7426875 0.57331049 85
4.3347659 3.0149846 -0.83629876 1
5.3671269 3.7316391 0.80263156 60
5.1705394 3.5936215 -0.77313918 1
5.3518887 3.7182736 1.0321548 85
5.4362736 3.7754943 -0.57906276 83
5.3342023 3.7046058 1.2623924 98
5.4403753 3.7769396 -0.34709209 59
5.3264689 3.6964798 1.4968243 92
5.4138288 3.7557063 -0.11501136 100
5.3085723 3.681319 1.7309818 98
2.9428794 2.0347085 -0.95866579 4
5.4082079 3.739238 0.11476702 92
3.3024118 2.2824376 -0.9267984 2
5.4045653 3.7339318 0.34426597 70
3.7655954 2.6006217 -0.88955158 1
5.3976064 3.7263415 0.57383341 82
5.461091 3.7687621 -1.0509269 1
5.3850212 3.7162654 0.80336279 69
5.156909 3.5575144 -0.76923937 1
5.3745914 3.7062991 1.0340319 85
5.4510589 3.7576272 -0.57923704 74
5.3493609 3.6861455 1.262774 100
5.4574723 3.7592385 -0.34730142 56
5.3512158 3.6846702 1.4999737 90
5.4367867 3.7435915 -0.11522079 97
5.324574 3.6649554 1.7320172 98
2.9467776 2.0222378 -0.95763052 5
5.4218755 3.7193918 0.11476702 97
3.2882552 2.2548881 -0.92049968 2
5.4258022 3.7206895 0.34478933 66
3.7811282 2.5919006 -0.89107805 1
5.4138675 3.7097311 0.57418203 81
5.5035486 3.7697682 -1.0565585 1
5.4002442 3.697623 0.80360651 66
5.1961222 3.55653 -0.77313918 1
5.3923855 3.6908638 1.0349705 87
5.474009 3.7453256 -0.58028293 76
5.3621964 3.6674488 1.262774 100
5.4738584 3.7424214 -0.34751078 59
5.370482 3.6703651 1.5017732 88
5.4564266 3.7291024 -0.1153604 97
5.3405252 3.6485248 1.7330524 98
2.9570127 2.0141137 -0.95866579 4
5.4507079 3.7126472 0.11511607 97
3.3005469 2.2472625 -0.92184937 2
5.4371037 3.7006073 0.34468466 68
3.786906 2.5764785 -0.89031488 1
5.4416118 3.7008934 0.57575083 85
4.3987679 2.9916451 -0.84255612 1
5.4075489 3.6763504 0.80287528 61
5.2243071 3.550436 -0.77557659 1
5.4068708 3.6731269 1.0352834 85
5.5035319 3.7373891 -0.58202606 78
5.3824487 3.6551628 1.2646821 98
5.4895439 3.726491 -0.34772015 59
5.3793983 3.6503487 1.5008734 88
5.477684 3.7156475 -0.11553493 95
5.3676186 3.6396196 1.7377111 100
2.9716761 2.0097084 -0.961254 4
5.468605 3.6969566 0.11522079 87
3.3196733 2.2433665 -0.9249987 2
5.4543114 3.6859107 0.34499866 75
3.8116968 2.5748968 -0.894131 1
5.4522038 3.6817112 0.57557648 84
5.5552759 3.7499051 -1.0615644 1
5.4368052 3.6685541 0.80531269 60
5.2366695 3.5321767 -0.77557659 1
5.4141097 3.6518617 1.0343448 80
5.5225019 3.7235744 -0.58272326 78
5.404942 3.6429374 1.2669718 98
5.5157704 3.7162325 -0.3485575 56
5.3969555 3.6348155 1.5022231 86
5.4866576 3.6952291 -0.11546512 95
5.3828626 3.6239586 1.7387464 100
2.9674459 1.991786 -0.95763052 4
5.4874754 3.6832609 0.1153604 90
3.3254755 2.2312605 -0.9245488 2
5.478756 3.6746352 0.34573138 70
3.7978327 2.5462687 -0.88878828 1
5.4633651 3.661552 0.5754022 81
4.3927732 2.9440403 -0.83755022 1
5.4604859 3.6582377 0.80701888 65
5.2879381 3.5413029 -0.78142631 1
5.4333878 3.6373403 1.0355963 85
5.5387788 3.7064898 -0.58307195 80
5.4300461 3.6337271 1.2700247 96
5.5347033 3.702364 -0.34897619 52
5.4170785 3.6223159 1.5044726 88
5.5061736 3.6804984 -0.11560474 90
5.3986931 3.6072919 1.7397816 100
2.9708197 1.979791 -0.95659518 4
5.4969697 3.6618674 0.1152906 90
3.3413544 2.2250383 -0.9267984 2
5.500885 3.6630895 0.3463594 70
3.8225996 2.5445385 -0.89260459 1
5.4854312 3.6500359 0.57644808 85
4.4030237 2.9286876 -0.83755022 1
5.4831414 3.6457477 0.80848128 66
5.2605896 3.4964523 -0.77557659 1
5.4552917 3.6258614 1.0374736 85
5.5526981 3.6892056 -0.58324623 83
5.4328861 3.6082323 1.2677351 96
5.560904 3.6918607 -0.34981358 52
5.4361854 3.6076934 1.5062722 88
5.5266786 3.6677487 -0.11577927 87
5.4170666 3.5936403 1.7418523 100
2.9793224 1.9704767 -0.95711285 3
5.5124178 3.6458261 0.1153604 87
3.3324594 2.203198 -0.92229939 2
5.5236344 3.6504741 0.34698743 73
3.8232663 2.5257714 -0.89069647 1
5.5064526 3.6363537 0.57731962 84
4.4127121 2.9140692 -0.83755022 1
5.4836035 3.6198909 0.80677515 63
5.2622128 3.4724295 -0.77411413 1
5.4811077 3.6154969 1.0399765 80
5.5788493 3.6785731 -0.58464068 87
5.4480982 3.5923588 1.2684983 96
5.5664449 3.669004 -0.34939486 55
5.4627652 3.5992944 1.5103214 78
5.5477991 3.6539328 -0.1159538 90
5.4392562 3.5810862 1.744958 100
2.9816785 1.956365 -0.95555997 4
5.5397544 3.6334054 0.11563965 90
3.3571908 2.2010715 -0.9267984 2
5.5336375 3.6280129 0.34677809 73
3.8357828 2.5138929 -0.8914597 1
5.5297418 3.6226993 0.5783655 82
4.4503093 2.9144206 -0.84255612 1
5.5041051 3.603159 0.80775005 65
5.2854748 3.4587193 -0.77557659 1
5.4959741 3.5964661 1.0402893 77
5.5989637 3.6624653 -0.585338 87
5.4717116 3.5778582 1.270788 90
5.5905237 3.6541584 -0.35002291 55
5.4683881 3.5729644 1.5080719 82
5.5645013 3.6357632 -0.1160236 90
5.4652872 3.5695736 1.7490991 100
3.0062976 1.9575399 -0.961254 3
5.5601501 3.620472 0.11581416 97
3.3644719 2.1899254 -0.9267984 2
5.5496154 3.6108544 0.34698743 70
3.8264303 2.4887142 -0.88726187 1
5.5456953 3.6055455 0.57871413 81
4.4334517 2.8824179 -0.83755022 1
5.5276737 3.5924602 0.80945623 66
5.2969146 3.441174 -0.77557659 1
5.5101528 3.5783343 1.0406022 80
5.6183977 3.6472392 -0.58603519 87
5.498364 3.5693183 1.2742226 88
5.6059604 3.6377749 -0.35023224 52
5.480207 3.5548093 1.5080719 82
5.582191 3.6195824 -0.11612831 87
5.4793324 3.5515289 1.7496167 100
3.0014164 1.9402177 -0.95763052 4
5.5761142 3.6032104 0.11588398 97
3.381917 2.1845129 -0.92949772 2
5.5756102 3.6001265 0.34782481 70
3.8725967 2.5005045 -0.89603907 1
5.5592947 3.588217 0.57888842 81
5.6983514 3.6765618 -1.0740792 1
5.5518584 3.5806727 0.81116241 63
5.2655163 3.3946953 -0.76923937 1
5.5242691 3.5601494 1.040915 77
5.6338115 3.6307447 -0.58638382 83
5.5124412 3.5511653 1.2746042 90
5.633739 3.6279151 -0.35117432 47
5.5073285 3.5451522 1.512121 78
5.606564 3.6076477 -0.11637264 100
5.4933219 3.5334246 1.7501343 100
3.0049191 1.9276417 -0.95659518 4
5.5953908 3.5880432 0.1160236 92
3.378037 2.1653337 -0.92634839 2
5.6049604 3.5914156 0.34887153 73
3.8532009 2.4689643 -0.88955158 1
5.5885625 3.5795369 0.58063155 85
5.6712227 3.6310859 -1.0665703 1
5.5710125 3.5655503 0.81213742 61
5.3843517 3.4447632 -0.78483868 1
5.5483112 3.5482955 1.0431051 75
5.6531644 3.6153519 -0.58708107 87
5.5281134 3.5340154 1.2753674 100
5.6430011 3.6060777 -0.35096496 47
5.5278811 3.5311532 1.5143706 72
5.6191239 3.5880539 -0.11637264 95
5.5153918 3.5204651 1.7532402 100
3.0295556 1.9285532 -0.96228927 3
5.6112566 3.5706353 0.11609341 97
3.377353 2.1483002 -0.92409897 2
5.6242037 3.5761166 0.34929019 68
3.8733926 2.4628737 -0.89222288 1
5.6010246 3.5600059 0.58063155 81
4.4633923 2.8358343 -0.83755022 1
5.5934782 3.5524693 0.81359977 61
5.3326602 3.3855155 -0.77557659 1
5.5706716 3.5352564 1.0449823 75
5.6724796 3.5998657 -0.58777833 83
5.5470457 3.5189049 1.2768939 96
5.6589289 3.5884962 -0.35117432 48
5.5434661 3.5139213 1.5152704 72
5.6569514 3.5844738 -0.11689622 100
5.5374403 3.5073924 1.7563461 100
3.0330019 1.9159036 -0.961254 4
5.6490474 3.5670424 0.11661698 100
3.3831842 2.1354568 -0.92364907 2
5.6400299 3.5585957 0.34949955 65
3.8769839 2.4461958 -0.89107805 1
5.6319537 3.5521259 0.58254898 87
4.4832892 2.8265591 -0.83942741 1
5.6041646 3.5318654 0.81335604 66
5.300776 3.3393707 -0.76923937 1
5.5896635 3.5200009 1.0462338 70
5.6984978 3.5885377 -0.58917278 83
5.5725865 3.5078888 1.2799468 96
5.6781836 3.5729742 -0.35159299 48
5.5606456 3.497663 1.5166199 78
5.6745086 3.5678973 -0.11700094 100
5.5529218 3.4900966 1.7573814 100
3.0478551 1.9104354 -0.96384215 4
5.6614652 3.5473003 0.11661698 100
3.4005272 2.1298397 -0.92634839 2
5.657495 3.5420673 0.34981358 69
3.8921552 2.4368162 -0.89260459 1
5.6460085 3.5335004 0.58272326 84
4.5366707 2.8381305 -0.84756202 1
5.6332889 3.5228078 0.81579345 66
5.450429 3.4071288 -0.78922594 1
5.598567 3.498373 1.0456082 70
5.719439 3.5739021 -0.59004438 92
5.6031127 3.4998579 1.2841446 100
5.6957021 3.5563061 -0.35190701 55
5.5794349 3.482357 1.5184196 78
5.6801391 3.5438371 -0.11686131 100
5.5781837 3.4788713 1.7615224 100
3.026618 1.8824388 -0.9550423 4
5.6873984 3.5359645 0.11689622 100
3.4046307 2.1159003 -0.92544866 2
5.6817012 3.5296733 0.35054627 76
3.9106436 2.4294298 -0.89489418 1
5.6583076 3.5137718 0.58272326 92
4.4928436 2.7889397 -0.83755022 1
5.6522994 3.5073078 0.81676841 69
5.5466366 3.4403987 -0.80141288 1
5.6275325 3.4892197 1.0487368 95
5.7267985 3.5507672 -0.58952147 87
5.6203027 3.4833794 1.2852895 100
5.7182698 3.5427127 -0.35253504 50
5.6064663 3.472096 1.5224687 87
5.6992769 3.5281973 -0.11700094 100
5.587009 3.4573445 1.7604873 100
3.0364592 1.873891 -0.95607764 4
5.6980038 3.5150411 0.11686131 100
3.4169722 2.1070704 -0.9267984 2
5.7041903 3.5161059 0.35117432 69
3.9157586 2.413703 -0.894131 1
5.6773224 3.4981811 0.58342052 95
4.4890966 2.7649512 -0.8350473 1
5.6746511 3.4937992 0.81823081 68
5.4808431 3.3731587 -0.79020089 1
5.6480908 3.4747283 1.0503011 100
5.7340679 3.5276217 -0.5889985 23
5.6341009 3.4647663 1.2856711 100
5.7374048 3.5269179 -0.35295373 14
5.6334963 3.4616849 1.5265179 100
5.7030392 3.5030468 -0.11682641 32
5.6072721 3.4428787 1.7630754 100
3.0578094 1.8723602 -0.96073633 4
5.6863613 3.4805133 0.11637264 32
3.4276299 2.0971668 -0.92769814 2
5.7079082 3.4909635 0.35065094 19
3.9174604 2.3959236 -0.89260459 1
5.6810007 3.4731445 0.58254898 32
4.5829983 2.8007669 -0.85069072 1
5.6715651 3.4646571 0.81603718 26
5.5129156 3.3664198 -0.79312575 1
5.6585007 3.4539611 1.0499883 40
5.7344437 3.5003169 -0.58777833 21
5.6143179 3.4256506 1.2784203 38
5.7377458 3.4995878 -0.35222104 14
5.6322351 3.4338825 1.5229187 31
5.7305994 3.4924853 -0.11714055 30
5.6159568 3.421273 1.76204 40
3.0610249 1.8596683 -0.95970106 4
5.7138591 3.4699862 0.11668679 30
3.4166057 2.0740647 -0.92274922 2
5.7081084 3.463764 0.34991825 19
3.9190867 2.3781593 -0.89107805 1
5.6964955 3.4553607 0.5828976 32
4.5488281 2.7581267 -0.84255612 1
5.6836252 3.4448371 0.81603718 16
5.5382147 3.355386 -0.79507565 1
5.6637621 3.4300988 1.0487368 25
5.7653713 3.4916356 -0.58969575 21
5.6413569 3.4151812 1.2818549 24
5.76018 3.4857409 -0.35284904 14
5.6325135 3.407145 1.5197693 19
5.7427568 3.4724591 -0.11714055 27
5.6212525 3.39765 1.7599696 23
3.0757692 1.8539605 -0.96228927 3
5.7362142 3.4562106 0.11689622 27
3.43718 2.0701683 -0.92634839 2
5.7287169 3.4489722 0.35044158 17
3.9408178 2.3725681 -0.894131 1
5.7170587 3.4405901 0.58376914 27
4.5584288 2.7422304 -0.84255612 1
5.693912 3.4239573 0.81579345 16
5.6043382 3.3687582 -0.80287528 1
5.6706219 3.407254 1.0477982 22
5.7860641 3.4766185 -0.59056729 19
5.6734381 3.4076023 1.2864343 31
5.7894349 3.4758945 -0.35389575 14
5.6543984 3.3934782 1.5224687 23
5.7565556 3.4534247 -0.11717546 27
5.6529593 3.389931 1.7661812 21
3.0523784 1.8253648 -0.95297176 3
5.7585435 3.4423211 0.11710566 27
3.4443848 2.0581584 -0.92634839 2
5.7510099 3.4350977 0.35106963 17
3.9524472 2.36081 -0.89489418 1
5.7290349 3.4206116 0.58376914 29
4.5679727 2.7263026 -0.84255612 1
5.7296968 3.4182985 0.81920576 14
5.6160641 3.3491733 -0.80287528 1
5.6892667 3.3914859 1.0490496 20
5.803298 3.4594622 -0.59109026 21
5.6852989 3.3877761 1.2864343 25
5.8152614 3.4638398 -0.35473314 14
5.6745811 3.378706 1.5247183 21
5.7771683 3.438422 -0.11734998 27
5.6581178 3.3662257 1.7641107 23
3.0687008 1.8206124 -0.95607764 4
5.7688012 3.4211831 0.11707074 25
3.4532251 2.0471156 -0.9267984 2
5.7801495 3.4251823 0.35211635 17
3.9606645 2.346998 -0.89489418 1
5.7512236 3.4066894 0.58481503 27
4.5978589 2.7224169 -0.84631056 1
5.7450118 3.4002976 0.81969327 14
5.5388775 3.2769916 -0.79020089 1
5.7078729 3.3756268 1.0503011 22
5.8136244 3.4381678 -0.59091592 19
5.7106113 3.3759012 1.2894872 29
5.8290358 3.4445364 -0.35483781 14
5.6896968 3.360858 1.5256181 23
5.794302 3.4212835 -0.1174547 25
5.6781516 3.3513656 1.7666988 23
3.085026 1.8157697 -0.95918339 4
5.7927742 3.4081216 0.11731508 25
3.465389 2.0380135 -0.92814809 2
5.7914748 3.405997 0.35211635 16
3.9586782 2.3271897 -0.89260459 1
5.775105 3.3936574 0.58603519 26
4.5868955 2.6943436 -0.84255612 1
5.7534213 3.3782144 0.81920576 14
5.6969314 3.3450451 -0.81116241 1
5.7377748 3.3676808 1.0537428 22
5.849649 3.4319673 -0.59335625 19
5.7189722 3.3539617 1.2887239 25
5.8479147 3.42821 -0.3552565 13
5.7125783 3.3488719 1.5287673 21
5.819418 3.4101362 -0.11773393 25
5.7009015 3.3393536 1.7703223 23
3.0960343 1.8084531 -0.96073633 4
5.8092251 3.391917 0.11741979 22
3.4586632 2.0186529 -0.9245488 2
5.8096371 3.3908017 0.35253504 17
3.9697645 2.3160291 -0.89336777 1
5.7966542 3.3805084 0.58708107 22
4.6299348 2.6990178 -0.84881347 1
5.7714539 3.3631129 0.82018077 14
5.4404316 3.1702211 -0.77313918 1
5.7437911 3.3456507 1.0528041 20
5.8713264 3.4185691 -0.59440213 19
5.7453356 3.3438652 1.2921586 25
5.8696108 3.4148233 -0.35588452 13
5.7320747 3.3348079 1.5310168 23
5.8376088 3.3948419 -0.11787355 25
5.7286463 3.3301375 1.7754986 23
3.1070287 1.8010819 -0.96228927 4
5.8463945 3.3876739 0.11794336 25
3.4687114 2.0091248 -0.92544866 2
5.8456368 3.3845103 0.35400045 14
3.9825203 2.3058019 -0.89451259 1
5.8181782 3.3672566 0.5881269 26
4.6046634 2.6638649 -0.84255612 1
5.7997584 3.3538942 0.82261819 14
5.489274 3.1730683 -0.77850145 1
5.765696 3.3315115 1.0546813 20
5.8884006 3.4010415 -0.59492511 16
5.7716923 3.3336327 1.2955931 25
5.8843608 3.3973389 -0.35609388 13
5.7436795 3.3147802 1.5310168 21
5.8563509 3.3784423 -0.11801317 25
5.7469296 3.313982 1.7775693 21
3.1069095 1.7858319 -0.96021873 3
5.8599167 3.3682432 0.11797827 22
3.4976702 2.0096245 -0.93129742 2
5.8574162 3.3640828 0.35400045 14
4.0181861 2.3068302 -0.90061849 1
5.8304815 3.3459077 0.5881269 24
4.6143966 2.6469688 -0.84255612 1
5.8303723 3.3444922 0.82529926 14
5.4693179 3.1361146 -0.77411413 1
5.7875738 3.3172574 1.0565585 20
5.9071527 3.3844266 -0.5956223 16
5.7838712 3.3124576 1.2955931 23
5.9019742 3.3787241 -0.35640791 11
5.7710137 3.3024158 1.535066 21
5.8767872 3.3629439 -0.1181877 22
5.7584615 3.2939026 1.7775693 23
3.1097682 1.7730613 -0.95918339 3
5.8722234 3.3467414 0.11797827 17
3.4863858 1.9861811 -0.92634839 2
5.8801203 3.3485231 0.35462847 11
3.9989185 2.2772446 -0.89451259 1
5.8455877 3.3275075 0.58847558 17
4.6510777 2.6464772 -0.84756202 1
5.8322372 3.3172133 0.8238368 13
5.4807763 3.1160462 -0.77411413 1
5.8168669 3.305784 1.0596871 20
5.9327874 3.3716629 -0.59701681 16
5.8039346 3.2970948 1.2975012 23
5.9310994 3.3679655 -0.35745463 11
5.7892847 3.2861001 1.5368656 19
5.8908124 3.3423698 -0.1182226 20
5.7822595 3.2794447 1.7811928 21
3.1243458 1.7669511 -0.96177161 3
5.903018 3.3370495 0.11836223 20
3.4966917 1.9759158 -0.92724824 2
5.909162 3.3378015 0.35567519 14
4.0410304 2.282584 -0.90214497 1
5.8779864 3.3188391 0.59056729 17
4.6327634 2.6146898 -0.84255612 1
5.850697 3.3007345 0.82481176 9
5.4916191 3.0968969 -0.77411413 1
5.8369756 3.290308 1.0612515 10
5.9636135 3.3616939 -0.59893423 19
5.81883 3.2787414 1.2982645 17
5.9445591 3.348223 -0.35755929 13
5.8143058 3.2735188 1.5404649 14
5.9146428 3.3286502 -0.11846693 25
5.7953544 3.2601891 1.7817104 14
3.1355495 1.7588688 -0.96332449 3
5.9181199 3.3183782 0.11843203 25
3.4967668 1.9598894 -0.92544866 2
5.9103236 3.3112955 0.35504717 16
4.0284214 2.256948 -0.89756554 1
5.9051814 3.3070605 0.59213609 29
4.64186 2.5985057 -0.84255612 1
5.8777738 3.2890174 0.82700545 14
5.530117 3.0932121 -0.77801394 1
5.8535953 3.272809 1.0621902 20
5.9770484 3.3418331 -0.59910858 16
5.8473768 3.2679889 1.3020806 25
5.9544678 3.3264766 -0.35745463 11
5.8308005 3.2560544 1.5418144 23
5.9419403 3.3167572 -0.11878107 22
5.8252573 3.2502923 1.7874043 25
3.1281652 1.7403983 -0.95918339 3
5.9401522 3.3035326 0.11864146 20
3.5172131 1.9552451 -0.92904782 2
5.9340677 3.2974339 0.35577986 13
4.0431404 2.246686 -0.89909208 1
5.9184303 3.2873964 0.59231043 22
4.1707878 2.3157146 -0.75557858 6
5.8978987 3.2732949 0.82822412 13
4.1660748 2.3111961 -0.58497292 3
5.8684397 3.2542706 1.0628159 20
4.1399765 2.2957728 -0.4141641 3
5.8759198 3.2570744 1.3058969 23
4.1404161 2.294127 -0.24807246 1
5.848949 3.2394595 1.5436141 23
4.1480188 2.2964451 -0.082759313 1
5.8365669 3.2299397 1.7874043 23
3.1342201 1.7294705 -0.95918339 3
4.1183515 2.2715764 0.082096115 5
3.5308433 1.9467185 -0.93084741 2
4.1298671 2.276051 0.24713041 4
4.0681505 2.242038 -0.90290827 1
4.1079798 2.2630513 0.41032922 2
4.1338568 2.2763665 -0.74744397 6
5.9597182 3.2804513 0.83529252 1
4.1532469 2.2851553 -0.582048 6
5.9057279 3.2480438 1.0675089 2
4.11305 2.2621033 -0.41067785 6
5.8786492 3.2318187 1.3039887 4
4.1203933 2.2642691 -0.2463977 9
5.87047 3.2246506 1.5463136 6
4.1016693 2.2521188 -0.081677265 10
5.8478069 3.2095451 1.7874043 10
3.1537957 1.7259381 -0.96332449 3
4.0946779 2.2399116 0.081467837 10
3.5307775 1.9306428 -0.92904782 2
4.0974789 2.2395885 0.24472295 9
4.0518341 2.2146401 -0.89756554 1
4.082634 2.2305467 0.40701729 8
4.0967011 2.2373066 -0.73930937 8
4.1050458 2.2409339 0.57424843 8
4.1158934 2.2459207 -0.57571083 5
4.0753274 2.2228649 0.73524207 9
4.0911856 2.2315145 -0.40771458 9
4.0524273 2.2094564 0.89718395 10
4.1107349 2.2403138 -0.24535099 9
4.0660157 2.2150245 1.0689675 9
4.0919447 2.2282236 -0.081328213 10
4.0434232 2.2008841 1.2335316 7
3.1530094 1.7112334 -0.961254 3
4.0708318 2.2084436 0.080839552 10
3.5340698 1.9164476 -0.92814809 2
4.0771766 2.2100441 0.24304819 9
4.0629921 2.2023554 -0.89832878 4
4.0606136 2.2001495 0.40405402 8
4.0836425 2.2117026 -0.73555493 8
4.0534902 2.1944573 0.56596124 8
4.0940266 2.2154815 -0.57156724 7
4.0570006 2.1945269 0.73054904 11
4.0726643 2.2029998 -0.4050999 7
4.0290303 2.1784885 0.89031488 13
4.0763593 2.2031624 -0.24283887 9
4.0445766 2.18507 1.0613191 12
4.0574689 2.1911206 -0.080490492 12
4.0306792 2.1757474 1.22732 12
3.160665 1.7011317 -0.96177161 4
4.0538616 2.1809554 0.080350876 10
3.5407374 1.9041005 -0.92814809 2
4.0461645 2.1749935 0.24074543 9
4.0533624 2.1788628 -0.89451259 7
4.0436983 2.1727581 0.40161365 8
4.0634937 2.1824808 -0.73054904 6
4.0226474 2.1596382 0.56059903 8
4.0597568 2.178648 -0.56571752 7
4.014154 2.1532733 0.72147578 8
4.0592594 2.1774693 -0.40300813 7
4.0141168 2.1523516 0.8853538 12
4.0523391 2.1719358 -0.24095476 9
4.0075178 2.1470101 1.0496217 12
4.0157332 2.150512 -0.079513162 12
4.0024834 2.1425176 1.2164496 12
3.1614714 1.6873589 -0.96021873 4
4.0261631 2.1479669 0.079652779 11
3.5422032 1.888979 -0.9267984 2
4.0220075 2.143944 0.23886132 9
4.0384216 2.152694 -0.88955158 12
4.0231237 2.14364 0.39882466 8
4.0379601 2.1506407 -0.72460455 8
4.01264 2.1362536 0.55816168 8
4.0357933 2.1476786 -0.56133026 7
3.9693255 2.1114185 0.71208972 7
4.0175834 2.1370885 -0.39812744 9
4.0025382 2.1281867 0.88115597 10
4.0281501 2.1409059 -0.23907068 9
3.975405 2.1119826 1.0392739 13
3.9878941 2.117723 -0.078815073 12
3.9962859 2.1212878 1.2123084 12
3.1741717 1.6799283 -0.96228927 4
3.99475 2.1133263 0.078884877 9
3.5677259 1.8866228 -0.93174726 2
3.9941509 2.1112256 0.23676789 9
4.0164042 2.1229882 -0.88306409 10
3.9847803 2.1053827 0.39429256 8
4.0244823 2.1254611 -0.72085011 8
3.9884729 2.1055534 0.55377436 8
4.0151753 2.1187539 -0.55743045 7
3.9557059 2.0864902 0.70833534 8
3.9792001 2.0988824 -0.39359534 9
3.9578419 2.0867341 0.86970741 10
4.0143962 2.1156564 -0.23781461 9
3.9586151 2.085376 1.0329752 13
3.9846451 2.0982003 -0.078605637 10
3.947253 2.0776308 1.1952263 11
3.1697524 1.6634525 -0.95918339 4
3.9560616 2.0752165 0.077977359 11
3.5535784 1.8632988 -0.92634839 2
3.9802675 2.0861452 0.23551181 9
3.9924898 2.0925512 -0.87619489 10
3.9656334 2.0775905 0.39167792 9
3.9723783 2.0802433 -0.71021259 8
3.9623826 2.0741274 0.54914331 9
3.994405 2.0899994 -0.55353063 7
3.9419594 2.0616844 0.7045809 8
3.9582539 2.0702066 -0.39080635 9
3.9303048 2.0547154 0.86207509 10
3.9792743 2.0794294 -0.23530249 9
3.9382336 2.0571105 1.0257769 13
3.9564927 2.0657668 -0.07790754 12
3.9236546 2.04775 1.1859089 11
3.1806803 1.6550537 -0.96073633 4
3.9419923 2.0503225 0.077558495 9
3.5808101 1.8616693 -0.93174726 2
3.9485362 2.0519781 0.23320904 10
3.9666708 2.0614023 -0.86894423 9
3.937499 2.045367 0.38819164 9
3.941047 2.0463369 -0.70332944 8
3.9273126 2.0383353 0.5432936 9
3.9699583 2.0595896 -0.54914331 7
3.9245818 2.0351794 0.70020074 10
3.944232 2.0453694 -0.38871458 7
3.9095657 2.0265267 0.85596919 10
3.9386275 2.040719 -0.23247635 10
3.9159729 2.0281141 1.0181284 13
3.9352658 2.0372353 -0.077349067 10
3.9050419 2.0207245 1.1781443 11
3.1812882 1.6412829 -0.95918339 4
3.924243 2.0237193 0.077069834 11
3.5942147 1.8527309 -0.93354684 2
3.9130647 2.0162261 0.2306969 10
3.9459195 2.0331547 -0.86283833 9
3.9233592 2.0206637 0.38609993 9
3.9306026 2.0235267 -0.70020074 8
3.8991015 2.0064487 0.53841883 9
3.9312272 2.0221102 -0.54280609 7
3.898283 2.0043068 0.69425625 10
3.9283128 2.0197465 -0.38644853 9
3.8904233 1.9994074 0.85024494 10
3.9173026 2.0123551 -0.2308016 9
3.884891 1.9948481 1.0082307 13
3.8960977 1.9997455 -0.076441541 9
3.8828521 1.9920887 1.1693444 12
3.2041974 1.6389648 -0.96435976 4
3.9027948 1.9954443 0.076511353 11
3.6006606 1.8401725 -0.93354684 2
3.8987362 1.9916505 0.22944085 9
3.9110324 1.997932 -0.85367942 8
3.8984482 1.9906479 0.38296232 9
3.9094918 1.9954245 -0.69519484 8
3.8848631 1.9819995 0.53549391 8
3.9099662 1.9939491 -0.53890634 7
3.863018 1.9691554 0.68674743 10
3.8820868 1.9788756 -0.38121921 9
3.8816357 1.9777923 0.84681034 10
3.9065046 1.9896073 -0.22975488 8
3.8623075 1.9662462 1.0005823 15
3.8674107 1.9679943 -0.075743444 11
3.8639526 1.9653879 1.16158 11
3.1926689 1.6190333 -0.95918339 3
3.8704967 1.9619174 0.075743444 11
3.6070626 1.8275917 -0.93354684 1
3.8842826 1.9672014 0.22818479 9
3.8987167 1.9745115 -0.8494817 9
3.8733771 1.960829 0.37982473 9
3.891758 1.9692785 -0.69081473 9
3.8634152 1.954092 0.5315941 8
3.8991871 1.9713309 -0.53646892 7
3.845186 1.9431844 0.68236721 10
3.8605201 1.9509335 -0.37843022 10
3.8534677 1.9465278 0.83917803 10
3.8813341 1.9597539 -0.22787078 8
3.8378327 1.9369465 0.99248403 15
3.849261 1.9418739 -0.075254776 11
3.8362906 1.9344908 1.1512272 11
3.2052054 1.611349 -0.961254 4
3.84516 1.9322319 0.075115159 11
3.6517298 1.8342353 -0.94344473 1
3.8732769 1.9446679 0.22713807 9
3.8669858 1.9415092 -0.84108603 9
3.8517067 1.9329966 0.37703574 9
3.854465 1.9335411 -0.68299294 8
3.8489192 1.9299161 0.52866924 8
3.8741012 1.9416968 -0.5320816 7
3.8307509 1.9191356 0.67861283 10
3.8316782 1.9196001 -0.37494397 8
3.804065 1.9049337 0.82696623 10
3.863148 1.933677 -0.22640537 9
3.8184278 1.9104615 0.9857356 15
3.8399198 1.9203745 -0.074940629 11
3.8188288 1.9089935 1.1439801 12
3.2211835 1.6053232 -0.96435976 3
3.8304021 1.9080993 0.074696302 10
3.6197326 1.8023669 -0.93354684 1
3.8299754 1.9062208 0.22420727 9
3.8491318 1.9157552 -0.83574343 9
3.8263218 1.903567 0.37389815 11
3.8311222 1.9051211 -0.67767417 8
3.8076375 1.8926117 0.52208835 8
3.8488555 1.9122641 -0.52769434 9
3.8197348 1.8969647 0.67548412 9
3.8276496 1.9008954 -0.37389815 8
3.7895899 1.8811674 0.82238686 10
3.8197777 1.8953242 -0.22347455 8
3.8041236 1.8867296 0.98033673 13
3.8197262 1.893635 -0.074417062 13
3.801235 1.8836439 1.1367333 12
3.2250361 1.593213 -0.96384215 3
3.8029726 1.8778938 0.074033104 12
3.6504662 1.8017966 -0.93984544 1
3.8043661 1.8769329 0.22232316 9
3.8241048 1.8866712 -0.82887435 9
3.8097136 1.8787421 0.3716321 11
3.8111713 1.8786364 -0.67298114 8
3.792851 1.8687832 0.51916343 8
3.8056438 1.8742588 -0.52086961 9
3.7979765 1.8696612 0.67047822 9
3.8092356 1.8752038 -0.37145776 9
3.778517 1.8592626 0.81857067 10
3.7976961 1.8678745 -0.22179982 9
3.7757106 1.8562428 0.97133869 15
3.7940071 1.8644179 -0.073788777 13
3.7765765 1.855032 1.1274159 13
3.2340481 1.5836442 -0.96487743 4
3.7843578 1.8523024 0.073544443 12
3.6252255 1.7736268 -0.93174726 1
3.7893643 1.8531115 0.22106709 11
3.7989216 1.8577852 -0.82200515 9
3.7876074 1.8514355 0.36884311 11
3.7946329 1.8540469 -0.66891384 8
3.7654607 1.8389795 0.51453239 8
3.794323 1.8522575 -0.5184322 9
3.7654231 1.8373336 0.66359508 9
3.7871091 1.8479153 -0.36866876 9
3.7585158 1.8331511 0.81284636 12
3.7862399 1.8458554 -0.2207531 9
3.7576413 1.8311014 0.96504009 16
3.7537501 1.8283944 -0.072881252 13
3.7535002 1.8274623 1.1186159 12
3.2256522 1.5655979 -0.96073633 4
3.77281 1.8303519 0.07319539 12
3.6489296 1.7694635 -0.93624628 1
3.768851 1.8268064 0.21949703 11
3.7841835 1.8342384 -0.81742579 9
3.7581871 1.8208276 0.36535689 11
3.7744145 1.8278743 -0.66422081 8
3.7557759 1.8180411 0.51233876 8
3.7757494 1.8268963 -0.51501989 9
3.7309129 1.8043965 0.65639907 11
3.7504897 1.8138645 -0.36448529 9
3.7436802 1.8097672 0.80826694 12
3.7782729 1.8256767 -0.2199157 9
3.7341793 1.8035643 0.95739168 16
3.7384994 1.8048486 -0.072462395 13
3.726799 1.798398 1.1087809 12
3.23458 1.5560029 -0.96177161 4
3.7323196 1.7946397 0.072287865 12
3.6445441 1.7516531 -0.93354684 1
3.7554018 1.8041251 0.21834564 11
3.7657883 1.8091147 -0.81208313 9
3.7411716 1.7964851 0.36309084 11
3.7522776 1.8010124 -0.65921491 8
3.7263041 1.7877455 0.50746399 8
3.7642045 1.8051206 -0.51258254 9
3.7193751 1.7828245 0.65327036 11
3.7316449 1.7887058 -0.36204496 9
3.7039418 1.7746319 0.79834485 12
3.7558017 1.798673 -0.21824095 9
3.7228744 1.7821054 0.95289266 18
3.7303462 1.7848819 -0.072183155 13
3.7051694 1.7720407 1.1004987 12
3.23476 1.5422091 -0.96021873 4
3.7132881 1.7695576 0.071799204 12
3.6435997 1.7355676 -0.93174726 1
3.7346268 1.7781272 0.21677555 11
3.7419462 1.781612 -0.80559564 11
3.7204337 1.7705731 0.36047614 11
3.7299998 1.7743273 -0.65420902 8
3.7145948 1.7662023 0.50502658 8
3.7346246 1.774929 -0.50770777 9
3.7005956 1.7579647 0.64889026 11
3.7090709 1.761991 -0.35925597 9
3.6852858 1.7499014 0.79300219 12
3.720557 1.7658559 -0.2158335 11
3.704423 1.7574064 0.94659406 18
3.7112586 1.7598537 -0.071694486 13
3.6938753 1.7508233 1.0953223 15
3.2593369 1.5399871 -0.9659127 4
3.694128 1.7446287 0.071310528 12
3.6654959 1.7303263 -0.93579644 2
3.6917369 1.7427136 0.21394941 12
3.7232854 1.7568096 -0.80025297 11
3.7121756 1.7507755 0.35908166 11
3.7075818 1.7478201 -0.64920312 8
3.683027 1.7354567 0.49990809 10
3.7120638 1.7483475 -0.5038079 9
3.6778119 1.7322152 0.64388436 11
3.700778 1.742245 -0.35786149 9
3.6665018 1.7253246 0.78765959 12
3.6923594 1.7367055 -0.21384473 9
3.671737 1.7262231 0.93669617 18
3.6881189 1.7339249 -0.071136013 13
3.6681895 1.7237737 1.0860047 13
3.2541957 1.5236846 -0.96280694 4
3.6890271 1.727282 0.071101107 12
3.6659191 1.7156823 -0.93444669 7
3.676089 1.7196599 0.21269335 12
3.7027175 1.7313292 -0.79452866 15
3.6929941 1.7259973 0.35664126 11
3.6936729 1.7263145 -0.64576155 11
3.6743729 1.7165129 0.49795815 10
3.6872635 1.721751 -0.49966437 10
3.6480355 1.7026584 0.63762695 11
3.677948 1.7158378 -0.3550725 9
3.6472938 1.701537 0.78231698 12
3.6691363 1.7109473 -0.21216999 11
3.6527126 1.7025129 0.93039757 18
3.6597085 1.7049961 -0.070472814 14
3.6549199 1.7019889 1.0803107 17
3.260983 1.5136974 -0.96332449 4
3.6605685 1.6984042 0.070437916 13
3.6877966 1.7102532 -0.93849587 8
3.665761 1.6992565 0.2117513 11
3.7102206 1.7198658 -0.79491037 26
3.6607342 1.6961524 0.35298076 12
3.6942995 1.7109193 -0.64482296 28
3.6587255 1.6936687 0.49503332 10
3.6896472 1.7072031 -0.49917686 25
3.6252706 1.6766459 0.63262105 11
3.6658306 1.6946279 -0.35332939 33
3.6282628 1.6772611 0.77697426 12
3.6732726 1.6972921 -0.21206531 30
3.6338651 1.6783117 0.92409897 24
3.6492982 1.6846666 -0.070158668 27
3.6240017 1.6722238 1.0694402 24
3.2717748 1.5041567 -0.96487743 5
3.6337709 1.6705799 0.069809623 39
3.6990559 1.6998118 -0.93984544 8
3.6680403 1.6847841 0.21154197 37
3.7218516 1.7087139 -0.7960552 26
3.6451967 1.6727512 0.350889 24
3.7005448 1.6973683 -0.64482296 26
3.6375496 1.6684736 0.4913772 12
3.7009981 1.6967944 -0.49990809 23
3.622122 1.6598672 0.63105673 14
3.6807799 1.6859705 -0.35420093 27
3.6129649 1.6541451 0.7723949 13
3.6812854 1.6846478 -0.21216999 27
3.6204979 1.6560657 0.91914994 13
3.6569746 1.6727507 -0.070193581 32
3.6017067 1.6467103 1.0611582 16
3.2699728 1.4895242 -0.96280694 4
3.6471491 1.6605656 0.069949247 31
3.7052615 1.6862417 -0.93984544 7
3.6578281 1.6638867 0.21059991 31
3.7367282 1.699777 -0.79796326 27
3.6564543 1.6624916 0.35141194 34
3.7136409 1.6877087 -0.64607441 26
3.6346042 1.6510242 0.49015856 32
3.7089994 1.6840396 -0.50015181 23
3.617389 1.6416812 0.62917954 35
3.6975288 1.6780512 -0.35524681 24
3.6062021 1.6358454 0.76972359 40
3.6780481 1.6676644 -0.21164663 24
3.6049576 1.6337639 0.91375118 36
3.674011 1.6642859 -0.07040301 30
3.598918 1.6295149 1.0585699 23
3.2857175 1.4828681 -0.9659127 4
3.6693289 1.6552237 0.070263386 28
3.7057946 1.6708974 -0.93849587 7
3.6654351 1.6519278 0.21070457 30
3.7569585 1.6931753 -0.80101627 26
3.6676853 1.652172 0.35193488 31
3.7285147 1.6787931 -0.6476388 25
3.6493959 1.6424011 0.4913772 27
3.7130451 1.6702672 -0.49990809 23
3.6357079 1.6347171 0.63136959 34
3.7124488 1.669222 -0.35611835 23
3.6172619 1.6256624 0.77086836 33
3.6947792 1.659725 -0.21227466 23
3.6070833 1.6195729 0.91285133 30
3.6816218 1.6522706 -0.070437916 32
3.6010592 1.61536 1.0575346 27
3.2838197 1.4682348 -0.96384215 4
3.6805608 1.6448538 0.070368104 31
3.7258394 1.664309 -0.94209504 5
3.6802983 1.6431935 0.21122794 30
3.7592611 1.678449 -0.80025297 26
3.6788881 1.641796 0.35245782 33
3.7487848 1.6722046 -0.65014172 25
3.6641726 1.6336933 0.49259594 28
3.7242923 1.6597209 -0.50063932 22
3.6413922 1.6220152 0.63136959 32
3.7237132 1.658684 -0.35664126 24
3.6336763 1.6178161 0.77315807 31
3.7169721 1.6541269 -0.21321672 26
3.6233969 1.6117264 0.91555077 31
3.6965034 1.6434702 -0.070612431 34
3.6190336 1.6082727 1.0611582 30
3.2924566 1.4583303 -0.96487743 4
3.691766 1.6344239 0.070472814 31
3.7334085 1.6520807 -0.94254488 2
3.6969702 1.6351869 0.21185598 31
3.7668908 1.666113 -0.80063456 26
3.6864192 1.6297489 0.35263211 35
3.7708609 1.6662934 -0.65295756 26
3.680747 1.6257076 0.49405837 28
3.7482238 1.6547269 -0.50307667 22
3.6506467 1.6108882 0.63199526 34
3.7331266 1.6472834 -0.35698992 24
3.6482816 1.6090862 0.7750662 30
3.7355168 1.6467807 -0.21394941 24
3.6343513 1.6014251 0.91690052 27
3.7058768 1.6321715 -0.07068225 34
3.6210895 1.5940723 1.0601228 27
3.2992966 1.4476038 -0.96539509 4
3.6974492 1.6215262 0.070472814 31
3.7373679 1.6382571 -0.94209504 2
3.7115188 1.6269263 0.21237932 30
3.7870703 1.6592561 -0.80368757 26
3.6957364 1.6184685 0.35298076 30
3.7603674 1.6459924 -0.65014172 25
3.6882184 1.6136442 0.49430209 27
3.7594337 1.6440181 -0.5038079 21
3.6650188 1.60273 0.63355964 30
3.7425048 1.6358392 -0.35733855 24
3.6484797 1.5939826 0.77392131 31
3.7412429 1.6337303 -0.21394941 23
3.657779 1.5965253 0.92139953 28
3.7277639 1.6270719 -0.070996389 30
3.6369796 1.5866914 1.0632287 30
3.3096442 1.4383889 -0.96694797 4
3.7101409 1.6124469 0.070612431 28
3.7338424 1.6219729 -0.93984544 1
3.7299995 1.6195279 0.21311203 31
3.8000426 1.6491538 -0.80521399 24
3.7123291 1.6103178 0.35402662 31
3.7766781 1.6382309 -0.6520189 25
3.6953707 1.6021935 0.49454582 28
3.77215 1.6347004 -0.50478286 21
3.6887162 1.5977808 0.63668835 30
3.7664764 1.6306803 -0.35908166 26
3.6591508 1.5842141 0.7750662 30
3.7466397 1.6213157 -0.21394941 24
3.6594756 1.5828403 0.92049968 27
3.748105 1.6203969 -0.071275629 34
3.6513631 1.5778167 1.0658169 27
3.3108478 1.4258767 -0.9659127 4
3.7359519 1.6081825 0.070996389 31
3.7502222 1.6135497 -0.94254488 1
3.7337949 1.6057097 0.21300736 28
3.8036876 1.6357669 -0.8048324 23
3.7304623 1.603505 0.35524681 33
3.7950785 1.6304951 -0.65420902 26
3.7045887 1.5908518 0.49503332 28
3.7760086 1.620741 -0.50453913 22
3.6997173 1.5872306 0.63762695 32
3.7791872 1.6213242 -0.35977891 24
3.6754842 1.5760748 0.77735591 30
3.7596188 1.6113756 -0.2143681 26
3.6685615 1.5715905 0.92139953 27
3.7555771 1.6080897 -0.071310528 32
3.6621761 1.5673425 1.0673697 30
3.3264663 1.4188594 -0.96901858 4
3.7489009 1.5982677 0.071136013 30
3.7486606 1.5973942 -0.94074529 1
3.7393768 1.5926672 0.21300736 28
3.8184052 1.6263268 -0.80674046 23
3.7378705 1.591253 0.3554211 31
3.8098352 1.6211059 -0.6557734 25
3.7229059 1.5833498 0.49673948 26
3.7852972 1.6091026 -0.50502658 22
3.6943264 1.5696725 0.63574976 32
3.7848232 1.6081233 -0.35977891 26
3.6936126 1.568608 0.78002721 31
3.7799287 1.6044843 -0.21520546 24
3.6829948 1.5625818 0.92364907 27
3.7556443 1.5926293 -0.071205825 30
3.6782975 1.5590721 1.0704756 30
3.3064849 1.396714 -0.96177161 4
3.7655098 1.5898396 0.071345441 30
3.754214 1.5842983 -0.94074529 1
3.7559557 1.5842611 0.2136354 28
3.8331037 1.6168021 -0.80864859 23
3.7452383 1.5789706 0.35559544 33
3.8191116 1.6093303 -0.65639907 23
3.7357285 1.5734258 0.49771443 27
3.8055272 1.602042 -0.50697654 23
3.705246 1.5590646 0.63668835 30
3.7995958 1.5987645 -0.36065045 23
3.7026849 1.5572265 0.78079039 31
3.7965531 1.5959246 -0.2158335 22
3.6992064 1.5542442 0.92634839 27
3.7667115 1.5818334 -0.071310528 32
3.6783731 1.5439807 1.0689226 27
3.3327265 1.3941107 -0.96798331 4
3.7599669 1.5720583 0.071136013 31
3.7723081 1.576443 -0.94389462 1
3.776206 1.5772997 0.21447276 28
3.8514049 1.6087099 -0.81131989 23
3.756242 1.5681911 0.35611835 31
3.8356447 1.6005526 -0.65827632 25
3.7485259 1.5634334 0.49868938 27
3.8257544 1.5948581 -0.50892639 22
3.7234302 1.5514388 0.63887841 27
3.8106713 1.5877895 -0.36117339 24
3.7117229 1.5458027 0.78155369 33
3.8076332 1.5849642 -0.21614751 22
3.7172043 1.5465612 0.92949772 27
3.7869811 1.5748191 -0.071589775 32
3.696228 1.5363206 1.0725461 30
3.3322184 1.38025 -0.96643037 3
3.7765167 1.5635144 0.071345441 30
3.7777879 1.5632662 -0.94389462 1
3.7816892 1.5641077 0.21447276 28
3.8624401 1.5975063 -0.81246477 23
3.776423 1.56116 0.35751286 30
3.8448596 1.5886637 -0.65890205 25
3.7539608 1.5503381 0.49868938 27
3.8349681 1.5830097 -0.5094139 23
3.7397788 1.5429533 0.64075565 29
3.8272407 1.5790383 -0.36221924 24
3.7298012 1.5380751 0.78422499 34
3.809449 1.570142 -0.21593818 20
3.7225797 1.5335771 0.92949772 27
3.8035502 1.5661577 -0.071799204 32
3.7140732 1.5285565 1.0761696 31
3.3423781 1.3708099 -0.96798331 4
3.7986047 1.5571477 0.071659587 31
3.8012536 1.5574589 -0.94839364 1
3.7871256 1.5508984 0.21447276 30
3.8770759 1.5877348 -0.81437284 24
3.7929132 1.5524957 0.35855874 30
3.8613513 1.5797194 -0.66077924 23
3.7685368 1.5409825 0.49990809 25
3.8404703 1.5696143 -0.5094139 23
3.7597716 1.5358648 0.64325857 29
3.8437963 1.5701889 -0.36326513 26
3.7424173 1.5280155 0.78575146 33
3.8241525 1.560609 -0.21646154 22
3.7279108 1.5205724 0.92949772 28
3.8182528 1.5566448 -0.071973726 34
3.7301199 1.5199573 1.0792755 28
3.3525126 1.3613139 -0.96953619 4
3.8169875 1.5491415 0.071903922 33
3.7849972 1.5353911 -0.94299489 1
3.8036218 1.542171 0.2151008 30
3.886234 1.575666 -0.81513608 23
3.8001561 1.5399936 0.35873303 30
3.8759956 1.569942 -0.66234362 23
3.7775738 1.5293075 0.5003956 26
3.8532867 1.5591764 -0.51038885 23
3.7669404 1.5234747 0.6435715 32
3.8566411 1.5597525 -0.36396238 26
3.7586498 1.5193564 0.78804117 33
3.8425395 1.5524869 -0.21719423 22
3.7404225 1.5104718 0.93129742 28
3.83108 1.5463017 -0.072113343 34
3.7425692 1.5098174 1.0813459 27
3.342905 1.343838 -0.96539509 3
3.8316488 1.5395368 0.072078437 31
3.804801 1.5279783 -0.94659406 1
3.8275177 1.5363234 0.21614751 30
3.9062867 1.5679405 -0.81818902 26
3.8073573 1.5274619 0.35890734 30
3.8851194 1.5578719 -0.66296935 23
3.8013153 1.5234957 0.50283301 25
3.8826611 1.5553132 -0.51355743 23
3.7795713 1.5132523 0.64482296 30
3.8657622 1.5477611 -0.36431101 24
3.7730446 1.509873 0.7899493 33
3.8627706 1.544999 -0.21803163 22
3.7619581 1.5039154 0.93534642 31
3.8401687 1.5344023 -0.072183155 35
3.7442286 1.4953121 1.0803107 28
3.3511646 1.3335916 -0.96643037 3
3.8332837 1.5246735 0.072008632 33
3.7883809 1.5060478 -0.94119519 1
3.8437266 1.5280502 0.21677555 28
3.9153841 1.5557481 -0.81895226 24
3.8163698 1.5156322 0.35925597 30
3.8905342 1.5442998 -0.66296935 23
3.8084545 1.5109521 0.50307667 25
3.906249 1.5497507 -0.51599485 24
3.7882414 1.5021656 0.64544868 30
3.8785505 1.5371928 -0.36500823 24
3.7801161 1.497419 0.79033089 33
3.8792825 1.5359166 -0.21865964 20
3.785044 1.4986049 0.93984544 31
3.8582518 1.526811 -0.072427489 35
3.7635379 1.4885726 1.0844518 28
3.3519742 1.3210539 -0.96539509 3
3.8438997 1.5141526 0.072113343 31
3.811486 1.5006183 -0.94569421 1
3.852489 1.5167615 0.21698491 28
3.93331 1.5477867 -0.82162356 26
3.8343537 1.5080739 0.36047614 30
3.9121788 1.5378968 -0.66578513 25
3.8152916 1.4990392 0.5033204 25
3.9076715 1.5353355 -0.51550734 24
3.8152659 1.4982605 0.64920312 30
3.8929005 1.5279614 -0.36587983 23
3.792372 1.4877424 0.79185736 33
3.8843541 1.5230446 -0.21865964 20
3.800878 1.4903139 0.94254488 31
3.8670173 1.5154662 -0.072497301 37
3.7828438 1.4817197 1.088593 28
3.3689337 1.3148483 -0.96901858 4
3.8638041 1.5072104 0.072392583 30
3.8055482 1.4837226 -0.94299489 1
3.854038 1.5018531 0.21677555 30
3.9439087 1.5368743 -0.82276845 26
3.8523297 1.5004109 0.3616963 31
3.9246209 1.5277804 -0.66703665 25
3.8294916 1.4899788 0.50453913 25
3.9130073 1.5216848 -0.51550734 24
3.8241544 1.4863656 0.64982885 32
3.9093521 1.5186948 -0.36692566 23
3.8100941 1.4801353 0.79452866 36
3.8949695 1.5123229 -0.21897365 23
3.8024235 1.4756281 0.94164515 30
3.8909266 1.5091928 -0.072846346 37
3.7988012 1.4726949 1.0916989 28
3.3773344 1.3038839 -0.97005379 5
3.8802338 1.4980378 0.072602011 31
3.8325214 1.478847 -0.94839364 1
3.8704386 1.4927021 0.21740359 28
3.9550104 1.524528 -0.82391334 26
3.8652394 1.4891474 0.36239356 31
3.9504721 1.5211929 -0.67047822 26
3.8494895 1.4823079 0.50648904 23
3.9294102 1.5122975 -0.5169698 23
3.8311639 1.4737159 0.65014172 29
3.9257879 1.5093281 -0.36797154 23
3.8246572 1.4696809 0.79643679 34
3.9154019 1.5037667 -0.21981104 22
3.8114452 1.4630773 0.94254488 31
3.899905 1.4970338 -0.07291615 35
3.809329 1.4615022 1.0932516 30
3.3710375 1.2879492 -0.96694797 4
3.8950398 1.4873699 0.072776534 33
3.8215299 1.4585372 -0.94434458 2
3.8908119 1.4842017 0.21824095 27
3.9713142 1.5149103 -0.82620305 27
3.8685527 1.4749353 0.36221924 30
3.9557576 1.5073948 -0.67047822 26
3.867882 1.4731354 0.50819516 26
3.9534798 1.5049446 -0.51940715 25
3.8383851 1.4603674 0.65045458 30
3.9291701 1.4949079 -0.36779723 24
3.8481147 1.4633003 0.80025297 33
3.924361 1.491508 -0.22002037 23
3.8274591 1.4539168 0.94524431 31
3.9128435 1.48557 -0.073055774 37
3.8092425 1.4454736 1.0916989 27
3.3863549 1.2802739 -0.97005379 4
3.8927248 1.4709401 0.072636917 33
3.8174827 1.4417452 -0.94209504 3
3.9071805 1.4748421 0.21886899 28
3.9894359 1.505891 -0.82887435 28
3.882998 1.4649397 0.36309084 31
3.9720857 1.497758 -0.67235541 28
3.8822889 1.4631244 0.5094139 26
3.9717124 1.4960339 -0.52111334 25
3.8619471 1.4539189 0.65358323 32
3.9380937 1.482586 -0.36814582 24
3.8458495 1.4470924 0.7987265 33
3.937021 1.4806135 -0.22043908 26
3.8544014 1.4487745 0.95064318 31
3.9273653 1.4754176 -0.073230296 37
3.828733 1.4376014 1.0958399 28
3.3871849 1.2670909 -0.96901858 4
3.929678 1.4692472 0.073230296 30
3.8206666 1.4277295 -0.94164515 7
3.9160469 1.462593 0.21907835 28
4.0093803 1.4974519 -0.83192724 57
3.9030206 1.4569516 0.36448529 31
3.988394 1.4880276 -0.67423266 55
3.883652 1.4481773 0.50892639 26
3.9862108 1.4856282 -0.52233207 42
3.8873615 1.4480133 0.65702486 34
3.9656503 1.4771752 -0.37023759 46
3.8563969 1.4357148 0.79987139 33
3.9608841 1.4738278 -0.22148579 38
3.8594351 1.4353102 0.95064318 31
3.9456117 1.4665773 -0.073474631 40
3.8464036 1.4289379 1.0994633 26
3.395211 1.2565999 -0.97005379 5
3.9329071 1.4548283 0.07319539 37
3.8000374 1.4049222 -0.93534642 2
3.9304957 1.4523748 0.21960169 31
4.0035343 1.4793637 -0.82963753 27
3.9267719 1.4502221 0.36622843 31
3.9954176 1.4747795 -0.67454553 41
3.9017203 1.4394205 0.51063257 26
3.9932344 1.4723923 -0.5225758 51
3.888685 1.4330695 0.65639907 32
3.98013 1.4667691 -0.37110916 77
3.8687539 1.4249579 0.80139786 33
3.9791238 1.4648232 -0.2222185 92
3.8571062 1.4191389 0.9488436 30
3.9619687 1.4569358 -0.073684059 95
3.8622484 1.4195004 1.1025692 27
3.4032044 1.24607 -0.97108907 4
3.9529843 1.4465874 0.073474631 91
3.8140693 1.3949969 -0.93759602 1
3.9486725 1.4434468 0.2203344 100
4.0031419 1.4633583 -0.82849264 17
3.9449103 1.4412911 0.3674486 66
3.9894075 1.4567593 -0.67266828 11
3.9309633 1.4346405 0.51380116 43
3.9871604 1.4543618 -0.52111334 11
3.8973751 1.420841 0.65702486 37
3.9796097 1.4508206 -0.37058622 12
3.8958397 1.4195108 0.80597723 33
3.9823368 1.4502403 -0.22211383 22
3.8803482 1.4123323 0.95334262 30
3.9444792 1.4348946 -0.07326521 48
3.8744416 1.4086511 1.1046398 26
3.4002681 1.2315506 -0.96901858 5
3.9711723 1.4375437 0.073718965 39
3.82991 1.3856537 -0.94029546 1
3.9649565 1.4337286 0.22096242 53
4.0156116 1.4520454 -0.83001924 31
3.9555392 1.4295427 0.36797154 100
4.007473 1.4475231 -0.67485833 43
3.9452834 1.4242795 0.51501989 100
3.9959481 1.4417816 -0.52160084 40
3.9060268 1.4085686 0.65765053 87
3.9640326 1.4294864 -0.36866876 30
3.9118526 1.409896 0.80826694 82
3.9836171 1.4349756 -0.22190447 24
3.9017558 1.4047204 0.95739168 61
3.956991 1.4238241 -0.073404826 19
3.8811531 1.3957709 1.1051573 38
3.4081826 1.2209792 -0.97005379 5
3.9460435 1.4128885 0.073160492 22
3.8090367 1.363083 -0.93399686 2
3.9680562 1.4192078 0.22085775 33
4.0003204 1.4307473 -0.82582134 26
3.979018 1.421562 -0.66922677 26
3.9408829 1.4071623 0.51380116 15
3.9934781 1.4251564 -0.52062589 24
3.9109204 1.3949245 0.65765053 34
3.9727521 1.4169784 -0.36901742 30
3.9056554 1.3922763 0.80597723 60
3.9867201 1.4203919 -0.22179982 35
3.9158149 1.3943597 0.95964122 76
3.9600527 1.4093313 -0.073369913 43
3.8896418 1.3835102 1.1061926 100
3.4160664 1.2103646 -0.97108907 5
3.9471817 1.3977695 0.07309068 40
3.8266308 1.3543308 -0.93714613 2
3.9635711 1.4020187 0.2203344 42
3.9867814 1.4102288 -0.82200515 23
3.9541521 1.3979084 0.36692566 61
3.9671926 1.4017419 -0.66641092 23
3.9420276 1.3920764 0.51331371 37
3.9759655 1.4032786 -0.51770103 24
3.923218 1.3838919 0.65890205 21
3.9720376 1.4011128 -0.36849448 26
3.8993814 1.3747207 0.80368757 15
3.9558632 1.3938551 -0.21981104 26
3.9630611 1.3948386 -0.073335014 37
3.4202707 1.198432 -0.97108907 5
3.9482613 1.3826636 0.073020868 34
3.8239777 1.3383888 -0.93534642 2
3.9495888 1.3815789 0.21928766 28
3.9694428 1.3885239 -0.81742579 23
3.9608877 1.3847576 0.3671 31
3.9627378 1.3846263 -0.66484654 23
3.9356182 1.3743796 0.51185131 26
3.9564734 1.3808901 -0.51453239 22
3.9280245 1.3701899 0.65890205 39
3.9580915 1.3806779 -0.36675134 26
3.911572 1.3636851 0.80521399 42
3.9437289 1.3741262 -0.21886899 27
3.9015298 1.3586569 0.95379245 43
3.9433544 1.3724502 -0.072881252 37
3.9010308 1.3569545 1.1067102 38
3.4353852 1.1902812 -0.97419494 4
3.9379473 1.3636374 0.072741628 33
3.8433595 1.3301303 -0.93894571 6
