# .PCD v0.7 - Point Cloud Data file format
VERSION 0.7
FIELDS x y z intensity
SIZE 4 4 4 4
TYPE F F F F
COUNT 1 1 1 1
WIDTH 1400
HEIGHT 1
VIEWPOINT 0 0 0 1 0 0 0
POINTS 1400
DATA ascii
5.8426747 3.4292498 -0.35504717 14
5.7030063 3.3459322 1.5265179 23
5.8044267 3.4040775 -0.1174547 25
5.6980691 3.3403664 1.7698047 23
3.085397 1.8036823 -0.95763052 4
5.8132191 3.3969736 0.1175245 27
3.4646893 2.0237916 -0.92634839 2
5.8176703 3.396848 0.3530584 16
3.9486115 2.3055334 -0.88878828 1
5.7868686 3.3775127 0.58620954 22
4.5965743 2.6817207 -0.84286904 1
5.775424 3.3681273 0.820912 14
5.5016155 3.2071636 -0.78191376 1
5.7500339 3.3506312 1.0540556 22
5.8649707 3.4176064 -0.59387922 19
5.756043 3.3527873 1.2948298 27
5.8684163 3.4168746 -0.35588452 13
5.7298088 3.3348281 1.5305669 21
5.8318305 3.3928437 -0.11776884 25
5.7180452 3.3253102 1.772393 23
3.0983586 1.7967784 -0.95970106 4
5.8267727 3.3776627 0.11755942 22
3.4767916 2.0146153 -0.92769814 2
5.8398614 3.3825271 0.35368642 14
3.9855156 2.3084648 -0.89527589 1
5.805521 3.3612838 0.58690673 24
4.6332631 2.6814897 -0.84787488 1
5.804328 3.3578885 0.82334936 14
5.4852824 3.1720386 -0.77801394 1
5.7719555 3.336472 1.0559328 20
5.8906631 3.405091 -0.59527373 19
5.7626109 3.3297288 1.2936851 25
5.894145 3.4043593 -0.35672191 13
5.7582903 3.3245521 1.535066 23
5.8592253 3.3814635 -0.11808299 25
5.7346373 3.3082275 1.7739457 23
3.0995874 1.7830629 -0.95814812 3
5.8489289 3.3632822 0.11776884 22
3.4787335 1.999554 -0.92634839 2
5.8683615 3.3730972 0.35473314 14
4.0514278 2.3277919 -0.90825087 1
5.8275857 3.3469503 0.58795261 22
4.6151843 2.6495652 -0.84286904 1
5.8160148 3.3376057 0.82334936 13
5.5032101 3.1568213 -0.7789889 1
5.7966962 3.3251746 1.0584357 20
5.9111543 3.3894644 -0.59614527 16
5.7793097 3.3125207 1.2948298 23
5.9059935 3.3837626 -0.35672191 13
5.7698593 3.3044329 1.535066 21
5.8808174 3.367979 -0.11829241 22
5.7573133 3.2959096 1.7775693 21
3.112504 1.7760631 -0.96021873 3
5.8791528 3.3547738 0.1181528 20
3.5005805 1.996696 -0.93039757 2
5.8818359 3.3535798 0.35483781 13
4.0458827 2.3058598 -0.90519798 1
5.8530817 3.3344791 0.58934712 19
4.6239457 2.6342449 -0.84286904 1
5.8305001 3.3202662 0.8238368 13
5.4273887 3.0894544 -0.76680195 1
5.8185687 3.3107829 1.060313 20
5.940269 3.3786585 -0.59788835 16
5.8022075 3.3001332 1.2975012 23
5.9223905 3.3671217 -0.35703593 9
5.7757039 3.2823906 1.5337163 19
5.9116645 3.358294 -0.11867636 17
5.7839012 3.2843792 1.782228 21
3.118377 1.7657311 -0.96021873 3
5.897789 3.3381696 0.11829241 20
3.4990489 1.9796656 -0.92814809 2
5.9033551 3.339956 0.35546586 13
4.0364175 2.2827666 -0.90138179 1
5.8866539 3.3277986 0.59161317 16
4.6331139 2.6180868 -0.84286904 1
5.8576093 3.3086817 0.82603049 9
5.4588828 3.0822039 -0.76972687 1
5.8312354 3.2924423 1.0606258 10
5.9566469 3.3618777 -0.59841132 19
5.8256617 3.2866106 1.3001726 17
5.9393258 3.3493726 -0.35734996 13
5.8108935 3.2756054 1.5400149 14
5.9175439 3.3357244 -0.11857165 25
5.8014941 3.2689729 1.7842987 17
3.1245222 1.7548343 -0.96021873 4
5.9210324 3.3254464 0.11853675 22
3.5072937 1.9690062 -0.92859799 2
5.9167175 3.3203106 0.35557052 16
4.0169654 2.2532942 -0.89527589 1
5.8930225 3.3043056 0.59109026 29
4.6762295 2.6220317 -0.8491264 1
5.8841333 3.2979755 0.82822412 14
5.4690747 3.0640831 -0.76972687 1
5.837523 3.26917 1.0596871 20
5.9631276 3.3381491 -0.59788835 16
5.8502316 3.27495 1.3032255 27
5.9591155 3.3345337 -0.35787329 11
5.8268256 3.2591729 1.5413646 21
5.9413671 3.3218832 -0.11881598 22
5.8128691 3.2487032 1.7842987 21
3.1083863 1.7322385 -0.95348942 3
5.9256177 3.3008637 0.11839712 22
3.5124424 1.9558042 -0.92814809 2
5.9422336 3.3074062 0.35640791 14
4.0415697 2.2495098 -0.89909208 1
5.9091706 3.2876496 0.59161317 24
4.1674438 2.3176653 -0.75526565 4
5.9060202 3.283201 0.82968652 13
4.1783433 2.3218157 -0.58692282 2
5.8730745 3.2622035 1.0640674 21
4.1439996 2.3008413 -0.41468704 3
5.8599124 3.2535543 1.3028439 25
4.1248441 2.2892613 -0.24723509 1
5.8500938 3.2454324 1.5445139 23
4.1359205 2.2935233 -0.082549877 1
5.8275537 3.2302644 1.7853339 21
3.1350052 1.7320454 -0.95970106 3
4.1150131 2.2734859 0.082061216 3
3.5056012 1.9359937 -0.9245488 2
4.1195359 2.2741055 0.24660707 3
4.0807276 2.2517557 -0.90596116 1
4.1224952 2.2738624 0.41189805 1
4.1430435 2.2842531 -0.74932122 6
5.9174457 3.2625637 0.82968652 1
4.1725125 2.2995539 -0.58497292 4
5.9034591 3.2521658 1.0675089 5
4.1240816 2.2709837 -0.41189805 8
5.8666372 3.2292161 1.301699 10
4.1279564 2.2712402 -0.24692108 9
5.8739033 3.2305412 1.5476632 12
4.1246276 2.2684708 -0.082165927 10
5.852335 3.2173524 1.789475 14
3.1444206 1.7229475 -0.96073633 3
4.093502 2.242059 0.081467837 10
3.5195103 1.9268762 -0.92634839 2
4.0980577 2.2426925 0.24482764 9
4.0678964 2.2261865 -0.90138179 1
4.1041889 2.2451146 0.40928334 8
4.1128612 2.2489283 -0.74243808 6
4.0951624 2.2383223 0.5730297 8
4.1164589 2.249027 -0.57595456 7
4.0793643 2.2278385 0.73618072 11
4.1040058 2.2412958 -0.40910906 8
4.0633326 2.2181628 0.89985526 10
4.0937824 2.2338552 -0.24440894 7
4.0563011 2.212487 1.0667179 9
4.0942883 2.2322795 -0.081398018 10
4.0490551 2.2066987 1.2356021 4
3.1504157 1.7119615 -0.96073633 3
4.081975 2.2172558 0.081083886 8
3.5347786 1.9192275 -0.92859799 2
4.0742636 2.2112257 0.24294353 9
4.0497594 2.1979268 -0.89565748 3
4.0699687 2.2079756 0.4050999 8
4.0963759 2.2213738 -0.73805791 6
4.0645561 2.2032032 0.56766742 8
4.0823941 2.2119508 -0.57010484 7
4.0436921 2.1900654 0.72835892 8
4.0837736 2.2117736 -0.40632007 7
4.0399747 2.1871405 0.89298618 13
4.0787182 2.2071974 -0.24304819 9
4.0468593 2.1890414 1.0622189 12
4.0457678 2.1875381 -0.080281071 12
4.0312395 2.1787763 1.2278377 12
3.1529715 1.6991204 -0.95970106 3
4.0491986 2.181181 0.080281071 10
3.5431705 1.9078033 -0.92904782 2
4.0520601 2.180898 0.24116412 7
4.0470352 2.1781933 -0.89336777 9
4.035542 2.1710992 0.40091643 8
4.0762682 2.1920927 -0.73305202 6
4.0477433 2.175842 0.56425512 8
4.0656099 2.1845315 -0.56669247 7
4.0130258 2.1553748 0.72147578 7
4.0317907 2.1654534 -0.40039349 9
4.0181789 2.157239 0.88649869 12
4.0582409 2.1778347 -0.24137343 9
4.016696 2.1546371 1.0523211 12
4.0251808 2.1582839 -0.079722598 12
4.0030632 2.1455255 1.2169672 10
3.163995 1.6908348 -0.961254 4
4.0144548 2.1444213 0.07944335 11
3.5635614 1.902766 -0.93264711 2
4.0367427 2.1545136 0.23980337 9
4.0476866 2.1603546 -0.89184129 12
4.0184851 2.1438704 0.39847603 8
4.029861 2.1490362 -0.72335303 8
4.0167761 2.1411555 0.55889291 8
4.0556908 2.1609926 -0.56425512 7
3.9891419 2.12464 0.71584421 8
4.0094299 2.1354454 -0.39743021 7
3.9892921 2.1238239 0.87848467 10
4.0376077 2.1486442 -0.23969871 9
3.9949441 2.1250458 1.0446726 13
3.9973783 2.1254435 -0.079024501 12
3.9815283 2.116127 1.2081673 12
3.1664639 1.6779717 -0.96021873 3
3.9830406 2.1098018 0.078675449 11
3.5546823 1.8821075 -0.92859799 2
4.0054021 2.1198564 0.23750059 9
4.0291743 2.1324377 -0.88611698 10
3.997767 2.1149225 0.39568707 8
4.0093985 2.1201804 -0.71834713 8
3.982105 2.1048584 0.55304313 8
4.0210862 2.1245651 -0.5584054 7
3.97208 2.0977857 0.71146405 8
3.9957187 2.1102703 -0.39533845 7
3.9584854 2.0897226 0.87008911 10
3.9885583 2.1047084 -0.23634921 9
3.9575226 2.0874484 1.0329752 13
3.983546 2.1002862 -0.078605637 10
3.9598372 2.0869029 1.1993675 11
3.1791418 1.6705036 -0.96228927 4
3.9620547 2.0810084 0.078116976 9
3.5629549 1.8705943 -0.92904782 2
3.9703324 2.0835886 0.23498847 10
3.9983475 2.0982907 -0.87772143 10
3.9733665 2.0842941 0.39254946 9
3.9747875 2.0841575 -0.71083826 8
3.9665706 2.0789664 0.54987448 9
3.9862769 2.0884056 -0.55255568 7
3.9478788 2.0674133 0.70583236 8
3.9765844 2.0824459 -0.39272377 9
3.9379256 2.0613253 0.86398321 10
3.9711065 2.0778089 -0.2348838 9
3.933702 2.0573659 1.024877 13
3.9731312 2.0771046 -0.078256592 12
3.9362793 2.0569618 1.19005 11
3.1849532 1.6593966 -0.96228927 5
3.9515595 2.0579283 0.077767923 11
3.5798349 1.8635437 -0.93174726 2
3.9382458 2.0501208 0.23268569 9
3.9551413 2.0580413 -0.86665452 9
3.9505684 2.0547833 0.38958618 9
3.9575021 2.057512 -0.70645815 8
3.9385741 2.0468009 0.54499972 9
3.9583099 2.0561776 -0.54768091 7
3.9126422 2.032455 0.69832355 8
3.9520018 2.0520248 -0.38958618 9
3.9276719 2.038522 0.86016703 10
3.9411042 2.0446203 -0.23268569 9
3.9183705 2.0319583 1.0190283 13
3.9231911 2.0344582 -0.077139638 12
3.9139211 2.0287843 1.1812501 11
3.1855774 1.6456082 -0.96073633 3
3.937042 2.0338004 0.077349067 11
3.5877261 1.8525573 -0.93219715 2
3.9240804 2.0253699 0.23142964 10
3.9448545 2.0352204 -0.86283833 9
3.9258423 2.024544 0.38644853 9
3.9397235 2.0317025 -0.70207798 8
3.917109 2.0191751 0.54109991 9
3.9404016 2.0303113 -0.54426849 7
3.8898582 2.0034099 0.69300479 10
3.9130831 2.0145073 -0.38505405 9
3.9064815 2.0111089 0.85406113 10
3.9247751 2.0196602 -0.23132494 9
3.8973608 2.0046904 1.0118299 13
3.905371 2.007951 -0.07665097 11
3.8763046 1.9921515 1.1677916 11
3.199614 1.6394392 -0.96332449 4
3.8871629 1.9908737 0.076232105 11
3.5854971 1.8355831 -0.92994767 2
3.9097908 2.0007405 0.23017356 9
3.9201231 2.0060279 -0.85596919 8
3.8899636 1.989738 0.38226506 9
3.9080968 1.9981551 -0.69519484 8
3.8887815 1.9874212 0.53622514 8
3.9191804 2.0020943 -0.54036868 9
3.8757157 1.9790401 0.68925035 10
3.8842525 1.9833993 -0.38156784 9
3.8680136 1.974254 0.84413904 10
3.9051158 1.9923321 -0.22975488 9
3.8748212 1.9760264 1.0041815 15
3.8695991 1.97251 -0.075813256 11
3.8643017 1.96896 1.1620976 11
3.2035947 1.6273863 -0.96280694 4
3.8691261 1.9646188 0.075743444 11
3.5884078 1.8212911 -0.92904782 1
3.8989389 1.9780451 0.22912684 8
3.9060915 1.9816738 -0.85138983 8
3.8737841 1.9644334 0.37999901 9
3.886857 1.9702102 -0.69018894 9
3.8638217 1.9576839 0.53183788 8
3.89781 1.9740523 -0.53646892 9
3.8579273 1.9530077 0.68487018 10
3.866267 1.9572295 -0.3791275 9
3.8258326 1.9359193 0.83345371 10
3.8799653 1.9624629 -0.22787078 9
3.8469136 1.9449027 0.99518347 15
3.858614 1.9499702 -0.075464211 11
3.8418369 1.9406526 1.1532978 12
3.216157 1.6196702 -0.96487743 4
3.8580995 1.9421088 0.075394399 11
3.6156325 1.819266 -0.93444669 1
3.8522906 1.937502 0.22598669 9
3.8779066 1.9503855 -0.84375745 8
3.8592575 1.9401598 0.37790731 11
3.8654702 1.942438 -0.68518305 8
3.8387003 1.9281492 0.52745056 8
3.8691967 1.9426193 -0.5315941 9
3.8258798 1.9200352 0.67798704 10
3.8481452 1.9312092 -0.37668711 8
3.8220372 1.917274 0.83116406 10
3.8546557 1.9327925 -0.22598669 9
3.8136094 1.9113784 0.98483574 13
3.8475168 1.9275349 -0.075115159 11
3.8295867 1.917714 1.1476036 12
3.2062356 1.6006669 -0.96021873 3
3.8326468 1.9125605 0.074766114 10
3.6428874 1.8170708 -0.93984544 1
3.8304319 1.9097831 0.22431193 9
3.8583362 1.9236958 -0.83803314 9
3.8374734 1.9124602 0.37511832 11
3.8421686 1.9139607 -0.67986429 8
3.8169758 1.9005797 0.52355075 8
3.8475187 1.9149523 -0.52769434 9
3.7936494 1.8873127 0.67110395 9
3.8263218 1.903567 -0.37389815 8
3.8076115 1.8934299 0.82658464 10
3.832763 1.9051005 -0.22431193 9
3.8028059 1.8893847 0.98033673 15
3.8112383 1.892745 -0.074277438 11
3.794729 1.8837184 1.1351804 12
3.2204602 1.5937502 -0.96280694 4
3.8088293 1.8840965 0.074172728 12
3.6492083 1.8043427 -0.93984544 1
3.8084261 1.8822427 0.22263718 11
3.8227868 1.8893402 -0.82887435 9
3.8048275 1.879638 0.37128347 11
3.820487 1.8865424 -0.67485833 8
3.8075664 1.879338 0.52135712 8
3.8114543 1.88043 -0.52184457 9
3.7913561 1.8696892 0.66953957 11
3.8007789 1.874336 -0.37076053 8
3.7860222 1.8662397 0.82047874 10
3.8107226 1.8775887 -0.22263718 9
3.7849033 1.8640441 0.97403812 15
3.7927046 1.867066 -0.073788777 13
3.7666125 1.8534049 1.1248276 12
3.2260044 1.5824982 -0.96280694 4
3.7848604 1.8558224 0.073579341 10
3.6204858 1.7744434 -0.93084741 1
3.7934506 1.8583922 0.22138111 11
3.8082025 1.8656191 -0.82429492 9
3.7827361 1.8523248 0.36849448 11
3.789789 1.8549608 -0.66828811 8
3.773092 1.8459698 0.51575112 8
3.8001628 1.8583922 -0.51940715 9
3.7765617 1.8460362 0.66578513 11
3.7750773 1.8453106 -0.36762294 9
3.7607629 1.8374981 0.81360966 10
3.792129 1.8520038 -0.22117178 9
3.7668681 1.838855 0.9677394 15
3.7686474 1.8389069 -0.07319539 13
3.7487509 1.8283886 1.1175808 12
3.2228222 1.5670031 -0.96021873 3
3.7571428 1.8259923 0.07291615 12
3.6266582 1.7617939 -0.93084741 1
3.7747619 1.8329247 0.2199157 11
3.7899673 1.840308 -0.81895226 9
3.7640846 1.8269306 0.36605412 11
3.7802458 1.8339593 -0.66547227 8
3.7455761 1.81633 0.51112008 8
3.7851911 1.8347267 -0.51648235 9
3.7438738 1.8138928 0.65890205 11
3.75998 1.8216963 -0.36553118 9
3.7282815 1.8055331 0.80521399 12
3.7734022 1.8265734 -0.21970637 9
3.7416892 1.8104163 0.95964122 16
3.7498407 1.8135506 -0.072706729 13
3.7324994 1.8043622 1.1108514 12
3.2474146 1.5649713 -0.9659127 4
3.7346692 1.7989804 0.072357684 12
3.6784368 1.7711048 -0.94254488 1
3.7469418 1.8032832 0.21792693 11
3.7609859 1.8100421 -0.81131989 9
3.7596667 1.8085971 0.36500823 11
3.7545805 1.8053436 -0.6598407 8
3.7322116 1.793788 0.50843894 8
3.7557862 1.8043096 -0.51160759 9
3.7252526 1.7888409 0.65452182 11
3.7411716 1.7964851 -0.36309084 9
3.7115519 1.7814648 0.80025297 12
3.7437403 1.7961107 -0.21761292 9
3.7128437 1.7804906 0.95064318 18
3.7309022 1.7883499 -0.072218053 13
3.7196112 1.7821393 1.1051573 13
3.2389121 1.5469646 -0.96177161 4
3.7264886 1.7790416 0.072078437 12
3.6459048 1.7397892 -0.93264711 1
3.7225683 1.7755747 0.21614751 11
3.7460175 1.7867594 -0.80674046 9
3.7299874 1.7783146 0.36152202 11
3.73946 1.7820297 -0.65608621 8
3.7259054 1.7747724 0.50673276 8
3.7405539 1.7809491 -0.50868267 9
3.6904488 1.7563032 0.64732587 9
3.7078402 1.7645798 -0.35925597 9
3.6964722 1.7583786 0.79567355 12
3.728343 1.7727392 -0.21635687 9
3.689115 1.7533001 0.94299489 18
3.7009969 1.7581555 -0.071519956 13
3.6961432 1.7550569 1.0963575 13
3.2495306 1.5381296 -0.96332449 3
3.7001388 1.7506298 0.071450152 13
3.6519558 1.727051 -0.93264711 1
3.7070754 1.7523282 0.21489146 11
3.7078574 1.7526978 -0.79719996 11
3.7001431 1.7482613 0.3580358 11
3.7152927 1.754624 -0.65076745 10
3.7141256 1.7532824 0.50429535 8
3.7234092 1.756868 -0.50551409 10
3.6733313 1.7324553 0.64325857 11
3.6995616 1.7448263 -0.35786149 9
3.6812778 1.73542 0.79109418 12
3.7092142 1.7477963 -0.21489146 11
3.677583 1.7321073 0.93849587 18
3.6926377 1.7384126 -0.071240723 13
3.6690347 1.7265166 1.0865225 15
3.2513821 1.5251355 -0.96228927 4
3.6736376 1.7224219 0.070821866 12
3.6791365 1.7242171 -0.93804586 6
3.6875465 1.7281585 0.21342604 11
3.697953 1.7322482 -0.79376549 13
3.6827667 1.7243508 0.35576975 12
3.6784551 1.7215494 -0.64325857 10
3.6842625 1.7234834 0.49942058 8
3.7004449 1.7310536 -0.50161427 10
3.6575828 1.7102249 0.63950419 11
3.6839695 1.7217795 -0.35576975 11
3.6517389 1.7059393 0.78346181 12
3.6917663 1.7238536 -0.21353073 11
3.6674147 1.7124827 0.93444669 18
3.6730139 1.7143166 -0.070752062 13
3.6414762 1.6988229 1.0766873 15
3.2616765 1.5167896 -0.96384215 4
3.6503155 1.6967429 0.070263386 12
3.6795321 1.7095447 -0.93669617 8
3.6769557 1.7083476 0.21248402 12
3.71258 1.7241092 -0.79567355 26
3.6631644 1.7003837 0.35332939 12
3.6913111 1.7126681 -0.64451009 30
3.6485381 1.6920468 0.49381462 10
3.6917586 1.7120907 -0.49966437 27
3.6488969 1.6914394 0.63700122 11
3.6715808 1.7011781 -0.35402662 26
3.6466877 1.6888691 0.7811721 12
3.6594002 1.6939811 -0.2113326 17
3.6465471 1.6880312 0.92769814 24
3.6569002 1.6920509 -0.070333198 21
3.6365695 1.6818713 1.0735815 23
3.2701979 1.5075819 -0.96487743 4
3.6413915 1.6779362 0.069984153 27
3.6922612 1.7005934 -0.93849587 8
3.6390624 1.6760908 0.20997187 27
3.7271938 1.7158942 -0.79758167 26
3.6434422 1.676569 0.350889 15
3.7023547 1.7028931 -0.64544868 26
3.6288781 1.6683306 0.49040228 11
3.695612 1.6990106 -0.49942058 23
3.6203821 1.6636591 0.63105673 13
3.6826339 1.6914871 -0.35454956 23
3.6165836 1.660385 0.77353972 12
3.6704431 1.6843364 -0.21164663 26
3.6113875 1.6572363 0.91735035 15
3.6570387 1.6774129 -0.070228487 30
3.6210532 1.6601421 1.0673697 17
3.2874792 1.502349 -0.96850091 5
3.6542122 1.6691742 0.070123769 30
3.710289 1.6940064 -0.94164515 8
3.6464171 1.6648444 0.21007656 30
3.7275057 1.7010787 -0.79643679 27
3.6598587 1.6694379 0.35193488 35
3.7187645 1.6955239 -0.64732587 26
3.6434228 1.6604027 0.49162099 33
3.7012262 1.686745 -0.49942058 23
3.6096997 1.6442753 0.62824088 40
3.6882224 1.6792665 -0.35454956 23
3.6095614 1.6426892 0.77086836 37
3.6869164 1.6771184 -0.21227466 26
3.5991244 1.6371833 0.91285133 27
3.6625807 1.6652771 -0.070228487 30
3.5913639 1.6321385 1.057017 16
3.2668207 1.4777725 -0.96073633 4
3.662416 1.6559553 0.070158668 30
3.7256458 1.6837593 -0.94389462 7
3.6637032 1.6557652 0.21070457 30
3.7447445 1.6916038 -0.7987265 26
3.6498983 1.6479943 0.35036606 33
3.7324507 1.684482 -0.64857739 26
3.6497712 1.6464014 0.49162099 27
3.7206337 1.6775881 -0.50112677 22
3.6141856 1.6295919 0.62792808 32
3.6982763 1.6667286 -0.35489815 23
3.6247921 1.6328501 0.77277648 31
3.7151825 1.6727902 -0.21353073 26
3.6074455 1.6235214 0.91330135 30
3.6762424 1.6544833 -0.070368104 30
3.5887952 1.614375 1.0544289 28
3.2966402 1.4774219 -0.96798331 4
3.6678877 1.6438001 0.070158668 30
3.7276518 1.6698029 -0.94299489 5
3.6840444 1.649495 0.21154197 30
3.7631698 1.6841363 -0.80139786 26
3.6665418 1.6401243 0.35141194 34
3.7380159 1.6720963 -0.64857739 26
3.6624599 1.6375294 0.49259594 27
3.7334266 1.6684797 -0.50210178 22
3.6360846 1.6242161 0.6307438 32
3.7168074 1.6594942 -0.35611835 26
3.6194315 1.6160173 0.77048677 33
3.7115898 1.65639 -0.21300736 26
3.623487 1.6163136 0.91600066 30
3.6929538 1.6465255 -0.070577532 32
3.6085246 1.6081294 1.0585699 26
3.2873964 1.4602085 -0.96384215 4
3.6809149 1.6342318 0.070298299 30
3.7245517 1.6528274 -0.94074529 2
3.6897786 1.6366278 0.21154197 28
3.7777066 1.6756289 -0.80330586 26
3.6810682 1.6319933 0.35228351 31
3.7510538 1.662238 -0.64982885 26
3.6699677 1.6255414 0.49283966 28
3.7392282 1.6554364 -0.50210178 23
3.6561837 1.6179078 0.63324684 29
3.7332213 1.6519979 -0.3571642 24
3.6358221 1.6081407 0.77277648 31
3.7191765 1.6442307 -0.21311203 24
3.6362376 1.6068051 0.91780037 30
3.7114825 1.6392828 -0.070821866 30
3.6194186 1.5978633 1.0601228 27
3.3030834 1.4533918 -0.96694797 4
3.7012391 1.6278157 0.070577532 31
3.7124581 1.6319748 -0.93624628 2
3.6972976 1.6245403 0.21164663 30
3.7817357 1.6616411 -0.80292428 24
3.7031593 1.6263469 0.35385233 34
3.7694945 1.6546931 -0.6520189 25
3.6810734 1.6151128 0.49357089 27
3.7486198 1.6439673 -0.50258923 22
3.6672363 1.6075153 0.63418543 34
3.7535632 1.6453563 -0.35855874 26
3.6522031 1.6001657 0.7750662 31
3.7212348 1.629635 -0.21290269 26
3.6436088 1.5948846 0.9182502 28
3.7153506 1.625515 -0.07078696 32
3.6391344 1.5914105 1.0642639 27
3.3116784 1.4433976 -0.96798331 4
3.7215657 1.6212746 0.070856772 30
3.7217064 1.620561 -0.93714613 1
3.7175965 1.6180017 0.21248402 30
3.7911131 1.6499982 -0.80368757 24
3.7124679 1.6149991 0.35420093 33
3.7752481 1.6415241 -0.6520189 25
3.6957917 1.6062106 0.4947896 28
3.7579763 1.6324568 -0.50307667 22
3.6764493 1.5962769 0.6348111 30
3.7559125 1.6300021 -0.35821009 24
3.6667709 1.5913161 0.77697426 30
3.7525516 1.6277654 -0.2143681 26
3.6527297 1.5837057 0.91914994 28
3.722837 1.6133301 -0.070821866 32
3.6517572 1.581772 1.0663346 31
3.3133988 1.4297183 -0.96694797 4
3.7272027 1.6082729 0.070856772 31
3.7523918 1.6183652 -0.94344473 1
3.7268901 1.6065954 0.21269335 30
3.8007414 1.6376448 -0.80445075 24
3.7183626 1.6013803 0.35420093 34
3.7993827 1.6354871 -0.65514761 25
3.7123158 1.5980082 0.496252 28
3.7745929 1.6240354 -0.50453913 22
3.6819987 1.5834348 0.6348111 32
3.7652411 1.6184543 -0.35855874 26
3.6779904 1.5801899 0.77811909 33
3.7658336 1.6171521 -0.21478678 24
3.6692541 1.5749197 0.92184937 28
3.7468214 1.6082133 -0.071170911 32
3.6501548 1.5659676 1.0642639 28
3.3059342 1.4128301 -0.96332449 4
3.7385886 1.5969584 0.070961483 31
3.7332077 1.5938876 -0.93714613 1
3.7529597 1.6015486 0.21384473 30
3.8208802 1.6305331 -0.80750376 23
3.7294273 1.590737 0.35472387 31
3.8014348 1.6206645 -0.65452182 25
3.719974 1.5851703 0.49649575 26
3.7951303 1.6164136 -0.50648904 22
3.6968658 1.5737969 0.63637549 29
3.781867 1.6099827 -0.3596046 26
3.6834836 1.5673426 0.77811909 31
3.7824829 1.6086878 -0.21541482 23
3.6854904 1.5666753 0.9245488 27
3.7563713 1.5960344 -0.071240723 32
3.6629827 1.5556002 1.0663346 27
3.3197415 1.4050457 -0.9659127 4
3.7459826 1.584677 0.070996389 30
3.7638764 1.5914723 -0.94344473 1
3.7622075 1.5899926 0.21405408 30
3.8337824 1.6202419 -0.80903018 23
3.7478054 1.5831351 0.35594404 33
3.8143477 1.6104594 -0.6557734 25
3.7291424 1.573718 0.4969832 27
3.8080659 1.6062411 -0.50746399 22
3.7077973 1.5631857 0.63731414 30
3.802151 1.6029646 -0.36099908 26
3.6997879 1.5590487 0.7804088 31
3.7880757 1.5954735 -0.21541482 24
3.6945286 1.5553141 0.92544866 25
3.7803519 1.5906671 -0.071589775 34
3.6915407 1.5525396 1.0730639 30
3.3281889 1.3949432 -0.96694797 4
3.7717793 1.5800914 0.07138034 33
3.7442431 1.5677878 -0.93714613 1
3.7656169 1.5767375 0.21394941 30
3.8520918 1.612156 -0.81170154 23
3.7624989 1.5738885 0.35681561 31
3.8308804 1.6017076 -0.65765053 23
3.7492664 1.5668137 0.49893317 27
3.8078771 1.5913072 -0.50673276 22
3.7275424 1.5569732 0.63981706 30
3.8169158 1.5935217 -0.36187065 23
3.7160788 1.5506597 0.78269857 31
3.8009946 1.585317 -0.2158335 23
3.7014642 1.5438049 0.92589855 27
3.7892981 1.5796603 -0.071659587 35
3.7038021 1.5432605 1.0751344 30
3.331012 1.3831588 -0.96643037 4
3.7825396 1.5698737 0.071485057 31
3.7782223 1.5673089 -0.94434458 1
3.7763596 1.5665363 0.21426344 28
3.8537893 1.59787 -0.81093824 23
3.7750602 1.564453 0.35751286 31
3.8471217 1.5935299 -0.65952778 23
3.7544405 1.5543746 0.49893317 26
3.8278055 1.5847484 -0.50868267 23
3.7345104 1.5453577 0.64012986 29
3.8313849 1.5846618 -0.36274219 24
3.7375288 1.5450811 0.78613311 33
3.8136148 1.5757536 -0.21625218 22
3.715569 1.5352418 0.92814809 27
3.7871215 1.564033 -0.071519956 34
3.7071133 1.5302335 1.0746168 28
3.3302209 1.3698995 -0.96487743 4
3.7951219 1.5603639 0.071624674 30
3.7942131 1.5592161 -0.9470439 1
3.7965844 1.5594162 0.2151008 30
3.8626995 1.5865724 -0.81170154 23
3.7802269 1.5519265 0.35751286 31
3.8505569 1.5800145 -0.65921491 23
3.7761042 1.5486941 0.50112677 25
3.8443348 1.5758938 -0.51014513 22
3.7417095 1.5330623 0.64044279 27
3.8366184 1.5719485 -0.36274219 26
3.7426324 1.5326777 0.78613311 33
3.8262129 1.5661258 -0.21667089 23
3.7281201 1.5252132 0.92994767 27
3.8073654 1.5568599 -0.071799204 35
3.7124321 1.5172846 1.0746168 28
3.3403504 1.3604517 -0.96643037 4
3.8005459 1.5471059 0.071624674 30
3.8032424 1.5474321 -0.94794375 1
3.8149559 1.5514199 0.2158335 30
3.8809447 1.5782553 -0.81437284 24
3.7911587 1.5409713 0.3580358 33
3.863369 1.5695388 -0.66046637 22
3.785166 1.5369962 0.50161427 26
3.8626883 1.5676894 -0.51185131 22
3.7653432 1.5274183 0.6435715 30
3.8531594 1.5630412 -0.36378807 26
3.7515986 1.5210783 0.78689629 33
3.839061 1.5557597 -0.21708956 22
3.7569013 1.5217037 0.93579644 30
3.8238983 1.5480615 -0.072008632 35
3.7338233 1.5108372 1.0792755 30
3.3414948 1.3473408 -0.96539509 4
3.8170514 1.5383159 0.071834102 31
3.7977757 1.5297772 -0.94524431 1
3.8222008 1.5388405 0.21593818 30
3.9046419 1.5720319 -0.81818902 26
3.8076043 1.5321919 0.35908166 30
3.8761551 1.5589908 -0.66171783 23
3.7923503 1.5245136 0.501858 27
3.8791885 1.5586381 -0.51331371 23
3.7798176 1.5179452 0.64513582 27
3.8696861 1.5540357 -0.36483395 26
3.7641733 1.5108976 0.78842276 33
3.8463211 1.5430937 -0.21719423 22
3.7567642 1.5064034 0.93444669 28
3.8534095 1.5443741 -0.072462395 35
3.7498338 1.5021054 1.0823812 30
3.349766 1.3371 -0.96643037 3
3.8391147 1.5316507 0.072148249 31
3.8103325 1.519399 -0.9470439 1
3.8294041 1.5262295 0.21604285 30
3.9173999 1.5613006 -0.81971544 26
3.8184826 1.5211024 0.3596046 30
3.8944204 1.550567 -0.663908 23
3.8031809 1.513471 0.50258923 25
3.8827612 1.5443529 -0.51306999 23
3.7924356 1.5076598 0.64638728 32
3.8880475 1.5456697 -0.36605412 23
3.7840195 1.5035515 0.79147577 34
3.8553975 1.5311316 -0.21740359 20
3.754755 1.4904039 0.93264711 27
3.8606346 1.5316538 -0.072497301 34
3.7568507 1.4897181 1.0828989 28
3.3544135 1.3253982 -0.96643037 4
3.8537362 1.5219154 0.072322771 30
3.804738 1.5017955 -0.94434458 1
3.8402822 1.5150509 0.21635687 30
3.9191744 1.546175 -0.81895226 26
3.8348889 1.5121518 0.36065045 30
3.9145114 1.5427566 -0.66641092 25
3.8213699 1.505278 0.50429535 25
3.9029043 1.5366106 -0.51501989 23
3.8068662 1.4980301 0.6479516 32
3.8971264 1.5335482 -0.36640272 23
3.8002076 1.4946442 0.79376549 33
3.8811643 1.5257049 -0.21855497 22
3.7798858 1.485128 0.93759602 30
3.8585129 1.5152435 -0.072357684 35
3.7782128 1.4829465 1.0875577 30
3.3608181 1.3143852 -0.96694797 4
3.8664753 1.5113652 0.072462395 31
3.8353691 1.4984324 -0.95064318 1
3.85671 1.5059963 0.21698491 30
3.9446635 1.5403411 -0.82315004 26
3.8420007 1.4994799 0.36082479 28
3.9253945 1.5312358 -0.66734952 26
3.8432462 1.4984205 0.50648904 26
3.9193423 1.5273011 -0.51648235 24
3.8065503 1.4825808 0.64701301 29
3.8968871 1.5177652 -0.36587983 26
3.8163786 1.4856436 0.7960552 33
3.9050798 1.5193887 -0.21960169 23
3.7995768 1.477574 0.94119519 30
3.8712332 1.5046641 -0.072497301 35
3.7797642 1.4683527 1.0865225 30
3.3671877 1.3033422 -0.96746564 5
3.8735926 1.49858 0.072497301 33
3.8223994 1.4780099 -0.94614416 1
3.880573 1.4997234 0.21803163 28
3.9628351 1.5315152 -0.82582134 28
3.8490703 1.4867765 0.36099908 27
3.9325573 1.5182383 -0.66766238 25
3.8521578 1.4864241 0.50697654 25
3.9320586 1.5164669 -0.51745731 24
3.8264472 1.4749711 0.64951599 29
3.9170325 1.5098888 -0.36727428 24
3.8160455 1.4701946 0.79491037 33
3.914088 1.5071827 -0.21981104 23
3.8192601 1.4699044 0.94479448 30
3.8932602 1.4976023 -0.072811447 37
3.8028989 1.4620816 1.0916989 30
3.3735209 1.2922724 -0.96798331 4
3.8844023 1.4871951 0.072602011 31
3.7984149 1.4535137 -0.93894571 2
3.8932469 1.4890214 0.21845031 28
3.9791598 1.52188 -0.82811105 28
3.8709857 1.4797351 0.3625679 30
3.9507499 1.5094359 -0.66985244 26
3.8554688 1.4722593 0.50673276 25
3.9521644 1.5083957 -0.51940715 24
3.8481834 1.4679404 0.65233177 32
3.9353106 1.5011764 -0.36849448 23
3.83583 1.4624593 0.79796326 36
3.9230573 1.4949338 -0.22002037 26
3.8280103 1.4579498 0.94569421 31
3.9171529 1.4911162 -0.073160492 35
3.813395 1.4508595 1.0932516 27
3.3780107 1.2804896 -0.96798331 4
3.90453 1.4792937 0.072881252 31
3.8144 1.4443874 -0.94164515 2
3.8984199 1.475425 0.21845031 27
3.9936283 1.5114583 -0.83001924 27
3.8928995 1.4725571 0.36413667 30
3.9670813 1.4998283 -0.67172968 27
3.8680115 1.4616017 0.50770777 26
3.9536917 1.4931871 -0.51891971 25
3.860677 1.4572883 0.65358323 30
3.947983 1.4902438 -0.36919171 23
3.850096 1.4525268 0.79987139 34
3.924515 1.4798205 -0.21981104 24
3.8367238 1.4459522 0.94659406 31
3.9223337 1.4774344 -0.073160492 35
3.8347087 1.4436643 1.0979104 27
3.3933132 1.27276 -0.97108907 4
3.9227769 1.4705698 0.073125578 33
3.8285434 1.4344815 -0.94389462 7
3.9035466 1.4618069 0.21845031 30
4.0025568 1.4988846 -0.83078241 55
3.9110777 1.4638491 0.36535689 33
4.001895 1.4970442 -0.67673558 51
3.8842461 1.452261 0.50917011 25
3.9830534 1.4884112 -0.52208835 40
3.8657398 1.4438039 0.65358323 32
3.9550271 1.4771516 -0.36936605 39
3.8661778 1.4431987 0.80216104 33
3.952111 1.4744909 -0.22106709 30
3.8527031 1.4366368 0.94929349 30
3.934962 1.4665282 -0.073300108 39
3.846966 1.4329662 1.099981 27
3.3904901 1.2582196 -0.96901858 4
3.9335105 1.4589549 0.073230296 36
3.79881 1.4082377 -0.93534642 2
3.9273536 1.455112 0.21949703 28
4.0077643 1.4849048 -0.83078241 35
3.9105589 1.4481113 0.36483395 31
4.0033917 1.4816935 -0.67610979 53
3.9060478 1.4448928 0.5113638 26
3.9938107 1.4765629 -0.52281958 56
3.8800209 1.4337236 0.65514761 32
3.9678903 1.4654077 -0.37006328 82
3.8840837 1.4344566 0.8048324 33
3.9815922 1.4696763 -0.22242783 78
3.8650079 1.4258765 0.95109308 30
3.9494374 1.4562434 -0.073474631 73
3.8428814 1.4161899 1.0973928 27
3.3950794 1.2457834 -0.96901858 4
3.9385798 1.4452144 0.073230296 81
3.8238282 1.4023505 -0.94029546 1
3.9605384 1.4517034 0.22106709 96
4.0002761 1.4654772 -0.82811105 12
3.9364197 1.4413047 0.36675134 53
3.9920995 1.4609016 -0.67329407 11
3.9259818 1.4367059 0.51331371 35
3.9989402 1.4626136 -0.52281958 14
3.9072659 1.4283105 0.65890205 37
3.9692388 1.4501797 -0.36971465 17
3.885627 1.4188632 0.80406916 33
3.9813235 1.45302 -0.22211383 33
3.888515 1.4183798 0.9555921 30
3.9601333 1.4445033 -0.073579341 58
3.858691 1.406738 1.1004987 26
3.393959 1.231948 -0.96746564 5
3.9513695 1.4334959 0.073369913 49
3.8032939 1.3790252 -0.93399686 1
3.9583211 1.4344566 0.22064841 71
4.0109043 1.4535123 -0.82925594 34
3.9358072 1.4255186 0.36622843 103
3.999033 1.4476291 -0.67360687 43
3.9312208 1.4223077 0.51331371 100
3.9986742 1.4459208 -0.52208835 27
3.9143326 1.4146504 0.65921491 79
3.9838967 1.4390072 -0.37058622 19
3.8942492 1.406626 0.8048324 63
3.9732211 1.434365 -0.22138111 13
3.9062741 1.4094262 0.95874137 42
3.9635196 1.4293014 -0.073544443 16
3.8783605 1.3978249 1.1046398 31
3.4148166 1.2253735 -0.9721244 4
3.960113 1.4210478 0.073439725 18
3.8154218 1.3683733 -0.93579644 2
3.9689445 1.4226514 0.22096242 23
4.0106597 1.4368162 -0.82811105 26
3.9485083 1.4137709 0.36692566 20
3.9950118 1.4296352 -0.67204249 25
3.9230788 1.4038935 0.51160759 22
3.9924819 1.4279438 -0.52062589 27
3.9211066 1.401644 0.65952778 42
3.9813907 1.4224097 -0.36988899 30
3.9086232 1.3956434 0.80674046 82
3.9803329 1.4204652 -0.22148579 44
3.9004004 1.3911724 0.95604193 100
3.955301 1.410754 -0.073300108 52
3.4184377 1.2152352 -0.9721244 5
3.9645588 1.4085969 0.073439725 49
3.823374 1.3576849 -0.93669617 2
3.956454 1.4041642 0.22002037 55
3.9816024 1.4130894 -0.82124197 24
3.9601974 1.4047124 0.36762294 61
3.9843414 1.4124957 -0.66953957 25
3.9443095 1.3975291 0.51380116 28
3.9763651 1.4081038 -0.51794475 25
3.9161794 1.386024 0.65796345 16
3.9724455 1.4059379 -0.36866876 26
3.9182992 1.3860048 0.80788535 15
3.9694657 1.4033222 -0.22064841 24
3.9408572 1.3916631 -0.072951064 37
3.4171913 1.201372 -0.97057146 5
3.9505844 1.388123 0.07309068 33
3.8262517 1.3436837 -0.93624628 2
3.9594474 1.3896827 0.2199157 28
3.9642813 1.3913792 -0.81666255 23
3.9519148 1.3862664 0.36640272 31
3.9706063 1.3920426 -0.66641092 25
3.9435437 1.3817822 0.51306999 31
3.9625194 1.3876567 -0.51550734 24
3.9191291 1.3716917 0.65765053 43
3.9491217 1.382189 -0.36605412 27
3.9064355 1.3664838 0.80445075 46
3.9517152 1.3815508 -0.21939236 26
3.9019442 1.3633844 0.95424235 37
3.9419153 1.3765787 -0.072881252 37
3.8977826 1.3604059 1.1061926 27
3.4177146 1.1881685 -0.96953619 5
3.932739 1.3664476 0.072671816 33
3.8401237 1.3335148 -0.93849587 2
3.9416316 1.3679956 0.21865964 27
3.9487123 1.3704531 -0.81246477 23
3.9247298 1.3613622 0.36343944 31
3.9418464 1.3665266 -0.66077924 25
3.9333372 1.36281 0.51112008 27
3.9598362 1.3712173 -0.51453239 24
3.9220271 1.3573561 0.65733767 34
3.9388599 1.3631816 -0.36465961 28
3.9000487 1.3489896 0.80216104 31
3.9281988 1.357959 -0.21782227 27
3.9195735 1.3542094 0.95739168 31
3.9277945 1.3562846 -0.072532199 39
3.8952036 1.3442699 1.1041222 30
3.4291494 1.1787424 -0.97160673 5
3.9147906 1.3449159 0.072252966 34
3.8594995 1.3251677 -0.94209504 16
3.9199352 1.3451515 0.21719423 28
3.9441872 1.3534738 -0.81055665 23
3.912497 1.341836 0.36187065 30
3.9241681 1.3450755 -0.65702486 25
3.9042675 1.3374907 0.50673276 26
3.9289157 1.3451684 -0.50990134 23
3.9043126 1.3359857 0.65358323 34
3.9247422 1.3429763 -0.3629165 27
3.891731 1.3309196 0.79948968 37
3.9083467 1.3358402 -0.21646154 24
3.8984582 1.3317027 0.95109308 31
3.9211507 1.3386881 -0.072322771 37
3.887074 1.3262969 1.1004987 27
3.444217 1.1704972 -0.97471261 6
3.900527 1.3248101 0.071903922 33
3.85303 1.3079278 -0.93939561 7
3.9019103 1.3237612 0.21593818 30
3.9302957 1.3333912 -0.80674046 24
3.9020617 1.3230532 0.36047614 30
3.9138725 1.3262962 -0.65452182 25
3.8957512 1.3193976 0.50502658 26
3.8959813 1.3187176 -0.50502658 22
3.8902404 1.3160177 0.65045458 35
3.9145401 1.3234746 -0.36152202 30
3.8870544 1.314182 0.79758167 34
3.8997405 1.3177147 -0.21572883 26
3.8735425 1.3081093 0.94389462 31
3.8973796 1.3153995 -0.071799204 35
3.8806965 1.3090165 1.0973928 28
3.441159 1.1554035 -0.972642 5
3.8937538 1.3073667 0.071694486 34
3.8538764 1.2932311 -0.93849587 1
3.8856776 1.3031482 0.21478678 30
3.896066 1.3058736 -0.7987265 27
3.8936598 1.3043134 0.35925597 30
3.9055943 1.3075533 -0.65233177 26
3.8758612 1.2975988 0.501858 27
3.8930311 1.3025895 -0.50405163 22
3.8629625 1.2917812 0.64513582 32
3.8926799 1.3009634 -0.35908166 28
3.8732235 1.2937076 0.79376549 33
3.8893878 1.2983543 -0.21489146 26
3.8579762 1.2871201 0.93894571 28
3.8753896 1.2929296 -0.071310528 35
3.8650835 1.2887396 1.0916989 30
3.4305029 1.1385171 -0.96850091 5
3.8776407 1.2861624 0.071310528 33
3.9325814 1.3036238 -0.95649189 1
3.8731401 1.2839193 0.21384473 30
3.8894181 1.2885621 -0.79643679 27
3.8698182 1.2813191 0.35664126 33
3.8857558 1.2858437 -0.64826447 25
3.8692839 1.2796438 0.5003956 26
3.8843608 1.2846299 -0.5023455 23
3.8411906 1.2696091 0.64075565 34
3.8707118 1.2786174 -0.35664126 28
3.857208 1.27341 0.78956765 33
3.880619 1.280388 -0.21415874 28
3.8455682 1.268823 0.93489659 31
3.8494937 1.2693734 -0.070752062 35
3.8402019 1.2655662 1.0834166 30
3.4581211 1.1349672 -0.97523022 5
3.836282 1.2583394 0.070472814 33
3.8640921 1.2667124 0.21311203 31
3.8750131 1.2695457 -0.7926206 27
3.8551109 1.2622802 0.35489815 34
3.8655922 1.2649633 -0.64419717 26
3.8546374 1.2606359 0.49795815 27
3.8772788 1.2680405 -0.50088304 23
3.8359907 1.2537963 0.63919127 35
3.8484161 1.2571123 -0.35420093 27
3.8259494 1.2490364 0.78231698 34
3.8658564 1.2613181 -0.21311203 30
3.8293755 1.2494154 0.92994767 27
3.8517811 1.25598 -0.070717148 34
3.8186619 1.2444453 1.0761696 30
3.450841 1.1199145 -0.9721244 4
3.8271194 1.2412914 0.070228487 31
3.8437891 1.2452153 0.2117513 30
3.869863 1.2536621 -0.79071248 30
3.8384254 1.2427377 0.35298076 35
3.8472123 1.2448407 -0.64044279 26
3.8304656 1.2386836 0.49430209 28
3.8590147 1.2471719 -0.49795815 25
3.8290663 1.236755 0.63731414 34
3.8414042 1.2399998 -0.35315505 27
3.8076506 1.2291042 0.7777375 30
3.8358037 1.2374527 -0.21122794 30
3.8225853 1.2324519 0.92724824 27
3.8294952 1.2339419 -0.070228487 35
3.8156273 1.2287384 1.0740991 30
3.4641209 1.1102078 -0.97471261 5
3.8161945 1.2230431 0.069949247 31
3.8157752 1.2214401 0.20997187 30
3.8482533 1.2310961 -0.78536987 30
3.8277726 1.2238077 0.35158628 30
3.8366957 1.2259226 -0.63793981 26
3.810184 1.2174515 0.49113351 30
3.8330886 1.2240329 -0.49405837 25
3.8088953 1.2155746 0.63324684 37
3.832422 1.2223461 -0.35193488 26
3.7915549 1.2085806 0.77353972 33
3.825089 1.2185364 -0.21039055 30
3.7917957 1.2071996 0.9187001 30
3.8299682 1.2193526 -0.070158668 37
3.7941208 1.2072105 1.0668522 30
3.4679751 1.0981081 -0.97471261 6
3.8073063 1.2048236 0.069704913 30
3.8028765 1.2026938 0.20902982 27
3.8300638 1.2105547 -0.78079039 28
3.8111224 1.2038364 0.34966883 34
3.8202302 1.2059821 -0.6344983 25
3.803262 1.1998937 0.48967105 27
3.82619 1.2063931 -0.49259594 23
3.794276 1.1963307 0.63011813 37
3.8195622 1.2035726 -0.35036606 27
3.7976227 1.1959287 0.77392131 33
3.8102679 1.19918 -0.20934384 28
3.784832 1.1904508 0.91600066 30
3.8036797 1.1963789 -0.069600195 34
3.7835684 1.1893257 1.0627111 30
3.471787 1.0859966 -0.97471261 5
3.7979207 1.1880133 0.069460578 30
3.7994263 1.1870284 0.20861115 25
3.8061554 1.1884018 -0.7750662 26
3.7886741 1.1822178 0.34722847 33
3.8053515 1.1874219 -0.63136959 25
3.7996397 1.1849118 0.48869613 30
3.8074276 1.1866094 -0.48967105 25
3.7795687 1.1772054 0.62698942 37
3.8009129 1.1831257 -0.34827435 27
3.7828221 1.1774946 0.77010518 34
3.8027813 1.1829774 -0.20871581 26
3.7738724 1.173264 0.9124015 31
3.7906461 1.1777534 -0.069286056 37
3.7600224 1.1675171 1.0549464 27
3.4864433 1.0779005 -0.97781837 6
3.7829387 1.1688464 0.069111533 31
3.7844625 1.1678683 0.20756441 27
3.7950678 1.171141 -0.77201319 26
3.7735345 1.1637768 0.34548536 34
3.7905962 1.1683122 -0.62824088 25
3.7866786 1.1663811 0.48650244 28
3.7944705 1.1680583 -0.48747739 23
3.7666624 1.1587764 0.62417358 36
3.7838681 1.1640695 -0.34635693 28
3.7568846 1.1550506 0.76399928 39
3.7839768 1.1626594 -0.20745975 27
3.7686305 1.1572224 0.9101519 33
3.7737057 1.1580601 -0.068902098 34
3.7492988 1.1498562 1.0508054 27
3.5012703 1.0691097 -0.98092425 5
3.7640443 1.1486294 0.068692669 30
3.7694106 1.148829 0.2065177 26
3.7859867 1.153881 -0.76934189 26
3.7623265 1.1459523 0.34409088 33
3.775754 1.1493201 -0.62511224 25
3.7508445 1.1410246 0.48138395 30
3.7757337 1.147876 -0.48455253 21
3.7669048 1.1444719 0.62354785 36
3.7783771 1.1479574 -0.34548536 27
3.7496214 1.1385081 0.76170951 35
3.755522 1.1395837 -0.20568034 23
3.7390797 1.1338799 0.90205371 34
3.7738974 1.1437212 -0.068832293 36
3.7311029 1.130041 1.0445937 28
3.4938836 1.0535343 -0.97781837 6
3.7584572 1.1325995 0.068518147 33
3.7188575 1.1199583 -0.8966549 2
3.7579002 1.1317163 0.20568034 28
3.7749522 1.136131 -0.766289 26
3.7510397 1.1282222 0.34269637 34
3.7664993 1.1321554 -0.62292212 26
3.7376943 1.1227838 0.47919029 28
3.7491014 1.1262105 -0.48065275 20
3.7441909 1.124025 0.61916769 37
3.7670934 1.1301837 -0.34409088 30
3.7366486 1.120337 0.75827497 37
3.7479978 1.123027 -0.2050523 25
3.7204182 1.1147631 0.8966549 33
3.7546811 1.1243174 -0.068413429 34
3.7311285 1.1165532 1.0435584 31
3.4936547 1.0408399 -0.9767831 6
3.7411103 1.1138537 0.068134196 33
3.7262869 1.1087304 -0.8975547 19
3.7386608 1.1124122 0.20442426 28
3.7561169 1.1168926 -0.76170951 26
3.737572 1.1106701 0.34112757 31
3.7664461 1.1185333 -0.62229639 26
3.7337847 1.1081245 0.47821537 28
3.7413967 1.1103837 -0.47919029 20
3.7175961 1.1026161 0.61416179 31
3.7498078 1.111456 -0.34217343 31
3.7234011 1.1029221 0.75484043 33
3.7459552 1.1088938 -0.20473827 26
3.7016704 1.0957844 0.89125609 30
3.7257912 1.1022156 -0.06782005 33
3.7107265 1.0970547 1.0368291 33
3.4859679 1.0259751 -0.97367728 5
3.7371097 1.0991834 0.067994572 30
3.7336822 1.0974673 -0.89845449 27
3.731024 1.0959766 0.20379624 27
3.7447307 1.100003 -0.75865656 27
3.7221177 1.0926567 0.33938447 35
3.7379112 1.0965846 -0.61697763 27
3.7221997 1.0912679 0.47626543 28
3.7395349 1.0956434 -0.47845906 21
3.7005692 1.0835257 0.61072022 34
3.7171431 1.0883785 -0.33886153 27
3.7006588 1.0828488 0.74949777 33
3.7381103 1.0931013 -0.20411025 27
3.6942503 1.0795758 0.88855666 30
3.7065818 1.0824755 -0.067401193 33
3.6885705 1.0765188 1.0295821 30
3.5136442 1.0208097 -0.98040658 2
3.6986759 1.0738646 0.067226671 30
3.7300045 1.0822545 -0.8966549 27
3.717562 1.077943 0.20285419 28
3.7391191 1.0841936 -0.7567485 25
3.7048585 1.0735567 0.33746704 35
3.7189472 1.0769355 -0.61322314 26
3.7126377 1.0744082 0.47455928 31
3.728081 1.0781703 -0.47650915 22
3.6948407 1.0678583 0.60915589 33
3.7094352 1.0720764 -0.33781564 26
3.6817818 1.0633899 0.74491841 31
3.7188764 1.0733987 -0.20285419 27
3.6867621 1.0634325 0.88585728 31
3.7026517 1.0673158 -0.067261577 33
3.6793118 1.0598924 1.0259588 30
3.5227573 1.0101351 -0.98195946 1
3.6889451 1.0570918 0.066982336 28
3.6944172 1.0579623 -0.88720697 24
3.7059407 1.0605625 0.20201682 30
3.7296689 1.067353 -0.7540772 27
3.7009211 1.0584272 0.33676979 34
3.7074893 1.0596057 -0.61072022 27
3.6934602 1.054899 0.47163439 33
3.7146423 1.0602458 -0.47431552 23
3.6871474 1.0517042 0.60727865 31
3.701659 1.0558434 -0.33676979 27
3.6741431 1.0473015 0.74262863 31
3.6957092 1.0527496 -0.20138879 27
3.675457 1.0462891 0.88225806 33
3.6909678 1.0500082 -0.066982336 34
3.6699817 1.0433439 1.0223353 30
3.5151083 0.99467683 -0.97885364 1
3.6733696 1.0387679 0.066633284 30
3.6849608 1.0413493 -0.88405764 24
3.6865551 1.0411069 0.20076075 28
3.7069209 1.0468584 -0.74873453 26
3.6911702 1.0417148 0.33554959 38
3.6978569 1.0429032 -0.6085301 27
3.6722813 1.0350002 0.46846578 30
3.6953917 1.0408156 -0.47139066 24
3.6717815 1.0334742 0.60415 33
3.6918972 1.0391359 -0.33554959 28
3.6607671 1.0296865 0.7391941 34
3.6762881 1.033358 -0.20013271 27
3.6565738 1.027128 0.87685925 34
3.6811335 1.0333337 -0.066738002 34
3.6512804 1.0242661 1.0161237 28
3.5148382 0.98136079 -0.97781837 1
3.6769736 1.0259382 0.066633284 30
3.6660473 1.0222 -0.87865883 24
3.6747754 1.0239425 0.19992337 28
3.6840756 1.0265338 -0.74339187 27
3.671752 1.0224096 0.33345786 33
3.6843472 1.0252237 -0.60571432 26
3.6643972 1.0189834 0.46700338 27
3.6798759 1.0225958 -0.46895328 24
3.6544294 1.0148376 0.60070843 34
3.6686254 1.0187799 -0.33310926 31
3.6473136 1.0121758 0.7357595 34
3.6683249 1.0173173 -0.19950469 27
3.6394792 1.0086336 0.87191027 33
3.6558108 1.0124729 -0.066214427 37
3.6436625 1.0084236 1.0130178 28
3.5107927 0.96703273 -0.97574782 1
3.6593246 1.0072601 0.066249333 31
3.6620777 1.0073285 -0.87685925 24
3.6590693 1.0058141 0.19887665 30
3.6743855 1.0100243 -0.74072057 28
3.6464801 1.001671 0.33084321 34
3.6650445 1.0060809 -0.60195988 27
3.6621888 1.0046097 0.46627215 33
3.668107 1.0055467 -0.46700338 24
3.6408036 0.99737698 0.59789258 36
3.6567867 1.0017555 -0.33171475 32
3.6394632 0.99632686 0.73346978 35
3.6602948 1.001345 -0.19887665 27
3.6335793 0.99335301 0.86966079 37
3.6477487 0.99654251 -0.066004999 37
3.6285233 0.99061161 1.0078415 30
3.5439751 0.96287686 -0.98403007 1
3.6435201 0.98923993 0.065900289 33
3.6542869 0.99147832 -0.87415981 24
3.6490641 0.98937768 0.19814396 28
3.6589401 0.99205542 -0.73690438 31
3.6384161 0.98580903 0.32979733 33
3.645653 0.98708689 -0.59820545 27
3.6426787 0.98559934 0.46334729 26
3.6639297 0.99066293 -0.46602839 24
3.6404486 0.98363233 0.59726685 37
3.6391034 0.98326886 -0.32979733 31
3.6163831 0.97645277 0.72812718 35
3.6521981 0.98543924 -0.19824862 27
3.6294982 0.97863489 0.86786121 35
3.6396201 0.98068267 -0.065795571 37
3.6170361 0.97392046 1.0037004 30
3.5249224 0.94449925 -0.97781837 1
3.623771 0.97030973 0.065481432 33
3.6313703 0.97166532 -0.86786121 25
3.6312714 0.97095793 0.19699256 28
3.6472077 0.97521913 -0.73385143 28
3.6302855 0.97001737 0.32875144 33
3.6318998 0.96976966 -0.59538966 27
3.6096554 0.9631533 0.45871624 26
3.6443489 0.97172922 -0.46310353 27
3.6209545 0.96481633 0.59351242 37
3.6386628 0.96953481 -0.3294487 33
3.6045928 0.95978117 0.72507423 34
3.6285949 0.96549392 -0.19678321 26
3.6178255 0.96195424 0.86426198 34
3.6314256 0.96489 -0.065586142 37
3.609211 0.95831311 1.0005945 32
3.5281973 0.93219161 -0.97781837 1
3.6252031 0.95714307 0.065446526 34
3.6234345 0.95599973 -0.86516178 25
3.6151593 0.95381641 0.19594584 30
3.6335037 0.95798004 -0.73041683 26
3.6259434 0.95530808 0.32805422 34
3.6295321 0.95557624 -0.59445107 28
3.5400438 0.93135703 0.44945419 35
3.6170006 0.95092702 -0.45920372 23
3.6088505 0.94878429 0.5910095 37
3.6227555 0.95176417 -0.32770559 30
3.5946279 0.94370574 0.72240293 37
3.6087599 0.94674081 -0.19552715 26
3.5891156 0.94091773 0.85661358 34
3.6191304 0.94878638 -0.065306902 42
3.5974185 0.9424234 0.99645334 33
3.5463855 0.92376494 -0.98195946 9
3.6128757 0.94108433 0.065167286 33
3.6209273 0.94250506 -0.86381203 28
3.603003 0.93716991 0.19510846 30
3.6178248 0.94035113 -0.72660065 27
3.609972 0.9376356 0.32631108 34
3.6212094 0.94055432 -0.59257382 28
3.5373487 0.91811568 0.44872296 31
3.6066835 0.93543959 -0.45749757 24
3.5853701 0.92924201 0.58662933 37
3.6067681 0.93411803 -0.32596248 30
3.5863347 0.92882597 0.72011316 37
3.6002781 0.93176681 -0.19489913 27
3.5846698 0.92705798 0.85481399 35
3.5914428 0.92814273 -0.064748429 37
3.585722 0.92599672 0.99231225 32
3.5494297 0.91199869 -0.98195946 19
3.5967703 0.92349339 0.064818241 34
3.6128688 0.92695653 -0.86111259 28
3.5965793 0.92210627 0.1945851 31
3.6076114 0.92493474 -0.72392935 30
3.5802505 0.91725403 0.32334781 38
3.6168156 0.92595118 -0.59132236 28
3.525147 0.90182555 0.44677305 31
3.6022341 0.92087668 -0.45652261 25
3.5771074 0.91378999 0.58475208 37
3.5828199 0.91524929 -0.32352212 31
3.5724351 0.91193044 0.71667862 35
3.591897 0.9162308 -0.19427109 27
3.5727766 0.91069126 0.85121477 35
3.5849719 0.91313171 -0.064573906 39
3.5589786 0.90584952 0.98403007 36
3.5394819 0.89628619 -0.97833604 4
3.568954 0.90308475 0.06425976 35
3.5953007 0.9090839 -0.85616374 29
3.5959034 0.90856677 0.19437577 31
3.5993974 0.90944958 -0.72163963 31
3.5795665 0.90377623 0.32299918 38
3.5932107 0.9065541 -0.5869422 31
3.5244241 0.88854343 0.44628558 37
3.5900269 0.90441811 -0.45457271 25
3.5611196 0.89647472 0.58162344 37
3.5782647 0.90079081 -0.32282487 31
3.5565572 0.89466435 0.71286243 34
3.5892622 0.90222722 -0.19395708 28
3.5627036 0.89489025 0.8480655 35
3.5765002 0.89769036 -0.064364478 39
3.5508757 0.89060169 0.98092425 36
3.5519609 0.88626313 -0.98092425 1
3.5682046 0.88965285 0.064189956 34
3.5776517 0.89134687 -0.85121477 28
3.5816092 0.89166903 0.1934337 33
3.594929 0.89498514 -0.72011316 31
3.5691657 0.88790786 0.32177898 41
3.581017 0.89019436 -0.58443922 31
3.521724 0.87480229 0.44555435 88
3.5777493 0.88805431 -0.45262277 26
3.5508065 0.88070887 0.57943332 39
3.5581818 0.88253814 -0.32073313 30
3.5386965 0.87705147 0.70866466 34
3.5691259 0.88393027 -0.19270101 30
3.5412142 0.87636185 0.84221673 34
3.5621405 0.88088262 -0.064050332 37
3.5389593 0.874493 0.9767831 37
3.6000576 0.88492543 -0.99334759 1
3.5460422 0.87099189 0.063736185 37
3.5599229 0.87374258 -0.84626585 28
3.5575435 0.87250024 0.19196831 33
3.5846844 0.87915665 -0.71744186 32
3.5645027 0.87354761 0.32108176 41
3.5725906 0.87486875 -0.58256203 31
3.5266845 0.8629747 0.4457981 66
3.5596159 0.87037456 -0.44994166 30
3.5385075 0.86455882 0.5769304 39
3.5593052 0.86964029 -0.32055882 32
3.5322003 0.86236465 0.70675659 35
3.5527859 0.86673343 -0.19165429 31
3.5309987 0.86076534 0.83906746 33
3.5418792 0.86276293 -0.063631475 34
3.5326056 0.85984915 0.97419494 35
3.5412862 0.85672843 0.063596569 37
3.5553751 0.85947824 -0.84446627 29
3.5508602 0.85773277 0.19144495 36
3.5610137 0.86018544 -0.71209919 33
3.542352 0.85502326 0.31881571 37
3.5660214 0.86007607 -0.58099771 32
3.5393245 0.85298526 0.44701681 43
3.5510526 0.85515606 -0.44847921 28
3.5203779 0.84711725 0.57348883 33
3.5487599 0.85394692 -0.31933865 30
3.5237358 0.84727657 0.70446682 35
3.5538473 0.85386074 -0.19154961 35
3.5112429 0.84297454 0.83366859 35
3.5293128 0.84666312 -0.063352235 34
3.5149198 0.84256154 0.96850091 37
3.5325842 0.84158033 0.063387141 37
3.535604 0.8416478 -0.83906746 29
3.5382886 0.84163433 0.19060758 36
3.5448954 0.84320587 -0.70828301 33
3.5278697 0.83850557 0.31724688 42
3.5478606 0.84260291 -0.57755613 31
3.5326233 0.83833283 0.4457981 40
3.5462904 0.84092242 -0.44750425 31
3.5098581 0.83163637 0.57129872 35
3.5206993 0.83420515 -0.31654966 33
3.5190301 0.83316106 0.7029404 35
3.5412576 0.83777094 -0.19071224 32
3.514164 0.83071363 0.83366859 35
3.5225163 0.832039 -0.063177712 35
3.4933972 0.82451719 0.96177161 35
3.5062971 0.82239544 0.062863566 33
3.5271363 0.82663381 -0.83636802 29
3.5332813 0.82807404 0.19018888 35
3.5363483 0.82813996 -0.70599335 33
3.515255 0.82255501 0.3158524 44
3.51231 0.82121938 -0.57129872 31
3.5219972 0.82283431 0.44409195 35
3.537605 0.82583147 -0.44604182 31
3.4952836 0.81595176 0.56848288 33
3.5197091 0.82100606 -0.31620103 33
3.5008852 0.81596929 0.69874257 33
3.5208178 0.81996894 -0.18945618 33
3.5075519 0.81623417 0.83141905 37
3.5213606 0.81944752 -0.0631079 37
3.4791775 0.80898947 0.95711285 33
3.5012116 0.80896193 0.06272395 34
3.5051739 0.80923307 -0.83051926 28
3.5166888 0.81124681 0.18914215 32
3.5277386 0.81314564 -0.70370364 33
3.5122807 0.80893707 0.31532949 46
3.5111644 0.80868 -0.57067299 32
3.4976223 0.80492002 0.44067958 33
3.5171092 0.80875653 -0.44311696 30
3.4942601 0.80286038 0.56785715 37
3.5109026 0.80603915 -0.31515515 33
3.4882641 0.80084175 0.69568962 37
3.5040505 0.8038224 -0.18840946 32
3.4912448 0.80024338 0.82692009 37
3.5125043 0.80447119 -0.062898472 41
3.4782138 0.79597872 0.95607764 33
3.4923146 0.79407609 0.062514521 35
3.4946752 0.79397136 -0.82736999 28
