# .PCD v0.7 - Point Cloud Data file format
VERSION 0.7
FIELDS x y z intensity
SIZE 4 4 4 4
TYPE F F F F
COUNT 1 1 1 1
WIDTH 1430
HEIGHT 1
VIEWPOINT 0 0 0 1 0 0 0
POINTS 1430
DATA ascii
2.9201732 3.5919924 -0.56839865 2
3.8225772 4.7003288 0.9595691 2
3.2766848 4.0276465 -0.45425573 1
3.7974584 4.6677732 1.1696591 1
3.6989074 4.5450191 -0.30710742 1
2.0175736 2.470268 -0.85462052 9
1.7751013 2.1726148 0.048971456 100
2.1890032 2.6782537 -0.79857624 7
1.7787515 2.1755342 0.14727339 100
2.4033656 2.9394798 -0.73804927 6
1.7722718 2.1668351 0.24490763 103
2.6443996 3.2319779 -0.66140497 1
1.7791065 2.1736448 0.34489027 144
2.9465282 3.5986717 -0.57107979 3
3.8439691 4.6930685 0.96082056 2
3.2824473 4.0075111 -0.45320985 1
3.8199472 4.6620851 1.1715673 3
3.714751 4.5320792 -0.30710742 1
2.0310938 2.4691777 -0.85669106 9
1.7737786 2.1555974 0.048727117 100
2.2032933 2.6766138 -0.80037582 7
1.787605 2.1708536 0.14737807 100
2.4173565 2.9356186 -0.7391941 7
1.7848902 2.1667879 0.24560487 103
2.6757655 3.247118 -0.66641092 1
1.7841583 2.1643574 0.34440279 144
2.9590697 3.5883665 -0.57107979 2
3.9357483 4.7710509 0.97959268 2
3.3116295 4.0144725 -0.45530161 1
3.836199 4.6487212 1.1715673 4
3.730545 4.5190868 -0.30710742 1
3.8462048 4.6558781 -0.10541254 2
2.0397 2.4620731 -0.85669106 9
1.7787406 2.1463127 0.048657309 100
2.2026737 2.6569042 -0.79677659 7
1.7926214 2.161526 0.14716873 106
2.4225752 2.9211183 -0.73766762 7
1.7937156 2.1620772 0.24577919 106
2.7022235 3.2559988 -0.67016536 1
1.7802898 2.1443706 0.34220913 129
2.9576271 3.5612164 -0.56839865 2
3.9069355 4.7025838 0.96832943 2
3.323077 3.9998226 -0.45495299 1
3.8436179 4.6247339 1.168896 8
3.7462983 4.5060363 -0.30710742 1
3.8854532 4.670095 -0.10604082 2
2.0458074 2.4519713 -0.85565579 9
1.7926292 2.1477666 0.048831832 100
2.216929 2.6551843 -0.79857624 7
1.7963151 2.150656 0.14685471 100
2.4415674 2.9231908 -0.74033892 6
1.7986975 2.1527445 0.24543057 100
2.6983678 3.2283599 -0.66641092 1
1.7903113 2.1411884 0.34269661 133
2.9649465 3.5447791 -0.5674237 2
3.9233234 4.6889205 0.96832943 2
3.3267877 3.9759767 -0.4535585 1
3.8572187 4.6082768 1.1681327 1
2.0593243 2.4507315 -0.85772634 9
1.8014017 2.1430268 0.048866738 108
2.2261844 2.647429 -0.79857624 7
1.799955 2.139787 0.1465407 100
2.44923 2.9116452 -0.73957568 7
1.808766 2.149502 0.24577919 100
2.7096214 3.2189205 -0.66641092 1
1.8028898 2.1409996 0.34367159 133
2.9824171 3.5404813 -0.56839865 2
3.9651268 4.7054071 0.97458684 2
3.3380795 3.9612916 -0.45320985 1
3.9023857 4.6293082 1.1769099 1
3.8111405 4.5194702 -0.30982888 1
2.0628743 2.4376302 -0.85565579 9
1.8101639 2.1382515 0.048901644 100
2.2429678 2.6485653 -0.80127567 7
1.8087026 2.135016 0.14664535 103
2.4543004 2.8970881 -0.73804927 6
1.8059537 2.1310148 0.24438471 100
2.7195632 3.2079365 -0.66609806 1
1.8090669 2.1331804 0.34342784 141
3.0076001 3.5451858 -0.57083601 2
3.955965 4.6614141 0.96832943 2
3.362201 3.961767 -0.45460433 1
3.9185202 4.6156592 1.1769099 1
2.0663588 2.4245327 -0.85358524 9
1.8163189 2.1303985 0.048866738 47
2.2496707 2.6377535 -0.80037582 7
1.8265154 2.1408441 0.14748274 103
2.469496 2.8944767 -0.73957568 6
1.8120874 2.1231828 0.24421038 103
2.7307453 3.1984231 -0.66609806 1
1.8216597 2.1328902 0.34440279 137
3.0083511 3.5210834 -0.56864244 2
3.37342 3.9469783 -0.45425573 1
3.934607 4.6019535 1.1769099 1
2.0823584 2.4261007 -0.85669106 9
2.2537866 2.623971 -0.79857624 7
1.8300719 2.1299112 0.14716873 100
2.4808633 2.8873284 -0.73995733 7
1.8272806 2.1259096 0.24525626 103
2.7728033 3.2248189 -0.67360687 1
1.8226209 2.1189938 0.34318411 129
3.0283933 3.5195885 -0.57010484 3
3.3845785 3.9321578 -0.4539071 1
3.9403982 4.5762901 1.173857 1
2.0933416 2.4217396 -0.85772634 9
3.9683588 4.5892859 0.1059012 2
2.2603817 2.6131406 -0.79767644 7
1.8283479 2.1129375 0.14643602 100
2.4973509 2.8860736 -0.7418654 6
1.8333858 2.1180124 0.24508193 100
2.7788699 3.2091475 -0.67235541 1
1.824808 2.1066163 0.34220913 129
3.0406594 3.5089967 -0.57010484 2
3.4015775 3.9227376 -0.45425573 1
3.9666386 4.5743723 1.1769099 1
3.9052813 4.502027 -0.31234103 1
3.9692965 4.5725985 -0.10569178 4
2.1047404 2.4169652 -0.85876161 9
3.9974856 4.590487 0.10625025 2
2.2771704 2.6140501 -0.80037582 7
1.8357129 2.1065419 0.14643602 100
2.4988809 2.8665419 -0.7391941 7
1.843756 2.1142812 0.24543057 100
2.7828226 3.1900086 -0.67047822 1
1.830846 2.0987375 0.34196541 123
3.0502787 3.4953706 -0.56961739 2
3.4283559 3.9258461 -0.45599884 1
3.983377 4.559804 1.1769099 1
3.8560441 4.4124866 -0.30710742 1
2.1080701 2.4037933 -0.85669106 9
2.2841647 2.6027575 -0.79947603 7
1.8456892 2.1031239 0.14664535 100
2.5127583 2.8622272 -0.74033892 5
1.8458645 2.1018455 0.24473332 100
2.7756879 3.1594996 -0.66609806 1
1.8411463 2.0949957 0.34245288 118
3.0690138 3.4921563 -0.57083601 2
4.0367146 4.5916634 0.96832943 2
3.4315119 3.9018865 -0.45460433 1
3.9992707 4.5458708 1.1769099 1
3.9189241 4.4529753 -0.31087559 1
2.1211445 2.4025817 -0.85876161 9
2.2979438 2.601011 -0.80127567 7
1.8552977 2.0999858 0.14685471 103
2.5183363 2.8494649 -0.7391941 7
1.8515054 2.0942199 0.24455902 103
2.8018529 3.1680343 -0.66985244 1
1.8533455 2.0948253 0.34342784 28
3.0805783 3.4819591 -0.57083601 2
3.4391484 3.8845196 -0.4539071 1
4.0143247 4.5325823 1.1769099 1
3.9336681 4.4399562 -0.31087559 1
2.1316667 2.3984227 -0.85979694 9
2.3013766 2.5875509 -0.79947603 7
1.8666 2.0979726 0.14716873 100
2.5316861 2.8454988 -0.74033892 6
1.8610886 2.0910454 0.24490763 103
2.7965815 3.141021 -0.66609806 1
3.0887501 3.4667404 -0.57010484 2
3.4546638 3.8760674 -0.45425573 1
4.0293322 4.5192466 1.1769099 1
3.9005103 4.373229 -0.30710742 1
2.1348715 2.3852098 -0.85772634 9
2.3155963 2.5853078 -0.80127567 7
1.8619163 2.0780573 0.14622667 32
2.5402925 2.8351829 -0.73995733 7
1.8697067 2.0860193 0.24508193 106
2.8075294 3.1312392 -0.66609806 1
3.0928793 3.4470718 -0.56864244 2
3.4841433 3.8817763 -0.45634744 1
4.0450816 4.5051546 1.1769099 1
3.963799 4.4130778 -0.31087559 1
2.145772 2.3806126 -0.85876161 9
2.3167734 2.5685284 -0.79857624 7
2.5541201 2.8306704 -0.74110222 6
1.8809824 2.0839167 0.24560487 103
2.8502123 3.1566095 -0.67360687 1
3.112879 3.445091 -0.57010484 3
3.4923255 3.8636811 -0.45565021 1
4.0607843 4.4910064 1.1769099 1
3.9791806 4.3992138 -0.31087559 1
4.0768237 4.5040026 -0.10604082 4
2.1436796 2.3616657 -0.85462052 9
4.0677624 4.4798284 0.10562197 4
2.3388286 2.5748501 -0.80307525 7
4.041532 4.447825 0.3149578 5
2.5560617 2.8130214 -0.73881245 7
1.8815441 2.0699668 0.24473332 109
2.8293197 3.1115639 -0.66609806 1
3.1369085 3.4474187 -0.57229847 2
3.4977453 3.8426256 -0.45460433 1
3.9460936 4.3321428 -0.30710742 1
2.1545181 2.3570199 -0.85565579 9
2.345171 2.5637949 -0.80217546 7
2.5711675 2.8098748 -0.74033892 6
1.8833777 2.0575075 0.24403608 106
2.8561714 3.1191516 -0.66985244 1
3.1529474 3.4408376 -0.5730297 2
3.5245993 3.8450804 -0.45634744 1
3.9611926 4.3183408 -0.30710742 1
2.1679664 2.3551695 -0.85772634 9
2.3488255 2.5498593 -0.80037582 7
2.5902739 2.8109882 -0.74301028 7
1.8959494 2.0567806 0.24473332 106
2.8509738 3.0917358 -0.66609806 1
3.1743617 3.4400237 -0.57473588 2
3.5244865 3.8181131 -0.45460433 1
4.0440025 4.3778434 -0.31234103 1
2.1788003 2.3504217 -0.85876161 9
2.3630137 2.547359 -0.80217546 7
2.5987341 2.8004909 -0.74262863 7
1.9085388 2.0559914 0.24543057 106
2.9289582 3.1541402 -0.68174148 1
3.1552699 3.3954768 -0.56912988 2
3.538456 3.8051703 -0.45460433 1
3.9912417 4.2905831 -0.30710742 1
2.1873999 2.3424206 -0.85876161 9
2.3745513 2.5419436 -0.80307525 7
2.6022782 2.7837753 -0.74072057 7
1.9106188 2.0431609 0.24473332 100
2.905412 3.1058774 -0.67360687 1
3.1793113 3.3974867 -0.57132351 2
3.5571656 3.7986121 -0.45530161 1
2.1955638 2.3347704 -0.85876161 9
2.3918645 2.541739 -0.80577469 7
2.6133246 2.7761049 -0.74110222 6
1.9054455 2.0234251 0.24316452 82
2.9053991 3.0842147 -0.67110395 1
3.189018 3.3829226 -0.57083601 2
3.5704045 3.786171 -0.45530161 1
4.0903826 4.3345404 -0.31234103 1
4.1949639 4.44381 -0.10666911 2
2.203701 2.3270917 -0.85876161 9
4.1661897 4.3994646 0.10576159 2
2.3949187 2.5281348 -0.80397505 7
4.1667681 4.3970013 0.31746995 1
2.6351559 2.7797883 -0.74453676 7
2.9074547 3.0659633 -0.66922677 1
3.2193503 3.3924873 -0.57424843 2
3.59183 3.7823541 -0.45634744 1
4.282093 4.5045056 -0.10848416 2
2.2114053 2.3197715 -0.85876161 9
4.2339611 4.4398875 0.10708796 2
2.3983493 2.5141187 -0.80217546 7
4.195879 4.3968792 0.31851667 1
2.6430037 2.7696147 -0.74415511 6
4.1231294 4.3191352 0.52241153 4
2.9317825 3.0700808 -0.67235541 1
3.2256858 3.3754888 -0.57327342 2
3.6071057 3.7733033 -0.45669609 1
4.0507593 4.2344379 -0.30710742 1
2.2248402 2.3176131 -0.86083221 9
2.3990111 2.497299 -0.79947603 7
2.6540151 2.7617884 -0.74453676 7
2.9342666 3.0512846 -0.67047822 1
3.2264383 3.3527648 -0.57132351 3
3.634074 3.7750421 -0.4584392 1
4.1153998 4.2720532 -0.31087559 1
2.230232 2.3070545 -0.85979694 9
2.4185526 2.5001149 -0.80307525 7
2.6540833 2.7426307 -0.7418654 6
2.9448988 3.041024 -0.67047822 1
3.2491741 3.3528855 -0.57327342 2
3.6284664 3.7416739 -0.45599884 1
4.1302881 4.2576613 -0.31087559 1
2.2305853 2.290561 -0.85669106 9
2.438144 2.5028238 -0.80667448 7
2.6613762 2.7300737 -0.74110222 6
2.9532654 3.0273826 -0.66985244 1
3.2622423 3.3429463 -0.5735172 3
3.6470742 3.7346861 -0.45669609 1
4.1849504 4.2824917 -0.31380641 1
2.2439783 2.2882776 -0.85876161 10
2.4418406 2.4883077 -0.80487484 7
2.6708903 2.7207663 -0.74110222 5
2.9748905 3.0283282 -0.67235541 1
3.2891972 3.3471122 -0.57619828 2
3.6600876 3.7219336 -0.45669609 1
4.1802578 4.2479305 -0.31234103 1
4.374083 4.4433374 -0.1088332 2
2.2596982 2.289072 -0.86186743 9
4.3108025 4.3653193 0.10708796 2
2.4582956 2.4885154 -0.80757427 7
4.2487631 4.3009934 0.3168419 1
2.6826589 2.7146866 -0.7418654 6
2.9710262 3.0044012 -0.66922677 1
3.2974877 3.3333633 -0.57571083 2
3.6696055 3.7069445 -0.45634744 1
4.1943226 4.2340436 -0.31234103 1
4.3127842 4.352108 -0.10694835 2
2.2727227 2.2870476 -0.86393797 9
4.3026977 4.32831 0.10652949 2
2.4555418 2.4692945 -0.80397505 7
4.2707944 4.2932143 0.31736526 3
2.7054918 2.7196946 -0.74568158 6
4.2372355 4.257997 0.52554911 5
3.0088463 3.022531 -0.67548412 1
3.2978928 3.3105836 -0.57376093 2
3.682524 3.6941116 -0.45634744 1
4.2083416 4.2201104 -0.31234103 1
2.2756226 2.2732415 -0.86186743 9
2.4669037 2.4634624 -0.80487484 7
2.7043235 2.6986668 -0.74262863 6
2.9779408 2.9696379 -0.66609806 1
3.3052125 3.2948465 -0.5730297 2
3.7208035 3.7065461 -0.45948508 1
4.2237816 4.2046566 -0.31234103 1
2.2808003 2.2625637 -0.86083221 9
2.4786847 2.4571476 -0.80577469 7
2.7109377 2.6864471 -0.7418654 5
3.0163617 2.9870231 -0.67235541 1
3.3088012 3.2743318 -0.57156724 2
3.6968927 3.6571033 -0.45495299 1
11.192824 11.068493 3.0598133 3
4.2384319 4.189888 -0.31234103 1
2.2886848 2.2545877 -0.86083221 9
2.4840417 2.4461801 -0.80487484 7
2.7370913 2.6934915 -0.74644482 7
3.0121679 2.9631519 -0.66922677 1
3.3437061 3.2869995 -0.57571083 2
3.7067926 3.6413848 -0.45460433 1
11.202856 11.005177 3.0525625 27
4.2722526 4.1954026 -0.31380641 1
2.2989097 2.2496889 -0.86186743 9
2.4897783 2.4347701 -0.80397505 7
2.7460086 2.6843996 -0.74644482 6
3.0507529 2.9802275 -0.67548412 1
3.3622627 3.2822402 -0.57692951 2
3.7530694 3.6624699 -0.45878783 1
4.2668538 4.1609406 -0.31234103 1
4.5341625 4.4185276 -0.11050864 2
2.3012075 2.2362645 -0.85979694 9
4.5439658 4.4141874 0.11057845 2
2.5010588 2.4287789 -0.80487484 7
4.4812121 4.3501868 0.3273091 1
2.7553618 2.6747983 -0.74644482 6
3.0554667 2.9640574 -0.67423266 1
4.4319506 4.2978611 0.75802737 3
3.3651469 3.2621937 -0.57546705 2
4.4301934 4.2931576 0.97708976 100
3.737216 3.6216154 -0.45530161 1
4.3854203 4.2482848 1.186832 38
4.3157854 4.1793685 -0.31485313 1
4.4231009 4.2803006 -0.10743701 2
2.3173399 2.2362673 -0.8629027 9
4.3952799 4.2400255 0.1065993 4
2.509521 2.4200342 -0.80487484 7
4.3770218 4.2194676 0.31862134 3
2.7505472 2.6515391 -0.74262863 5
4.3498707 4.1918254 0.52851242 2
3.0572596 2.9451501 -0.67235541 1
4.4540744 4.2892499 0.75924611 1
3.3793747 3.2531803 -0.57595456 2
4.4366136 4.2694478 0.97521257 21
3.7842908 3.6417036 -0.45948508 1
4.3677793 4.2002711 -0.31757462 1
4.4654093 4.2911625 -0.10810021 4
4.3536453 4.1822944 1.6176192 7
2.3223426 2.225491 -0.86186743 9
4.4475956 4.2606273 0.10750683 7
2.5263987 2.4193459 -0.80757427 7
4.4249082 4.2359281 0.3210288 5
2.771132 2.652782 -0.74568158 6
4.3702316 4.1821294 0.52920967 5
3.081795 2.9481161 -0.67548412 1
4.4173727 4.2242846 0.75047147 1
3.3921421 3.242738 -0.57619828 2
4.4472041 4.2498412 0.97427392 28
3.7912173 3.6229665 -0.45878783 1
4.4234896 4.2257018 1.1891217 91
4.4286351 4.2291403 -0.32092413 1
4.4832559 4.2783093 -0.10817002 4
4.3696165 4.1684041 1.6181368 5
2.3328953 2.2200348 -0.8629027 9
4.4537487 4.236805 0.1072974 7
2.5348291 2.4105117 -0.80757427 7
4.4454565 4.2259617 0.32144746 7
2.7846432 2.6471512 -0.74682647 7
4.400691 4.1819448 0.5311271 6
3.0920677 2.9373398 -0.67548412 1
4.3716331 4.1514282 0.74023443 10
3.4063213 3.2336104 -0.57668579 2
4.3359194 4.1146321 0.94674152 7
3.8009512 3.6069665 -0.4584392 1
4.4211197 4.1940227 1.1845423 87
4.3969941 4.1696782 -0.31757462 1
4.3927183 4.1641636 1.397396 19
4.4981618 4.2626348 -0.10817002 4
4.3322463 4.1039715 1.5989841 1
2.340631 2.2118773 -0.8629027 9
4.4772344 4.2294712 0.10750683 7
2.5432262 2.4016507 -0.80757427 7
4.4674435 4.2172723 0.32197085 5
2.7952948 2.6387618 -0.74720806 6
4.4152632 4.1665568 0.5311271 6
3.1023002 2.9265308 -0.67548412 1
4.3774338 4.1279707 0.73877203 8
3.4132555 3.2176144 -0.57595456 2
4.3560033 4.1048942 0.94799298 9
3.8222163 3.6018779 -0.45948508 1
4.3388219 4.0858407 -0.31234103 1
4.297966 4.0459557 1.3627534 10
4.2564917 4.004108 1.5658553 7
2.3539734 2.2089808 -0.86497331 9
2.5515947 2.3927577 -0.80757427 7
2.7958956 2.6209316 -0.74491841 6
4.4370484 4.1579318 0.53199863 4
3.1211474 2.9237862 -0.67736137 1
4.4005108 4.1208053 0.74023443 8
3.4114227 3.1934712 -0.57376093 2
4.3688641 4.0883126 0.94768006 9
3.8260384 3.5803449 -0.4584392 1
4.3312945 4.0517344 1.152868 9
4.4259968 4.1388798 -0.31757462 1
4.3035226 4.0229425 1.3600541 10
4.2817354 3.9997766 1.5699965 8
2.3616683 2.2007523 -0.86497331 9
2.559931 2.383837 -0.80757427 7
2.8021514 2.6084826 -0.74415511 6
3.1168716 2.8994181 -0.67423266 1
4.5486054 4.2297888 0.76265842 1
3.4472668 3.204519 -0.57790446 2
4.4019208 4.090517 0.95174736 4
3.8706231 3.5968046 -0.46227407 1
4.3597922 4.0499554 1.1566842 8
4.4404182 4.1234035 -0.31757462 1
4.3318224 4.021153 1.3645531 10
4.5410857 4.2139373 -0.1081351 2
4.2928395 3.9821773 1.5689611 8
2.3665006 2.1898699 -0.86393797 9
4.5212779 4.1823554 0.10750683 2
2.5710986 2.377532 -0.80847406 7
4.4922943 4.1526351 0.32061011 1
2.821332 2.6080132 -0.74682647 7
4.4557247 4.1173887 0.53077847 1
3.1240706 2.8858404 -0.67360687 1
4.6100125 4.2569785 0.7704581 1
3.4628069 3.1965065 -0.57863569 2
4.5831208 4.2291837 0.98772728 2
3.859726 3.5616539 -0.45948508 1
4.5167665 4.1664944 1.1944643 1
4.4547858 4.1078773 -0.31757462 1
4.3365536 3.9946532 1.5798315 3
2.3712847 2.1789825 -0.8629027 9
2.5765121 2.365906 -0.80757427 7
2.8289716 2.5968218 -0.74644482 6
4.4539213 4.0869942 0.52886105 2
3.1341259 2.874917 -0.67360687 1
4.6570311 4.2703772 0.77582031 1
3.4710164 3.1817176 -0.57814825 2
4.618247 4.231843 0.99210751 2
3.8809495 3.5562344 -0.46053094 1
4.5544453 4.1719213 1.2005702 1
4.4396348 4.0653296 -0.31548119 1
4.4972897 4.1137962 1.6331483 1
2.3838258 2.1767321 -0.86497331 9
2.5868104 2.3604274 -0.80847406 7
2.8458195 2.5958595 -0.74873453 6
3.1519012 2.8730416 -0.67548412 1
4.6997709 4.282465 0.78069508 1
3.4898012 3.1788168 -0.57961065 2
3.8921018 3.5440249 -0.46053094 1
4.4819303 4.0782437 -0.31757462 1
4.535924 4.123035 1.6424657 1
2.3942709 2.1709933 -0.86600858 9
2.5892584 2.346149 -0.80667448 7
2.8519526 2.5832744 -0.7479713 6
3.1619115 2.8620212 -0.67548412 1
4.7264657 4.27669 0.78264499 1
3.4920421 3.1586268 -0.57814825 2
3.9103615 3.5357618 -0.46122819 1
4.4961381 4.0625749 -0.31757462 1
2.4003997 2.1613293 -0.86549091 9
2.6090209 2.3475246 -0.81027371 7
2.8609533 2.5733025 -0.7479713 6
3.1601286 2.8404028 -0.67298114 1
4.7649922 4.2813921 0.7865448 1
3.507478 3.1503966 -0.57887942 2
3.9226789 3.5220914 -0.46122819 1
4.4716415 4.0121751 -0.31485313 1
2.4021683 2.1477871 -0.86342037 9
2.6201053 2.3410003 -0.8111735 7
2.8699176 2.5633011 -0.7479713 6
3.1818137 2.8398786 -0.67548412 1
4.8095322 4.2911658 0.79141963 1
3.5258601 3.1447415 -0.58009815 2
3.9290001 3.5030739 -0.46053094 1
4.5243907 4.0310874 -0.31757462 1
4.6478143 4.1381407 -0.10862378 2
2.4168746 2.1458013 -0.86600858 9
4.6303782 4.1095967 0.1080653 2
2.631176 2.3344274 -0.81207329 7
4.6359091 4.1130633 0.32479697 1
2.8876612 2.5610828 -0.75026101 6
3.2005768 2.8366165 -0.67736137 1
4.8571706 4.3033104 0.79678184 1
3.5293863 3.125833 -0.57887942 2
3.9650714 3.5104706 -0.46331993 1
4.5384355 4.0152683 -0.31757462 1
2.4359424 2.1475728 -0.87014967 9
2.6301315 2.3179576 -0.80937392 9
4.6262612 4.0757298 0.32312223 1
2.8965828 2.550988 -0.75026101 7
4.5670514 4.0207362 0.53234726 2
3.1951396 2.8129337 -0.67423266 1
4.8714132 4.2871809 0.79678184 1
3.5531468 3.1259117 -0.58107305 2
3.9593461 3.4808214 -0.46122819 1
4.5517263 4.000195 -0.31757462 1
2.4430504 2.1394835 -0.87014967 9
2.6382074 2.3087621 -0.80937392 9
2.9065051 2.5426605 -0.75064266 7
3.1960168 2.7939618 -0.67235541 1
4.9192343 4.2988863 0.80214405 1
3.55058 3.1017385 -0.57887942 2
3.9918776 3.4860189 -0.46366853 1
10.619121 9.2701778 2.7400174 2
4.565659 3.9842851 -0.31757462 1
2.4505041 2.1309419 -0.87014967 9
2.6491904 2.3020971 -0.81027371 7
2.9094336 2.5273502 -0.74911612 7
3.2057478 2.7827907 -0.67235541 1
4.9462042 4.2920985 0.80409402 1
3.5598867 3.0880241 -0.57863569 2
4.0341282 3.498168 -0.46715477 1
4.6097283 3.9944816 -0.31966805 1
2.4506173 2.1160617 -0.86756152 7
2.6601617 2.2953811 -0.8111735 7
2.9137785 2.5133309 -0.7479713 6
3.2094581 2.7664239 -0.67110395 1
4.9942412 4.3033123 0.80945623 1
3.5826764 3.0859442 -0.5805856 2
4.9952416 4.3011413 1.0440438 57
4.0076604 3.4495659 -0.46262267 1
4.9668231 4.2751584 1.2738409 2
4.5933638 3.9523139 -0.31757462 1
2.4568892 2.1058087 -0.86704385 9
2.6666787 2.2848127 -0.8107236 7
2.9319181 2.5102963 -0.75026101 6
3.228581 2.7623479 -0.67298114 1
5.0182796 4.2935996 0.81091869 1
3.603987 3.0824504 -0.58229178 2
4.0287623 3.443325 -0.46366853 1
4.9735022 4.2492747 1.2715513 100
4.6078196 3.9354508 -0.31757462 1
4.9559879 4.2313228 1.5044726 20
4.763165 4.0666947 -0.10932188 2
4.9152408 4.1950474 1.7314996 4
2.4598119 2.0934629 -0.86549091 7
4.7611189 4.0505986 0.10911245 2
2.6794879 2.2788117 -0.81207329 7
4.757545 4.0461273 0.3273091 1
2.9466469 2.5051327 -0.75178748 6
3.2472372 2.7587342 -0.67485833 1
5.0460906 4.2854548 0.8128686 1
3.6107204 3.065367 -0.58156055 2
5.0236416 4.2648849 1.0437309 5
4.0559487 3.4421318 -0.46541166 1
4.9718375 4.2179155 1.2673534 12
4.6763649 3.9658484 -0.3213428 1
4.955864 4.2013946 1.4999737 14
4.9224868 4.171618 1.7289113 14
2.4759564 2.0923474 -0.86859673 7
2.6900077 2.272428 -0.81297308 7
4.707551 3.975373 0.32291287 1
2.9583719 2.4973664 -0.75255072 5
4.6578679 3.9306328 0.53321886 1
3.2458007 2.7390323 -0.67266828 1
10.064405 8.4900379 1.6167189 2
3.6087244 3.0431395 -0.57961065 2
5.1276093 4.3224392 1.0621902 2
4.0740347 3.4330876 -0.46610889 1
4.9782901 4.1950808 1.2654454 2
4.634501 3.903995 -0.31757462 1
4.9237137 4.1432161 1.7242525 4
2.485841 2.0866084 -0.86963201 9
2.6949372 2.2605202 -0.81207329 7
2.9576118 2.4799731 -0.75026101 6
3.2613978 2.7327609 -0.67391974 1
9.9509306 8.3350391 1.5938075 2
3.6375899 3.0458162 -0.58253551 2
4.0915093 3.4246731 -0.46680617 1
9.9466572 8.3226013 2.5209687 2
4.6787391 3.9134231 -0.31966805 1
4.9796553 4.1606879 1.7387464 2
2.4812381 2.068023 -0.86549091 7
2.7132928 2.25983 -0.81522262 6
2.9632335 2.4671209 -0.74949777 5
3.2769921 2.7264128 -0.6751712 1
9.8731308 8.2113953 1.5767457 2
3.6420932 3.0280244 -0.58156055 2
4.0666633 3.3798072 -0.46262267 1
9.8306808 8.167387 2.4843333 2
4.6862245 3.891964 -0.31924936 1
9.7994747 8.1299038 3.4117527 2
2.4884412 2.0593498 -0.86549091 9
2.7301757 2.2577958 -0.81792206 6
2.9809058 2.4642684 -0.75178748 6
3.2560294 2.689796 -0.66891384 2
9.7149935 8.0226746 1.5470096 2
3.6511106 3.0140281 -0.58131683 2
4.1183901 3.3985634 -0.46715477 1
9.7167692 8.0155878 2.4484613 2
4.6751275 3.8552504 -0.31757462 1
9.7085047 7.9973874 3.3703418 1
2.5105412 2.0629148 -0.87066728 7
2.7199669 2.2334125 -0.81252325 6
2.9925251 2.4563382 -0.75255072 6
3.2837265 2.6934481 -0.67266828 1
9.6416273 7.9056396 1.5309228 2
3.678498 3.0151062 -0.58399796 2
4.1148157 3.3715398 -0.46541166 1
9.5928116 7.8572178 2.4102995 1
4.7349176 3.8768649 -0.32071477 1
4.8658614 3.9812431 -0.10974073 2
9.5838366 7.8386941 3.3175428 3
2.5222161 2.0578043 -0.87222022 9
4.8535132 3.9584291 0.10932188 2
2.7307677 2.2263668 -0.81342304 6
2.9980371 2.4433975 -0.75178748 5
3.3007672 2.6882055 -0.67423266 2
9.6168222 7.8293266 1.5226357 2
3.6797619 2.9947302 -0.58253551 2
4.1512895 3.3772731 -0.46820062 1
9.5196514 7.7419319 2.3851125 1
4.7422218 3.8552747 -0.32029608 1
9.504817 7.7216039 3.2813079 3
2.5338874 2.0526352 -0.87377316 9
2.7351074 2.2148452 -0.81252325 6
4.823247 3.9043972 0.32521567 1
3.0034947 2.4304481 -0.75102425 5
4.7725739 3.8606167 0.53705364 1
3.3035207 2.6722746 -0.67298114 2
3.6927595 2.9850075 -0.58302301 2
4.163054 3.3627605 -0.46820062 1
9.4169855 7.6066914 2.3530567 1
4.7549791 3.8395286 -0.32029608 1
9.3963804 7.5792222 3.2347205 3
2.5286398 2.0345323 -0.86963201 7
2.7640824 2.2223816 -0.81882185 6
3.0145993 2.4229338 -0.75178748 5
4.8412633 3.8896942 0.54332888 1
3.3189876 2.6656773 -0.67423266 3
4.9069247 3.9396319 0.77265167 3
3.6938686 2.9646432 -0.58156055 2
4.8858161 3.9198844 0.99210751 2
4.1835041 3.3564203 -0.46924651 1
4.7527714 3.8104131 -0.31924936 1
9.2931042 7.4425197 3.1902037 3
2.5342176 2.0244868 -0.8691144 9
2.7718239 2.2127187 -0.81882185 6
3.0307119 2.4185183 -0.75369561 3
3.3128288 2.6417589 -0.67110395 3
4.8942595 3.9014428 0.76850814 3
3.7119558 2.9579172 -0.58277923 2
4.8793845 3.8868046 0.98804021 4
4.1671448 3.3194511 -0.46610889 1
4.8439732 3.8572114 1.2036232 3
4.8004203 3.8211653 -0.32155213 1
2.5488353 2.0216327 -0.87170261 9
2.7703681 2.1957664 -0.81612247 6
3.037595 2.406707 -0.75331396 5
3.3359687 2.6412134 -0.67391974 3
4.9234114 3.8966582 0.77094555 3
3.7331569 2.9535627 -0.58448541 2
4.8898239 3.8672965 0.98741448 4
4.2068362 3.3271303 -0.46924651 1
4.8435445 3.8293245 1.2001886 3
4.8325338 3.8192451 -0.32280821 1
4.8035765 3.7922754 1.6398776 3
2.5589125 2.0151131 -0.87273788 7
2.762701 2.174032 -0.81162345 6
3.0598655 2.4070129 -0.7567485 3
3.3513799 2.6344366 -0.6751712 3
5.2678857 4.1394672 0.82261819 1
3.7247121 2.9257982 -0.58156055 2
5.1674123 4.0575995 1.0406022 5
4.2184234 3.3124266 -0.46924651 1
4.8815918 3.8317881 1.2062945 3
4.8081264 3.7727618 -0.32029608 1
4.8437634 3.7993629 1.4212408 1
4.9915547 3.9138811 -0.11071807 2
4.79702 3.7599907 1.6331483 3
2.5720181 2.0109284 -0.87480837 9
4.9661851 3.8814075 0.11001997 2
2.7917724 2.1811712 -0.81792206 6
3.0574174 2.3878591 -0.7540772 5
3.3589985 2.6215057 -0.67485833 2
5.2823019 4.1210546 0.82261819 1
3.7489882 2.923768 -0.58375424 2
5.2952714 4.1281962 1.0634416 2
4.2362466 3.3025801 -0.46994376 1
5.2619433 4.1007371 1.296738 42
4.8401704 3.7706876 -0.32155213 1
5.1614242 4.019506 1.5103214 12
4.8680477 3.788311 1.6528184 3
2.5637619 1.9900918 -0.86963201 7
2.8086076 2.1785798 -0.82062149 6
4.9355249 3.8270068 0.3273091 1
3.0719407 2.3819835 -0.75560367 5
4.8706169 3.7753162 0.53914541 1
3.3899889 2.6267037 -0.6792385 3
5.3092108 4.1123137 0.82456803 1
3.7544632 2.907017 -0.58302301 2
4.2540507 3.2926514 -0.47064099 1
4.8722625 3.7684314 -0.32280821 1
5.2293816 4.0431848 1.526068 8
5.2068624 4.022871 1.7630754 23
2.5768144 1.9858468 -0.87170261 7
2.8177385 2.1699522 -0.82107133 6
3.0880158 2.377233 -0.75751179 5
3.3913083 2.6088331 -0.67767417 3
5.3235345 4.0937548 0.82456803 1
3.7881944 2.9120417 -0.58667904 2
4.2655177 3.2777832 -0.47064099 1
4.8853865 3.7514021 -0.32280821 1
5.222405 4.0058479 1.763593 2
2.5960042 1.9862316 -0.87584364 7
2.8175559 2.1541843 -0.81882185 7
3.0962944 2.3664401 -0.75751179 5
3.387836 2.5873868 -0.6751712 3
5.3157015 4.0582838 0.82115573 1
3.7904468 2.8927782 -0.58546036 2
4.286438 3.2701232 -0.47168687 1
4.8984523 3.7343247 -0.32280821 1
2.6029215 1.9771582 -0.87584364 7
2.8188491 2.1396239 -0.81702226 6
3.1092272 2.3591781 -0.75865656 6
7.0100403 5.3170524 0.76975954 1
3.4125872 2.587481 -0.67829996 3
5.3171782 4.0301127 0.81920576 1
3.7957757 2.875932 -0.58472919 2
4.2914734 3.25033 -0.47098961 1
4.9273849 3.729255 -0.32385492 1
2.603637 1.9634082 -0.87377316 7
2.836822 2.1384752 -0.82017154 6
3.1048982 2.3388612 -0.75560367 6
7.0285563 5.2925515 0.76975954 1
3.4195714 2.5749609 -0.67798704 2
5.365406 4.0387211 0.82456803 1
3.8037035 2.862138 -0.58448541 2
4.3187184 3.2473028 -0.47273275 1
4.9461093 3.717696 -0.32427362 1
5.0749602 3.8117735 -0.11078788 2
2.6101341 1.9547627 -0.87377316 7
5.0521264 3.7822258 0.11015959 2
2.8505101 2.1332307 -0.82197118 6
5.0328956 3.7650886 0.32940254 1
3.1220698 2.3356075 -0.75789338 6
3.4317029 2.5653751 -0.67861283 2
3.8295758 2.8607223 -0.58692282 2
4.3166928 3.2234259 -0.47133827 1
4.9590559 3.7004092 -0.32427362 1
2.6200428 1.9479443 -0.87480837 9
2.8501172 2.1174574 -0.8197217 6
3.1428134 2.334059 -0.76094633 6
4.9751682 3.6935384 0.54210871 1
3.4469812 2.55809 -0.67986429 3
3.8491054 2.8544304 -0.58838522 2
4.3215137 3.2035949 -0.47064099 1
5.0297194 3.7258739 -0.32804179 1
2.6237171 1.9364929 -0.87377316 7
2.8574917 2.1074951 -0.8197217 6
3.1525223 2.3242383 -0.76132792 3
3.4558902 2.5460413 -0.67986429 2
3.8430593 2.8292093 -0.58594781 2
4.3583455 3.2073839 -0.47342998 1
4.9622421 3.6491327 -0.32280821 1
2.6366937 1.9318904 -0.87584364 7
2.8648305 2.0975082 -0.8197217 6
3.1621988 2.3143814 -0.76170951 5
3.4599738 2.5304632 -0.67892563 3
3.8593235 2.820462 -0.58692282 2
4.3695159 3.1921496 -0.47342998 1
4.9555931 3.617656 -0.32155213 1
2.6527956 1.929492 -0.87894952 7
2.8815932 2.0943689 -0.82242107 6
3.1639059 2.2987125 -0.7601831 5
3.4735806 2.5218525 -0.67986429 3
3.8739631 2.8104725 -0.58765399 2
4.3903089 3.183897 -0.47447586 1
5.0167098 3.6354945 -0.32469231 1
2.6501167 1.9134356 -0.87584364 7
2.9031103 2.0945585 -0.8264702 7
3.17191 2.2876551 -0.7601831 5
7.1369543 5.1454434 0.76975954 1
3.4967861 2.5201058 -0.68268013 3
3.8901944 2.8015723 -0.58862901 2
4.375525 3.1499267 -0.47168687 1
5.0812492 3.6552863 -0.32804179 1
5.1666632 3.7139945 -0.11106712 2
2.6630611 1.9086742 -0.87791425 7
5.1627388 3.6988845 0.11085769 2
2.9008965 2.077606 -0.82377076 7
5.1171389 3.6635115 0.32982123 1
3.1830695 2.2788539 -0.76094633 5
3.494314 2.4998417 -0.68049002 2
3.8999507 2.7879748 -0.58862901 2
4.3864918 3.1346369 -0.47168687 1
5.9475651 4.2486258 1.4207639 2
5.0939784 3.6375263 -0.32804179 1
2.6649854 1.8960063 -0.87636131 9
2.9097199 2.0685956 -0.82422066 6
3.1942055 2.2700026 -0.76170951 6
5.1066518 3.6277692 0.54803526 1
3.4981878 2.4841969 -0.67955142 3
3.9080391 2.773196 -0.58838522 2
4.4071579 3.1262212 -0.47273275 1
5.1066442 3.6197236 -0.32804179 1
2.6857884 1.8967237 -0.88102001 7
2.9153302 2.0573032 -0.82377076 7
3.2037127 2.259973 -0.76209116 3
3.5359006 2.4924552 -0.68518305 3
5.31112 3.7424202 0.79775679 1
3.9139695 2.7579339 -0.58789778 2
4.4375939 3.1245821 -0.47482449 1
5.1192489 3.6018748 -0.32804179 1
2.6920638 1.8878062 -0.88102001 7
2.9301167 2.0532153 -0.8260203 6
3.20315 2.2437041 -0.7601831 5
3.5457642 2.4818499 -0.68549597 3
5.2974768 3.7065797 0.79385698 1
3.9312255 2.7506304 -0.58911645 2
5.2786679 3.6920471 1.0202657 2
4.4446645 3.1075671 -0.47447586 1
5.2684736 3.6821792 1.2494174 2
5.1311646 3.5848799 -0.32804179 1
2.695138 1.8766612 -0.8799848 7
2.9337096 2.0412619 -0.82512045 6
3.2137971 2.2353108 -0.76094633 6
3.5555966 2.4712059 -0.68580878 3
5.3553872 3.7207043 0.80068165 1
3.9505863 2.7436838 -0.59057891 2
5.2817864 3.6668408 1.0183885 2
4.4582176 3.0950844 -0.47482449 1
5.2564626 3.6478968 1.2436931 1
5.1430249 3.5678432 -0.32804179 1
5.3116031 3.6820443 -0.11281236 2
5.2352285 3.6277485 1.7066529 2
2.6984944 1.8650446 -0.87894952 9
2.9472315 2.0354376 -0.82692009 6
3.2312732 2.2307718 -0.76323599 5
3.5463152 2.4464397 -0.68236721 3
5.4239044 3.7403052 0.80896878 1
3.9732144 2.7388914 -0.59252882 2
5.3173275 3.6640718 1.0227686 2
4.4755578 3.084024 -0.47552174 1
5.2772479 3.6350958 1.2456012 1
5.3639603 3.690686 -0.11365007 2
5.1969242 3.57442 1.6900884 4
2.7097671 1.8588929 -0.88050246 9
5.2675028 3.6121373 0.11148597 2
2.939853 2.0152204 -0.82287097 6
5.2178574 3.5754197 0.33149597 1
3.2438986 2.2228088 -0.76438087 5
5.3717785 3.6795096 0.56964993 1
3.5613539 2.438509 -0.68361872 3
5.5352139 3.788624 0.82359308 1
3.9729211 2.7182786 -0.59106636 2
5.4637866 3.7369311 1.0484239 2
4.4999881 3.0765963 -0.47691619 1
5.3012486 3.6244102 1.2482725 1
5.1678081 3.5318511 -0.32804179 1
5.419745 3.7012622 -0.11455759 2
5.2189441 3.5627918 1.6931943 4
2.7213528 1.85221 -0.88205534 7
5.4850645 3.7332504 0.11581416 2
2.9581475 2.0126202 -0.8260203 6
5.3624272 3.6470394 0.33986974 1
3.2487764 2.2086976 -0.76361769 5
5.1940761 3.5298908 0.54942977 1
3.5833387 2.4343207 -0.68612164 2
5.505713 3.7402747 0.81725591 1
3.9840274 2.7055101 -0.59131008 2
5.5323658 3.7555597 1.0590615 2
4.52389 3.0698185 -0.4783107 1
5.5175891 3.7427161 1.2959747 2
5.213779 3.5353055 -0.33013523 1
5.3829741 3.6486604 -0.11351045 2
5.2633338 3.566226 1.703547 4
2.727802 1.8426987 -0.88205534 7
5.3628192 3.6213524 0.11295197 2
2.968734 2.0039456 -0.82692009 6
5.4022474 3.645236 0.34154451 1
3.2629764 2.2017355 -0.76514411 4
5.3698912 3.6220355 0.56668663 1
3.5967274 2.4251113 -0.68706024 3
5.4502478 3.6734736 0.80701888 1
3.9939172 2.6908889 -0.59131008 2
5.4936624 3.6999471 1.0490496 2
4.5411882 3.0584614 -0.47900796 1
5.4296484 3.6554565 1.2723144 2
5.2393446 3.5260043 -0.33097261 1
5.354826 3.6010103 -0.11263783 4
5.4238715 3.6460638 1.7511697 4
2.7358227 1.8342407 -0.88257295 9
5.3388805 3.5781224 0.11218407 2
2.9886634 2.0022471 -0.83051926 6
5.2921371 3.5441148 0.33379877 1
3.2624865 2.1848691 -0.76323599 5
5.2997169 3.5478554 0.55797106 1
3.5986047 2.4081466 -0.68580878 3
5.2980418 3.5440526 0.78264499 1
4.0098848 2.6813474 -0.59228504 1
4.5452113 3.0381608 -0.4783107 1
5.3607569 3.5819438 1.2532336 2
5.2051144 3.4766364 -0.32804179 1
5.3657002 3.5811849 -0.11260293 2
5.4140649 3.6121025 1.7439228 4
2.7309501 1.8171891 -0.87894952 7
5.3446789 3.555033 0.11204445 2
2.9972577 1.9928806 -0.83096921 6
5.3327527 3.5444155 0.33557817 3
3.2799029 2.1799886 -0.7655257 5
5.258966 3.4940505 0.55239308 4
3.5971162 2.3890123 -0.68393159 3
5.2640729 3.4947956 0.77582031 1
4.0225291 2.6695285 -0.59277254 2
5.2592778 3.4889643 0.99961638 2
4.5325456 3.0068557 -0.47587034 1
5.2488766 3.4807487 1.2242306 1
5.2172189 3.4584446 -0.32804179 1
5.3681655 3.5558088 -0.11239351 9
5.3718758 3.5569179 1.7263231 2
2.751786 1.8172257 -0.88360828 9
5.3303552 3.5187268 0.11148597 2
2.9944353 1.9759684 -0.82826978 6
5.3400912 3.5224786 0.33526415 1
3.2858543 2.1674445 -0.76514411 4
5.3010712 3.4954123 0.55553067 4
3.6120291 2.3807924 -0.68518305 2
5.2331424 3.4480009 0.76948309 3
4.0517168 2.6685722 -0.5956974 2
5.241724 3.4510355 0.9939847 2
4.5762944 3.0129313 -0.47935659 1
5.2216368 3.436501 1.2150718 1
5.22926 3.4402106 -0.32804179 1
5.3755326 3.533752 -0.11228879 42
5.2324991 3.4384174 1.6776651 1
2.7694223 1.8150222 -0.88723171 9
5.3509679 3.5055792 0.1116605 35
2.9996848 1.9644351 -0.82781988 6
5.3323016 3.4906909 0.33400813 8
3.3065405 2.1645646 -0.768197 4
5.2932339 3.4637964 0.55343896 1
3.6236246 2.3703315 -0.68580878 2
5.2850218 3.455785 0.77533287 8
4.0510373 2.6478972 -0.594235 1
5.255393 3.4337966 0.99429762 4
4.5901198 2.9991169 -0.47970518 1
5.1974392 3.3946328 1.2066761 3
5.3014421 3.4612448 -0.33181 1
5.3744373 3.5062237 -0.11200955 76
5.1473794 3.3568165 1.6466069 1
2.7757406 1.8053446 -0.88723171 7
5.3430543 3.4737978 0.11124164 78
3.0146933 1.9592627 -0.83006936 6
5.3143058 3.4524724 0.33212399 36
3.300905 2.1444538 -0.76514411 4
5.3069639 3.446382 0.55361325 18
3.631876 2.3576686 -0.68580878 2
5.2870588 3.430836 0.77387041 14
4.0552602 2.6304984 -0.59350377 2
5.250772 3.4046848 0.99116892 7
4.6072469 2.9874129 -0.48040244 1
5.2158446 3.3807447 1.2082026 5
5.2531505 3.4036198 -0.32804179 1
5.1784573 3.3539414 1.4243901 1
5.3782482 3.482012 -0.11183503 87
5.1590662 3.3388269 1.6466069 3
2.7657948 1.7851675 -0.88205534 7
5.3635488 3.4605482 0.11141616 85
3.0378914 1.959289 -0.83456844 6
5.3296828 3.4360638 0.33233336 80
3.3083708 2.1329174 -0.76514411 4
5.2821169 3.404093 0.5497784 56
3.6467266 2.3492548 -0.68706024 2
5.2806444 3.4005356 0.77118921 26
4.0627475 2.615253 -0.59325999 2
5.2609644 3.3852651 0.99085599 21
4.6042442 2.9626863 -0.47900796 1
5.2457776 3.3741987 1.2124004 14
5.3254766 3.4241493 -0.33181 1
5.2065258 3.3463824 1.428889 9
5.4004655 3.4697013 -0.11204445 87
5.1690631 3.3197551 1.6460892 3
2.7785158 1.7796706 -0.88412589 7
5.3654904 3.4353361 0.11120673 83
3.038147 1.9444698 -0.8327688 6
5.3416438 3.4174399 0.33233336 70
3.3356409 2.1340532 -0.76972359 5
5.3006811 3.3899293 0.55047566 68
3.6582346 2.3386383 -0.68768603 2
5.2690635 3.3671184 0.76777691 63
4.0785432 2.6053312 -0.594235 2
5.2461114 3.3498695 0.98585016 33
4.6447845 2.9658961 -0.48214555 1
5.2393198 3.3442488 1.2082026 33
5.320559 3.3947971 -0.33076328 1
5.2165327 3.3271384 1.4284393 20
5.4226599 3.4572802 -0.11225387 87
5.1838789 3.3037667 1.6471245 13
2.7879722 1.7720326 -0.88516116 7
5.3892646 3.4240911 0.11145107 87
3.0416257 1.9317642 -0.83186901 6
5.3771477 3.4137588 0.33379877 68
3.3364403 2.1181867 -0.768197 4
5.3225756 3.3778098 0.55152148 64
3.6663749 2.325855 -0.68768603 2
5.2757564 3.345515 0.76704568 64
4.1043792 2.6017053 -0.59667236 2
5.2444229 3.3230793 0.98334718 78
4.631547 2.9347363 -0.47970518 1
5.2177916 3.3049281 1.2005702 66
5.3492522 3.3868871 -0.33181 1
5.2116475 3.2984886 1.4239402 31
5.4465251 3.4458127 -0.11249821 90
5.1872153 3.2804899 1.6445363 35
2.8072126 1.7705352 -0.88930225 7
5.4062586 3.4084592 0.11155578 85
3.0483499 1.9211358 -0.83186901 6
5.3704419 3.3832588 0.33264738 66
3.3571026 2.1148999 -0.77125001 4
5.344449 3.365581 0.55256736 72
3.6845009 2.3193574 -0.68956316 2
5.2907639 3.3291919 0.76753318 61
4.1033535 2.5810218 -0.59520996 1
5.2693701 3.313163 0.98585016 80
4.6653771 2.9333971 -0.48214555 1
5.2309585 3.2877378 1.2009518 80
5.3441296 3.3575699 -0.33076328 1
5.1917758 3.2605829 1.415392 80
5.4754572 3.4374106 -0.11284725 90
5.1675444 3.2428539 1.6347013 56
2.810101 1.758675 -0.88826698 7
5.4384675 3.4022923 0.11197464 100
3.061646 1.9146168 -0.83366859 6
5.3951778 3.3739038 0.33348474 75
3.3511467 2.0948422 -0.768197 4
5.3629241 3.3511269 0.55326468 70
3.7026265 2.312762 -0.6914404 2
5.3158221 3.3191149 0.76948309 70
4.1118908 2.5673993 -0.59520996 2
5.2803273 3.2956717 0.98585016 80
4.6688247 2.9128785 -0.48144829 1
5.2474003 3.2725761 1.2020967 80
5.4202237 3.379045 -0.33474082 1
5.202559 3.2433498 1.415392 80
5.4800367 3.4150054 -0.11270764 95
5.1864686 3.2308056 1.6372893 86
2.8126354 1.7473084 -0.88723171 7
5.4514179 3.3852949 0.11200955 97
3.066323 1.903425 -0.83321869 6
5.4182158 3.3633661 0.33421743 68
3.3630793 2.0868242 -0.76934189 4
5.3740087 3.333323 0.55326468 73
3.7169917 2.3046336 -0.69269186 2
5.3386097 3.3087904 0.77118921 64
4.1288176 2.5589793 -0.59642857 2
5.299624 3.2833438 0.98741448 83
4.6852345 2.9015751 -0.48214555 1
5.2665696 3.2603254 1.2040049 85
5.3838453 3.3316231 -0.33181 1
5.2215719 3.2312055 1.4176416 71
5.5032349 3.4041789 -0.11295197 97
5.1840086 3.2054617 1.6331483 93
2.8118372 1.7339149 -0.88516116 7
5.4643178 3.3682466 0.11204445 100
3.0809133 1.8983583 -0.83546823 6
5.4435291 3.3528109 0.33505484 70
3.3733251 2.0777185 -0.77010518 4
5.3918185 3.3196633 0.55396187 70
3.7044258 2.2798712 -0.68893749 2
5.3596988 3.2973082 0.77265167 71
4.136035 2.5435104 -0.59618485 2
5.3228307 3.2720697 0.98960453 80
4.6817555 2.8768568 -0.48075107 1
5.2756801 3.2418134 1.2036232 80
5.3948631 3.3137522 -0.33181 1
5.2510848 3.2241788 1.4225905 80
5.5236068 3.3901772 -0.1131265 95
5.1984596 3.1893656 1.6341835 93
2.8313575 1.7316617 -0.88930225 7
5.4811587 3.3522832 0.11214916 97
3.0875213 1.8875915 -0.83546823 6
5.4620166 3.3379533 0.33547351 70
3.3859432 2.0684118 -0.77125001 4
5.4073496 3.3019567 0.5543105 72
3.7279339 2.2755389 -0.69175333 2
5.3677878 3.2765095 0.77216423 64
4.1618333 2.5393977 -0.59862226 2
5.3409662 3.2575824 0.99085599 80
4.7223902 2.8791647 -0.48388866 1
5.2875257 3.2224562 1.2036232 80
5.4308515 3.3085058 -0.33327541 1
5.2661972 3.2069342 1.4234902 80
5.5456553 3.3771148 -0.11333593 90
5.2227621 3.1792374 1.6383246 93
2.8406887 1.7237716 -0.89033753 7
5.5105052 3.3425431 0.11249821 100
3.0910859 1.8742425 -0.83456844 6
5.4742136 3.3179128 0.33547351 68
3.3931432 2.0565791 -0.77125001 4
5.4341779 3.2923543 0.55587929 75
3.7426112 2.2666075 -0.69300479 2
5.3899493 3.2629831 0.77362669 66
4.1779065 2.5282366 -0.59959722 2
5.3647013 3.2451437 0.99304616 83
4.7153621 2.852354 -0.48214555 1
5.3121834 3.2121053 1.2066761 80
5.527832 3.3411841 -0.33850899 1
5.2723541 3.1855123 1.4221406 75
5.5768242 3.3681388 -0.11371988 100
5.247611 3.1680601 1.6424657 93
2.8566175 1.7198256 -0.89344335 7
5.5341339 3.3305042 0.11274255 95
3.1042893 1.8674586 -0.83636802 6
5.4926062 3.3029048 0.3358922 70
3.3986173 2.0437129 -0.77086836 4
5.455884 3.2795227 0.55692518 75
3.7352617 2.2443721 -0.69018894 2
5.4132166 3.251307 0.77533287 70
4.1798978 2.5095513 -0.59862226 2
5.3759971 3.2263958 0.99304616 87
4.749208 2.8502295 -0.48458594 1
5.3385134 3.2026362 1.2101108 85
5.5394607 3.3218689 -0.33850899 1
5.2934704 3.173099 1.42484 76
5.5765409 3.3414555 -0.11347555 95
5.2652659 3.1536949 1.6445363 93
2.8493354 1.7019178 -0.88930225 7
5.5543118 3.3162901 0.11291707 97
3.1091151 1.855613 -0.83591807 5
5.5143938 3.2898502 0.33652022 70
3.4175334 2.0388775 -0.77353972 4
5.4707222 3.2624977 0.55727381 76
3.748163 2.2343552 -0.69112754 4
5.4296494 3.2354386 0.7760641 68
4.1954551 2.4990079 -0.59959722 2
5.3940148 3.2116539 0.99429762 83
4.7693987 2.8397508 -0.48563176 1
5.3564091 3.1879969 1.2116373 84
5.5510235 3.302511 -0.33850899 1
5.3162389 3.161576 1.4279894 80
5.6070762 3.3332133 -0.1138595 100
5.2762432 3.1352949 1.6445363 93
2.8752034 1.7037787 -0.89551395 7
5.5624099 3.2948472 0.11284725 97
3.1256351 1.8507053 -0.8386175 5
5.5413141 3.2797356 0.33746228 66
3.4330773 2.0319343 -0.77544779 4
5.4855037 3.2454138 0.55762243 78
3.7627411 2.2252791 -0.692379 4
5.4545813 3.224546 0.77801394 64
4.2144065 2.4904079 -0.60105962 2
5.4170995 3.1998367 0.99648768 90
4.7655597 2.8149774 -0.48423728 1
5.3641243 3.1672821 1.210874 78
5.5177965 3.2567205 -0.33578753 1
5.3389916 3.1499298 1.4311386 82
5.6204009 3.314635 -0.11389441 90
5.2921472 3.1198025 1.6460892 88
2.8778017 1.6917745 -0.89447862 7
5.5842228 3.2814879 0.11305669 97
3.1354375 1.8417567 -0.8395173 5
5.5573268 3.264375 0.3377763 68
3.433377 2.0159628 -0.77392131 4
5.5088282 3.2333047 0.5588426 73
3.7755983 2.2151294 -0.69331765 2
5.4640908 3.2044833 0.77777022 70
4.2127976 2.4696591 -0.59959722 1
5.4362001 3.1868515 0.998052 87
4.7719193 2.7963095 -0.48388866 1
5.3802285 3.1515167 1.2120188 80
5.5739422 3.2636797 -0.33850899 1
5.3533187 3.1332412 1.4320384 76
5.6451693 3.3040581 -0.11417364 90
5.3091335 3.1061397 1.6481597 88
2.8870277 1.6836646 -0.89551395 7
5.6054387 3.268995 0.11326612 92
3.139843 1.8303697 -0.83906746 6
5.5652361 3.2429466 0.33756694 73
3.4403939 2.0039649 -0.77392131 4
5.5321326 3.2210739 0.56006277 75
3.7829216 2.202599 -0.69331765 2
5.4832664 3.1913371 0.7789889 66
4.2089543 2.4486866 -0.59789103 2
5.4490004 3.1688478 0.99836493 80
4.7988753 2.7896492 -0.48563176 1
5.4059267 3.1425362 1.2154534 91
5.5225677 3.2090521 -0.33474082 1
5.3636789 3.1154728 1.4320384 82
5.6687722 3.2913625 -0.11441798 85
5.334981 3.0963142 1.6528184 93
2.8925948 1.6740823 -0.89551395 7
5.6341243 3.259423 0.11361516 97
3.1310306 1.8106178 -0.83501828 6
5.5920839 3.2324975 0.33850899 66
3.4538186 1.9964757 -0.77544779 4
5.5583105 3.2116809 0.56163162 73
3.8042719 2.1972837 -0.69582063 2
5.5081258 3.1801193 0.78093886 61
4.2329497 2.4429109 -0.60008472 1
5.4737163 3.157706 1.0008678 76
4.8085833 2.7728822 -0.48563176 1
5.4338698 3.1334553 1.2192695 90
5.5960283 3.2256634 -0.33850899 1
5.3829637 3.1015971 1.4342879 80
5.678494 3.2705579 -0.11438307 90
5.3541293 3.0824909 1.6554067 90
2.8869827 1.6567374 -0.89189047 7
5.657609 3.2467022 0.1138595 100
3.1525457 1.8084034 -0.83906746 6
5.6067977 3.2149458 0.33871832 66
3.45941 1.9828264 -0.7750662 4
5.5665884 3.1893048 0.56128299 73
3.8191562 2.1872535 -0.69707209 2
5.5329723 3.1687663 0.78288871 63
4.2414522 2.4281192 -0.60008472 1
5.4881349 3.1405406 1.0014936 95
4.832068 2.7639954 -0.48702627 1
5.4538403 3.1183891 1.2211776 86
5.6078143 3.2051296 -0.33850899 1
5.409523 3.090548 1.4383371 82
5.6916108 3.2517095 -0.11441798 97
5.3581452 3.0599515 1.6533362 88
2.8944266 1.6476061 -0.89240813 7
5.66078 3.2210009 0.11368498 97
3.1693156 1.802618 -0.84176683 6
5.6318755 3.203253 0.33955571 64
3.4748433 1.9755909 -0.77697426 4
5.5898118 3.1767464 0.56250316 75
3.8113101 2.1651263 -0.69425625 2
5.551455 3.152385 0.78386366 63
4.2602587 2.4191811 -0.60154712 2
5.5059352 3.1252658 1.002745 85
4.8278241 2.7392442 -0.48563176 1
5.4561534 3.0944912 1.2192695 90
5.6189675 3.1855366 -0.33850899 1
5.4231329 3.074513 1.4392369 76
5.7203255 3.2416799 -0.11476702 87
5.3889637 3.0526564 1.6595478 88
2.9200587 1.6494008 -0.89861977 7
5.6888428 3.2120442 0.11403403 97
3.1701851 1.7892238 -0.84041709 5
5.6529036 3.1904478 0.34018376 64
3.4779563 1.962127 -0.77621108 4
5.6072569 3.1621087 0.56320041 75
3.833957 2.1612048 -0.69707209 2
5.5584202 3.1320078 0.78337622 63
4.2751756 2.408937 -0.60252208 1
5.5300374 3.1147468 1.005248 80
4.8542438 2.7329931 -0.48737493 1
5.4715185 3.0792682 1.2204144 86
5.6747584 3.1923475 -0.34123048 1
5.4536796 3.0679791 1.4446357 84
5.7397599 3.227592 -0.11494155 95
5.4041104 3.0376079 1.6611006 86
2.915401 1.6340419 -0.89551395 7
5.7081866 3.1980469 0.11420855 100
3.1658993 1.7729888 -0.83771771 6
5.6640038 3.1707001 0.34018376 66
3.4930077 1.9553801 -0.77811909 4
5.6264057 3.1483598 0.56407195 73
3.8342061 2.1446223 -0.69582063 2
5.5757041 3.1174371 0.78435117 60
4.2696958 2.3862526 -0.60057223 1
5.5477748 3.0992768 1.0064995 75
4.8806734 2.726599 -0.48911804 1
5.5005541 3.0716372 1.2246122 90
5.7097297 3.1871388 -0.34269586 1
5.4609528 3.0470228 1.4437358 82
5.7614708 3.2133796 -0.11515098 71
5.4264913 3.0253112 1.6647241 82
2.9278414 1.6276091 -0.8975845 7
5.7245593 3.1810145 0.11431326 92
3.1754754 1.7638202 -0.8386175 5
5.6802769 3.1538167 0.34049776 73
3.4912307 1.9384093 -0.77621108 4
5.651299 3.1364338 0.56546646 72
3.8520324 2.136976 -0.69769776 2
5.6021776 3.1066182 0.7865448 65
4.2918892 2.3790319 -0.60252208 1
5.5602865 3.0808508 1.0068123 77
4.8831897 2.7056839 -0.48842075 1
5.5232639 3.0590777 1.2272835 86
5.7243161 3.169122 -0.34290522 1
5.4732599 3.0288868 1.4441857 80
5.7481523 3.1797013 -0.11466231 16
5.4437823 3.0100892 1.6667948 82
2.9267383 1.6136473 -0.89551395 7
5.7391295 3.1629472 0.11438307 20
3.1833205 1.7536644 -0.83906746 6
5.7087469 3.1436019 0.34154451 57
3.5048549 1.9299978 -0.7777375 4
5.6604652 3.1157315 0.56529218 85
3.8560078 2.1216114 -0.69707209 2
5.621685 3.0918255 0.78776348 65
4.3071237 2.3678641 -0.60349703 1
5.5813956 3.0671299 1.0086895 77
4.8895817 2.6858485 -0.48807216 1
5.5373507 3.0416682 1.2280468 82
5.7318392 3.1472023 -0.34269586 1
5.5008841 3.0191381 1.4486848 80
5.7679834 3.1644249 -0.11483683 19
5.4508662 2.9892139 1.6657594 82
2.9394133 1.6066163 -0.8975845 7
5.7378526 3.1361794 0.11413874 20
3.2048142 1.7509501 -0.84311652 6
5.7249436 3.1265287 0.34185851 15
3.5170746 1.9199619 -0.77888238 4
5.6875896 3.1035485 0.56686091 67
3.8776307 2.1150322 -0.69957501 2
5.6463842 3.0797889 0.78971344 74
4.3118777 2.3509135 -0.60300958 2
5.5990062 3.0514081 1.009941 77
4.9024258 2.6706715 -0.48842075 1
5.5570822 3.0260479 1.2299548 84
5.7468472 3.1280787 -0.34290522 1
5.5238943 3.0054765 1.4518342 76
5.7895331 3.150007 -0.11504627 19
5.4765425 2.9784744 1.6704183 84
2.9585903 1.6037116 -0.90172559 7
5.7545829 3.1179874 0.11424346 22
3.2009282 1.7336242 -0.84041709 6
5.7416339 3.1083758 0.3421725 14
3.5272083 1.9095417 -0.77964556 4
5.6983857 3.0836802 0.56686091 16
3.8571908 2.0864451 -0.69456911 2
5.655889 3.0581274 0.78946966 50
4.3414211 2.346421 -0.60593444 1
5.6275315 3.0402567 1.0130697 100
4.9262071 2.6602578 -0.48981526 1
5.5710669 3.008496 1.2307181 91
5.7577286 3.1080034 -0.34290522 1
5.5446424 2.9917269 1.4545335 76
5.8204007 3.1392064 -0.11543022 16
5.5027256 2.9666336 1.6750768 90
2.9593434 1.5901132 -0.90017265 7
5.7848091 3.1082909 0.11462741 20
3.2189777 1.7288958 -0.84356648 6
5.74541 3.0845373 0.34175381 14
3.5307236 1.8947452 -0.77888238 4
5.6991162 3.0571215 0.56581503 16
3.8996298 2.0909641 -0.70082647 2
5.6455355 3.0271108 0.7865448 14
4.342587 2.3275001 -0.60495949 1
5.6294041 3.0159285 1.0115054 47
4.9214115 2.6355221 -0.48842075 1
5.5993643 2.9973233 1.2345343 97
5.769084 3.086875 -0.34290522 1
5.550415 2.9686289 1.4531839 86
5.8471923 3.1273596 -0.11574436 19
5.5198627 2.9510496 1.6771475 90
2.9699905 1.5824994 -0.90172559 7
5.8032217 3.0908294 0.11476702 20
3.2184124 1.7134219 -0.84176683 6
5.7737722 3.0738473 0.34280053 14
3.533849 1.880565 -0.77811909 4
5.7273431 3.0465674 0.56755817 15
3.9069054 2.077338 -0.70082647 2
5.6828852 3.0203743 0.79020089 13
4.3401675 2.3067386 -0.60349703 1
5.6241956 2.9879229 1.0086895 20
4.9376206 2.6220636 -0.48911804 1
5.6097922 2.9777608 1.2345343 35
5.7798219 3.0667224 -0.34290522 1
5.572278 2.9566014 1.4563332 84
5.8633738 3.1097393 -0.11584908 19
5.5454922 2.9399059 1.6818062 97
2.9649746 1.5672243 -0.89861977 7
5.831121 3.0809081 0.11511607 20
3.2240763 1.7027406 -0.84176683 6
5.7909975 3.0584159 0.34321922 14
3.5556922 1.8770843 -0.78155369 4
5.7427011 3.0303459 0.56808108 15
3.9277501 2.0717444 -0.70332944 4
5.705162 3.0079918 0.79190701 13
4.3723769 2.3052936 -0.60690933 1
5.6445589 2.9747803 1.0105668 20
4.9533386 2.609391 -0.48981526 1
5.6092138 2.9536517 1.2322445 20
5.8040996 3.0549791 -0.34374261 1
5.5820527 2.9381051 1.4563332 33
5.8701134 3.0884175 -0.11577927 16
5.5500808 2.9188035 1.6802533 91
2.9769988 1.5609726 -0.90069032 7
5.8359914 3.0587707 0.11501136 20
3.2417891 1.6983694 -0.84491616 5
5.8228698 3.0493031 0.3444753 14
3.556679 1.8625511 -0.7804088 5
5.759779 3.0149829 0.5687784 13
3.9275985 2.0550439 -0.70207798 2
5.7256589 2.9945772 0.79336947 13
4.4015074 2.3010542 -0.60983425 1
5.6689148 2.9623766 1.0130697 20
4.9549022 2.5892584 -0.48911804 1
5.6207175 2.9359448 1.2326262 18
5.814199 3.0357137 -0.34374261 1
5.5922751 2.9186008 1.4563332 16
5.8985872 3.0771585 -0.11612831 16
5.551672 2.8949447 1.6776651 18
2.9892862 1.5541351 -0.90276086 7
5.8679252 3.0494475 0.11543022 17
3.2494266 1.687942 -0.84536606 6
5.8441143 3.0344796 0.34510332 14
3.5753558 1.8564565 -0.78308016 5
5.7808785 3.0003645 0.56982422 13
3.9382539 2.0431416 -0.70270365 2
5.7360778 2.974571 0.79336947 13
4.4200883 2.2911565 -0.61129665 1
5.6914978 2.9489326 1.0152597 20
4.9886756 2.58478 -0.49155837 1
5.6448789 2.9235287 1.2356791 18
5.8850641 3.0466201 -0.34730142 1
5.6145439 2.9053328 1.4594824 16
5.9235034 3.0638981 -0.11640756 17
5.5634584 2.8764365 1.6781827 20
3.0032785 1.5481174 -0.90534908 7
5.8856454 3.032608 0.11556984 17
3.2518337 1.6748053 -0.84446627 6
5.851119 3.0122342 0.34489399 14
3.5835598 1.8448644 -0.78346181 4
5.8019457 2.9856381 0.5708701 15
3.9488759 2.0311882 -0.70332944 2
5.7570186 2.9599779 0.79483193 13
4.389215 2.2557518 -0.60593444 1
5.7193284 2.9380727 1.0183885 17
5.0087514 2.5719378 -0.49260426 1
5.6655288 2.9091856 1.2379688 16
