# .PCD v0.7 - Point Cloud Data file format
VERSION 0.7
FIELDS x y z intensity
SIZE 4 4 4 4
TYPE F F F F
COUNT 1 1 1 1
WIDTH 1424
HEIGHT 1
VIEWPOINT 0 0 0 1 0 0 0
POINTS 1424
DATA ascii
0.94358277 1.4834136 -0.27845338 100
1.0028358 1.5759567 0.22935812 96
0.94767785 1.4887038 -0.21668372 100
3.3848381 5.3151827 0.998052 14
0.95917732 1.5056063 -0.15618308 100
3.3838477 5.309536 1.2238491 13
0.96312129 1.5106349 -0.093890712 100
3.3733699 5.2910581 1.4486848 9
0.961335 1.5072511 -0.031204903 100
3.3677869 5.2782359 1.6776651 9
1.9338673 3.02158 -0.961254 5
0.97798133 1.5274642 0.031658668 100
0.93545175 1.4604793 -0.40041289 61
0.99240762 1.5488052 0.096402846 100
0.94161725 1.469539 -0.33925843 100
0.99670887 1.5549204 0.16158675 100
0.94901311 1.4799454 -0.27845338 100
1.0086049 1.5722708 0.22935812 96
0.9552725 1.4885614 -0.21717119 100
3.3989599 5.2944303 0.99648768 14
0.95689136 1.4905132 -0.15496291 100
3.4013011 5.2960386 1.2234674 15
0.97486651 1.5173455 -0.094518751 96
3.3885267 5.2720995 1.4468851 7
0.97009689 1.5087637 -0.031309616 100
3.3871117 5.2658558 1.6776651 7
1.9423097 3.0115635 -0.96021873 6
0.98113859 1.5206807 0.031588856 100
1.0010585 1.550365 0.096716851 94
0.95100135 1.4728402 -0.34078491 100
1.0042922 1.5547793 0.16193536 100
0.95417368 1.4766235 -0.27845338 100
1.0162427 1.5720743 0.2298456 98
0.96693027 1.4952196 -0.21863361 100
3.4249322 5.2941422 0.99867773 11
0.96425325 1.4905094 -0.15531152 100
3.4240348 5.2907248 1.2249938 3
0.98015672 1.5139337 -0.094518751 100
0.97753268 1.5087245 -0.031379428 100
3.4685159 5.3512678 1.7087234 10
1.9517553 3.0031469 -0.95970106 5
0.98317128 1.5122167 0.031484142 98
2.1908753 3.3685043 -0.92769814 3
1.012727 1.5570834 0.09734489 98
0.96041852 1.4760946 -0.34231135 100
1.0140612 1.5579431 0.16263261 97
0.96040052 1.4749389 -0.27876624 100
1.0195569 1.565191 0.22935812 98
0.96971667 1.488678 -0.21814615 100
3.5395329 5.431705 1.0268359 2
0.9716267 1.4904724 -0.15566015 100
3.5357821 5.4218106 1.2581946 2
0.98107058 1.5038117 -0.094100058 99
0.9890877 1.5155224 -0.031588856 100
3.5052538 5.3688531 1.7180409 10
1.9648784 3.0015063 -0.961254 5
0.99475348 1.5189856 0.03169357 98
2.195627 3.3514395 -0.9249987 2
1.0091293 1.5403508 0.096507512 94
0.96530855 1.4729012 -0.34231135 100
1.0235913 1.5612369 0.16332985 100
0.96853614 1.4767015 -0.27970487 100
1.0290972 1.5684406 0.23033307 96
0.97029167 1.4788153 -0.21717119 100
0.97984439 1.4922388 -0.15618308 100
0.98934221 1.5055578 -0.094414078 100
0.98971444 1.5055499 -0.031449236 100
3.5081768 5.3346024 1.710794 12
1.9641861 2.9788465 -0.95607764 5
1.00419 1.5223554 0.03183319 96
2.2131679 3.3538997 -0.92769814 2
1.018901 1.5434865 0.096926205 94
0.96586096 1.4631386 -0.34078491 98
1.0342531 1.5661465 0.16420141 100
0.97669387 1.4784263 -0.28064346 100
1.0342932 1.565019 0.23033307 96
0.97763777 1.478731 -0.21765867 100
0.98808438 1.4939668 -0.15670602 100
0.99984169 1.5105958 -0.094937436 96
0.99385911 1.500419 -0.03141433 100
3.5395832 5.3416481 1.7170056 12
1.9809873 2.981626 -0.95918339 5
1.0117112 1.5221719 0.031902999 94
2.2280993 3.3510215 -0.92904782 2
1.0242829 1.5399201 0.096926205 98
0.96770084 1.4548539 -0.33964002 67
1.0352985 1.555892 0.16350417 100
0.98184901 1.4750078 -0.28064346 100
1.0430503 1.5663563 0.2310643 88
0.98719543 1.4819179 -0.21863361 100
0.98445463 1.4772447 -0.15531152 100
1.0028918 1.5037735 -0.09472809 96
1.0013105 1.5002675 -0.031484142 100
3.5496247 5.3164077 1.7128645 12
1.9870837 2.968272 -0.95711285 5
1.0103426 1.5086615 0.03169357 96
2.2386994 3.3416042 -0.92859799 2
1.0374352 1.5479493 0.097658902 100
1.0429426 1.5555782 0.1638528 100
0.98369133 1.4666498 -0.27970487 100
1.0462991 1.5594091 0.23057681 90
0.99678785 1.4850556 -0.21960858 100
0.99404812 1.4804155 -0.15600878 100
1.0103632 1.5035789 -0.094937436 99
1.0098886 1.5017415 -0.031588856 100
3.5595355 5.2911601 1.7087234 12
2.0039153 2.9709268 -0.96021873 5
1.0189573 1.5100992 0.031798285 100
2.2427173 3.3224633 -0.92544866 2
1.0428326 1.5443183 0.097658902 100
2.5731318 3.8105199 -0.89374936 1
1.0461346 1.5486268 0.16350417 100
0.9899106 1.4648439 -0.28001773 100
1.0417305 1.540946 0.22838317 37
1.0041895 1.484856 -0.22009605 100
1.0081409 1.4901384 -0.15740328 100
1.0133657 1.4967352 -0.09472809 99
1.0196116 1.5048288 -0.031728476 100
3.5801499 5.2819023 1.7097588 12
2.0142729 2.9639142 -0.96021873 5
1.0287198 1.5131477 0.031937905 100
2.2608778 3.3242824 -0.92814809 2
1.0448462 1.5357151 0.09734489 98
2.5819991 3.7950225 -0.89222288 1
1.0571395 1.5532008 0.16437572 100
0.99612993 1.4630121 -0.2803306 98
1.0048951 1.4747802 -0.2191211 100
1.0155811 1.4899026 -0.15775189 100
1.0208349 1.496489 -0.094937436 100
1.0293684 1.5078664 -0.031868093 100
3.6072803 5.282136 1.7138997 12
2.0202415 2.9504881 -0.95814812 5
1.0419061 1.5210959 0.032182239 98
2.2636533 3.3035109 -0.9245488 3
1.0558472 1.5402951 0.097868249 100
2.5985618 3.790844 -0.89336777 1
1.0659355 1.5544305 0.16489866 100
1.0101693 1.4725581 -0.28283355 95
3.7504523 5.4651122 0.81384355 1
1.0122843 1.4745361 -0.21960858 97
1.0185188 1.4830645 -0.15740328 100
1.0305778 1.4995003 -0.095356122 100
1.0278261 1.4943788 -0.031658668 100
3.6213179 5.263145 1.7118292 12
2.0261412 2.9370573 -0.95607764 5
1.0449374 1.514158 0.032112427 98
2.2884576 3.3148332 -0.92994767 2
1.0623528 1.5382433 0.097972922 98
2.6117795 3.7817495 -0.89336777 1
1.0668247 1.5441436 0.16420141 100
1.0074418 1.4576476 -0.28064346 65
3.7333822 5.3997364 0.80604392 1
1.0219417 1.4775243 -0.22058353 100
1.0214225 1.476223 -0.15705465 100
1.0403534 1.5024619 -0.095774807 96
1.0375924 1.4973562 -0.031798285 100
3.6330626 5.2409468 1.7087234 12
2.0385842 2.9331405 -0.95711285 5
1.0456507 1.5039338 0.031972811 94
2.2855496 3.2860262 -0.92409897 2
1.0699961 1.5378052 0.098182261 96
2.6204762 3.7661653 -0.89184129 1
1.0767615 1.5469509 0.16489866 100
3.7590117 5.3964472 0.80750632 1
1.031633 1.4804626 -0.22155848 100
1.0299877 1.4775517 -0.15757757 100
1.0478776 1.5020971 -0.095984153 94
1.041667 1.4920861 -0.031763379 100
3.6424875 5.2155623 1.7045823 10
2.0510271 2.9291711 -0.95814812 5
1.0566294 1.5084647 0.032147333 100
2.3014789 3.2844126 -0.92589855 2
1.0765043 1.5356961 0.098286942 100
2.6324809 3.7553871 -0.8914597 1
1.0844425 1.5464458 0.16524729 100
3.0187473 4.3032217 -0.83254427 1
3.7504606 5.3442945 0.80165666 1
1.0390762 1.4801016 -0.22204597 100
1.0397191 1.4804695 -0.15827483 100
1.0462242 1.4886256 -0.095356122 99
1.0560728 1.501526 -0.032042619 97
3.6651187 5.2091341 1.7066529 12
2.0645797 2.9267304 -0.95970106 5
1.0665008 1.5113022 0.032286953 100
2.3174257 3.2827263 -0.92769814 2
1.0795538 1.5286663 0.098077588 100
2.6489706 3.7509866 -0.89260459 1
1.0909832 1.5442785 0.16542161 97
3.0542729 4.3216953 -0.83817595 1
3.7553399 5.3117199 0.79873174 1
1.0396503 1.4699835 -0.22107102 97
1.0517853 1.4865896 -0.1593207 100
1.0548754 1.4898554 -0.095670134 96
1.058996 1.4945669 -0.031972811 97
3.6899791 5.2057676 1.7097588 10
2.0736651 2.9179304 -0.95918339 5
1.0752461 1.5124593 0.032391667 100
2.3243523 3.2682652 -0.92589855 2
1.0883571 1.5297706 0.098391607 98
2.6620486 3.7417164 -0.89260459 1
1.1009886 1.5469536 0.16611885 97
3.0555899 4.2916975 -0.83442152 1
3.7830725 5.3115134 0.80068165 1
1.0482312 1.4711951 -0.22180222 94
1.0592808 1.4861543 -0.15966932 100
1.0693486 1.4991717 -0.096507512 96
1.0618825 1.4876062 -0.031902999 100
3.7126205 5.1991434 1.7118292 8
2.0782158 2.9028196 -0.95659518 4
1.07819 1.5054455 0.032321859 98
2.349365 3.2791417 -0.93129742 2
1.0960178 1.5292087 0.098600946 98
2.6911063 3.7547407 -0.89794719 1
1.1017377 1.5366244 0.16542161 97
3.0889723 4.3066888 -0.83942741 1
3.8131642 5.3144031 0.803119 1
1.0591476 1.4755907 -0.22302091 62
1.0528408 1.4662639 -0.1579262 100
1.0792367 1.501918 -0.096926205 96
1.0705715 1.4887608 -0.032007713 100
3.7172072 5.1673341 1.7056175 10
2.0917251 2.9002485 -0.95814812 5
1.0810987 1.4984291 0.032252047 98
2.3539553 3.2614396 -0.92859799 2
1.1095328 1.5367088 0.099333659 100
2.6881058 3.7230408 -0.89260459 1
1.1082618 1.534384 0.1655959 94
3.0993607 4.289475 -0.83817595 1
3.8247137 5.2914085 0.80165666 1
1.0661271 1.4738799 -0.15914638 98
1.0868154 1.501377 -0.097135544 100
1.0769346 1.4866344 -0.032042619 100
3.7420247 5.1637115 1.7087234 12
2.1041067 2.8960557 -0.95918339 5
1.0886737 1.4978817 0.032321859 98
2.3515728 3.2342889 -0.92319912 2
1.1137151 1.5312115 0.099228986 98
2.7241805 3.745389 -0.9002369 1
1.120644 1.5401726 0.16664177 94
3.1143138 4.2786307 -0.83817595 1
3.8291378 5.258769 0.79873174 1
1.0724384 1.4717598 -0.1593207 100
1.0873429 1.4911188 -0.096716851 99
1.0891904 1.4925576 -0.032252047 97
3.7577503 5.1474967 1.7076882 12
2.1210482 2.8980474 -0.96228927 5
1.1068904 1.5118201 0.03270581 94
2.3697584 3.2354932 -0.92589855 2
1.1140666 1.5210643 0.0988103 94
2.7186716 3.7105191 -0.894131 1
1.1260138 1.5362512 0.16664177 94
3.1152143 4.2486157 -0.83442152 1
3.8427732 5.2389693 0.79775679 1
1.0834644 1.4760377 -0.16019225 98
1.0925409 1.4873143 -0.096716851 99
1.0941336 1.4889379 -0.032252047 100
3.7679329 5.125669 1.7045823 12
2.1219809 2.8781857 -0.95814812 5
1.1107109 1.5065321 0.032670904 100
2.3712201 3.215071 -0.92229939 2
1.1217405 1.5203809 0.099019639 98
2.7269449 3.6946876 -0.89260459 1
1.1325525 1.5339143 0.16681609 91
3.1292851 4.2382627 -0.83442152 1
3.8707411 5.2405667 0.79995042 3
1.0886098 1.472247 -0.16019225 93
1.1045933 1.4933178 -0.09734489 96
1.0969445 1.4818952 -0.032182239 100
3.7949979 5.1249061 1.7087234 12
2.1361208 2.8773375 -0.96021873 5
1.114771 1.50104 0.032636002 96
2.3917251 3.2192891 -0.92589855 2
1.1341894 1.5260738 0.099647671 96
2.7344983 3.6793206 -0.89107805 1
1.1352559 1.5269523 0.16646746 91
3.1511331 4.236825 -0.83629876 1
3.8854568 5.2222443 0.79921919 3
1.0815872 1.4526485 -0.15844914 25
1.1121862 1.4926559 -0.097554229 99
1.1045017 1.481263 -0.032252047 95
3.8059351 5.1023359 1.7056175 12
2.1380508 2.859035 -0.95659518 5
1.1176077 1.4939373 0.03256619 94
2.4029486 3.2109201 -0.92589855 2
1.1442977 1.5285006 0.10006636 96
2.7567387 3.6823254 -0.894131 1
1.1441617 1.5277646 0.1669904 60
3.142216 4.19418 -0.83004135 1
3.9084258 5.215003 0.8001942 4
1.1173894 1.4887646 -0.097554229 94
1.1144696 1.483794 -0.032391667 97
3.8260419 5.0921092 1.7066529 12
2.1515055 2.8561828 -0.95814812 5
1.125223 1.4932209 0.032636002 96
2.4117956 3.1994007 -0.9249987 2
1.1496252 1.5244976 0.10006636 98
2.7766654 3.6820872 -0.89642078 1
3.9332168 5.2138715 0.57139301 82
3.1877744 4.2241836 -0.83817595 1
3.9242103 5.1981626 0.7997067 4
1.1177617 1.478482 -0.097135544 96
1.1220543 1.483085 -0.032461476 100
3.8391321 5.0725603 1.7045823 12
2.1567922 2.842499 -0.95607764 5
1.1376815 1.4988418 0.03284543 100
2.4300203 3.200274 -0.92769814 2
1.15494 1.5204751 0.10006636 96
2.7776272 3.656738 -0.89260459 1
3.9513888 5.2001128 0.57139301 105
3.1953287 4.2035937 -0.83629876 1
3.9291158 5.1670499 0.79702556 3
1.1301751 1.4841061 -0.097763576 96
1.1296489 1.4823399 -0.032531288 95
3.8661857 5.0714178 1.7087234 12
2.1737392 2.8441627 -0.95918339 5
1.1465507 1.4996268 0.032950144 100
2.4340744 3.1824841 -0.9249987 2
1.1578128 1.5132622 0.099857017 94
2.790374 3.6470206 -0.89260459 1
3.9683073 5.1847048 0.57121873 105
3.193171 4.1704559 -0.8319186 1
3.9483337 5.15488 0.79726928 1
3.8955684 5.0823097 -0.56023711 2
1.1341336 1.4785669 -0.097658902 81
1.1323808 1.4752153 -0.032461476 97
3.8862143 5.0609584 1.7097588 10
2.1742268 2.8243108 -0.9550423 5
1.1566591 1.5019525 0.033089764 100
2.4451661 3.17397 -0.9249987 2
1.1704035 1.518703 0.10048504 98
2.788707 3.6185966 -0.8880251 1
3.9802999 5.162931 0.57034713 100
3.2125318 4.1655426 -0.83317006 1
3.978431 5.1567826 0.7997067 3
3.9132817 5.0686836 -0.56023711 2
1.1399702 1.4744173 -0.032531288 100
3.894403 5.0351362 1.7056175 10
2.1852558 2.8182313 -0.95555997 6
1.1484126 1.4805253 0.03270581 98
2.4633994 3.1746526 -0.92769814 2
1.1781474 1.5177634 0.1006944 96
2.8157687 3.6274498 -0.89260459 1
3.9970748 5.1474328 0.57017285 100
3.2343245 4.1636629 -0.8350473 1
3.9976263 5.1444297 0.79995042 3
1.1500249 1.4767396 -0.032670904 97
3.9167032 5.0276084 1.7076882 10
2.1938901 2.8090639 -0.9550423 5
1.162192 1.4875377 0.032950144 100
2.4672649 3.1568222 -0.9249987 2
1.1858975 1.5167893 0.10090373 94
2.8380847 3.6299736 -0.89565748 1
4.0309768 5.1538501 0.5724389 91
3.2488379 4.152348 -0.8350473 1
4.0057702 5.1179399 0.79800051 3
3.874495 4.9484372 -0.77167672 1
1.1576406 1.4758632 -0.032740716 93
3.936615 5.0169444 1.7087234 12
2.2108493 2.8104985 -0.95814812 6
1.1710869 1.4881865 0.033054858 98
2.4734485 3.1420648 -0.92319912 2
1.1862426 1.5063636 0.10048504 94
2.8580275 3.6292987 -0.89794719 1
4.0390782 5.1272278 0.57104445 96
3.2559776 4.1316724 -0.83317006 1
4.0322123 5.1148396 0.7997067 4
3.8917437 4.9348836 -0.77167672 1
1.1627849 1.4718136 -0.032740716 93
3.9588964 5.009234 1.710794 12
2.2170467 2.7982221 -0.95659518 5
1.1874539 1.4981935 0.033369001 100
2.4928772 3.1441002 -0.92634839 2
1.1939756 1.5053437 0.1006944 96
2.8584778 3.603919 -0.894131 1
4.0606675 5.1177788 0.57156736 73
3.2679245 4.1171861 -0.83254427 1
4.0376968 5.0851874 0.79726928 3
1.1704054 1.4708756 -0.032810524 67
3.9643252 4.9802709 1.7056175 12
2.2280066 2.7919753 -0.95711285 5
1.1926761 1.4940398 0.033369001 100
2.4989724 3.1292889 -0.9245488 2
1.2067029 1.5105292 0.10132242 96
2.8661401 3.5877829 -0.89260459 1
4.0697989 5.092679 0.57034713 39
3.2995443 4.1273561 -0.83692449 1
4.0603833 5.0772624 0.79824424 3
3.9974136 4.994947 -0.5597142 2
3.9777184 4.9667826 -0.33348474 3
3.9792678 4.9633889 1.7045823 12
2.2377384 2.7841816 -0.95711285 5
1.1891125 1.4789586 0.033124667 98
2.5123241 3.1235833 -0.92544866 2
1.2119687 1.5063074 0.10132242 94
2.8638783 3.5593998 -0.8880251 1
4.0838022 5.0737863 0.56982422 51
3.2866778 4.0819626 -0.83004135 1
4.0930257 5.0816088 0.80116916 3
4.0148263 4.9809618 -0.5597142 2
3.9950306 4.952868 -0.33348474 1
4.0569015 5.0259776 -0.11274255 2
3.9989951 4.9524746 1.7056175 12
2.2462285 2.7748513 -0.95659518 4
1.1980436 1.4794607 0.033229381 100
2.5195298 3.1102533 -0.92409897 2
1.2272786 1.5144818 0.1021598 92
2.9183102 3.6012423 -0.90100008 1
4.1052532 5.0641422 0.57034713 37
3.3009036 4.0704675 -0.83004135 1
4.0982318 5.0518756 0.79873174 4
3.9152348 4.824574 -0.76290214 1
4.0308862 4.9564705 1.7118292 10
2.2620051 2.7744796 -0.95918339 5
1.2120473 1.4861176 0.033473715 98
2.5303721 3.101439 -0.92409897 2
1.2224551 1.4978096 0.10132242 92
2.9035547 3.5575719 -0.89260459 1
4.1342454 5.0636725 0.57191598 16
3.3475821 4.0986981 -0.83817595 1
4.1183543 5.0406122 0.79921919 4
3.9772758 4.8662119 -0.77167672 1
4.18817 5.1151209 -0.11539531 2
4.0432677 4.9363904 1.7097588 12
2.2679963 2.7620893 -0.95763052 5
1.2197664 1.4849678 0.033543523 94
2.5411835 3.0925865 -0.92409897 2
1.2350229 1.5030066 0.10195045 94
2.9259257 3.5595496 -0.89565748 1
4.1481004 5.0445924 0.57139301 13
3.3392813 4.0595264 -0.83254427 1
4.1409664 5.03234 0.8001942 1
3.9942393 4.8522978 -0.77167672 1
4.0522375 4.9140153 1.7066529 12
2.2665443 2.7407565 -0.95297176 5
1.2208605 1.4762919 0.033438813 22
2.5563948 3.0901484 -0.92589855 2
1.2479017 1.5079187 0.10257848 75
2.9458458 3.5583878 -0.89794719 1
4.1593313 5.0224085 0.57052147 10
3.3426464 4.0362587 -0.83004135 1
4.182961 5.0491524 0.80506897 1
4.0103073 4.8390265 -0.77167672 1
4.0693674 4.8998394 1.7066529 10
2.2830379 2.7421324 -0.95607764 5
2.5671637 3.081208 -0.92589855 2
1.2541736 1.5053071 0.10268316 23
2.9475746 3.5365331 -0.89489418 1
4.17979 5.0131798 0.57104445 9
3.3845484 4.0579419 -0.83692449 1
4.2463441 5.0893917 0.81384355 1
3.9813826 4.7701335 -0.76290214 1
4.1053925 4.9169703 -0.56041139 2
4.0902562 4.8953629 -0.33432212 3
4.0614729 4.8591952 -0.11054354 14
4.0905514 4.8922448 1.7087234 10
2.2938364 2.7356272 -0.95659518 5
4.065248 4.8482108 0.11043882 16
2.5748632 3.0696909 -0.9249987 2
2.9699988 3.5382533 -0.89794719 1
4.1921377 4.9924569 0.57034713 9
3.3522573 3.9922352 -0.82566124 1
4.2631969 5.0752826 0.81384355 1
4.0431523 4.8116174 -0.77167672 1
4.1302257 4.9117584 -0.56145728 2
4.1038976 4.8787146 -0.33411276 1
4.1492391 4.9291282 -0.11246331 2
4.1076045 4.8779349 1.7087234 10
2.3100817 2.7345798 -0.95918339 5
4.2503357 5.0295968 0.11494155 2
2.5790818 3.0508533 -0.92229939 2
4.2254028 4.998323 0.34300989 3
2.9829481 3.5273433 -0.89794719 1
4.2207012 4.9892282 0.5717417 6
3.3956344 4.0125084 -0.83254427 1
4.0154128 4.7415228 -0.76290214 1
4.1354527 4.8746338 1.7128645 10
2.3146055 2.7206142 -0.95711285 5
4.2929082 5.0459342 0.11563965 2
2.5929747 3.046735 -0.92364907 2
4.2402363 4.9805002 0.34280053 1
3.0105171 3.5348454 -0.90252656 1
4.2484298 4.9865966 0.57313615 3
3.4166093 4.0102468 -0.83442152 1
4.0130849 4.7070317 -0.75948983 1
4.1474228 4.8542938 1.710794 12
2.3211007 2.70999 -0.95607764 5
4.3104944 5.0309196 0.11563965 2
2.61374 3.0495017 -0.92724824 2
4.2731953 4.9838648 0.34405661 1
3.0324452 3.536767 -0.90557957 1
4.2519698 4.9573584 0.57139301 1
3.4305878 3.9982951 -0.83442152 1
4.3169875 5.0296087 0.81384355 1
4.0475945 4.7140808 -0.76290214 1
4.1593032 4.8339286 1.7087234 10
2.3305469 2.7018704 -0.95607764 5
4.3019009 4.9855638 0.11494155 2
2.6180012 3.032984 -0.9249987 2
4.3010101 4.9810104 0.34489399 1
2.980619 3.4518621 -0.88649869 1
4.2731571 4.9470086 0.57191598 3
3.4341908 3.9743397 -0.8319186 1
4.0588331 4.6939163 -0.76192719 1
4.1786804 4.8223014 1.7097588 10
2.3450308 2.699553 -0.95814812 5
4.2405791 4.87995 0.11284725 2
2.631129 3.0267692 -0.92589855 2
4.3078852 4.9539108 0.34405661 1
3.0312972 3.4858811 -0.89794719 1
4.2812448 4.9215403 0.57069582 1
3.4739769 3.9921319 -0.83817595 1
4.2231727 4.84794 -0.56250316 2
4.1840043 4.7995977 -0.3336941 1
4.1776414 4.788919 -0.1109275 9
4.2056489 4.8193307 1.7138997 10
2.3544405 2.6913505 -0.95814812 5
4.174623 4.7703123 0.11064825 14
2.6314089 3.0058367 -0.92229939 2
4.3462062 4.9628825 0.34573138 1
3.0563819 3.4900472 -0.90176338 1
4.3089023 4.9185543 0.57209027 4
3.4722664 3.9621539 -0.83442152 1
4.0915036 4.6654663 -0.76192719 1
4.2295547 4.8211899 -0.56110865 2
4.2402635 4.8299904 -0.33683425 1
4.2365656 4.8223815 -0.11204445 2
4.2224469 4.8046203 1.7138997 10
2.3663743 2.6860149 -0.95918339 5
4.3538742 4.9402399 0.11494155 2
2.6470406 3.0024791 -0.92409897 2
4.3635044 4.9476805 0.34573138 1
3.0321863 3.4381285 -0.89107805 1
4.3286805 4.9064722 0.5724389 3
3.4860766 3.9500084 -0.83442152 1
4.3867941 4.9688416 0.81384355 1
4.0946226 4.6362772 -0.75948983 1
4.2391915 4.7898526 1.7138997 10
2.3667605 2.6676235 -0.95555997 4
4.4374628 4.9997911 0.11668679 2
2.6523309 2.9873915 -0.92229939 2
4.3807449 4.9324217 0.34573138 1
3.0676339 3.4539473 -0.89794719 1
4.3537221 4.9002681 0.57348478 1
3.489347 3.926003 -0.8319186 1
4.1107826 4.6219549 -0.75948983 1
4.2533164 4.7721405 1.7128645 8
2.3812072 2.6651075 -0.95763052 4
4.4095764 4.9335814 0.11550003 2
2.6705353 2.9868319 -0.9249987 2
4.4636407 4.9923115 0.35096496 1
3.0953782 3.460777 -0.90252656 1
4.3601737 4.8731613 0.57209027 1
3.484585 3.893193 -0.82753843 1
4.1268921 4.6075764 -0.75948983 1
4.2639561 4.7522588 1.710794 10
2.3930795 2.659652 -0.95866579 4
4.4553394 4.9516339 0.11626793 2
2.6660841 2.9620275 -0.92004979 2
3.0916719 3.4324472 -0.89794719 1
4.4064956 4.8904786 0.57592511 1
3.5186319 3.9050972 -0.83254427 1
4.1288528 4.5791259 -0.75705242 1
4.3012428 4.7602787 1.7190762 8
2.3889163 2.6373839 -0.95348942 5
4.3141575 4.7611918 0.11214916 2
2.685569 2.9628093 -0.92319912 2
4.4983826 4.96103 0.35096496 1
3.0951242 3.41345 -0.89565748 1
4.4789109 4.9378185 0.58324623 1
3.5216236 3.8810871 -0.83004135 1
4.1314683 4.5499883 -0.75461507 1
4.3210907 4.7554874 -0.56215453 2
4.2908406 4.7205367 -0.33432212 1
4.2869596 4.7129607 -0.11120673 9
4.3139315 4.7409501 1.7175232 8
2.4154966 2.6471603 -0.96021873 5
4.28088 4.6914477 0.11085769 14
2.7011495 2.9591746 -0.9249987 2
3.0917277 3.384686 -0.89107805 1
3.5758071 3.9118953 -0.83942741 1
4.1607227 4.5501876 -0.75705242 1
4.3376651 4.7403741 -0.56215453 2
4.3350887 4.7342391 -0.33641556 1
4.3195925 4.7156634 -0.1116256 2
4.320014 4.7144675 1.7133821 6
2.4168775 2.6301792 -0.95711285 5
2.6987872 2.9349091 -0.92049968 2
3.1141546 3.3854346 -0.894131 1
3.5680358 3.8761344 -0.83442152 1
4.177371 4.5349083 -0.75705242 1
4.3338232 4.6965203 1.7123468 6
2.4181719 2.6132185 -0.95400703 5
2.7217424 2.9402449 -0.9249987 2
4.5500879 4.9136505 0.35096496 1
3.1259537 3.3745427 -0.894131 1
4.4960179 4.8518572 0.57871413 1
3.5620737 3.8439953 -0.83004135 1
4.205883 4.5355868 -0.75948983 1
4.3607106 4.6926861 1.716488 8
2.4294589 2.6080115 -0.9550423 5
2.720031 2.9178967 -0.92094964 2
3.1639066 3.392874 -0.90176338 1
4.5202336 4.8456655 0.57976002 1
3.5754693 3.8315387 -0.83004135 1
4.2325273 4.5324855 -0.76143968 1
4.3823452 4.6830769 1.7185585 6
2.4557295 2.6178322 -0.96177161 5
2.7368679 2.9154887 -0.92319912 2
4.5022483 4.7944088 0.34468466 35
3.17573 3.3818099 -0.90176338 1
4.4975619 4.7877436 0.57470495 28
3.5888212 3.8190353 -0.83004135 1
4.5072279 4.7946787 0.80799377 1
4.2211261 4.4887605 -0.75656492 1
4.4881868 4.7710857 1.0374736 2
4.3986645 4.6677523 1.7185585 14
2.4436271 2.5867743 -0.95348942 4
2.7523825 2.9115827 -0.9249987 2
3.1632354 3.345027 -0.89489418 1
3.6238537 3.8294423 -0.8350473 1
4.4898214 4.7428751 0.80190039 3
4.2531495 4.4912939 -0.75948983 1
4.4640579 4.7123685 1.0280875 2
4.4353638 4.6820784 -0.5642463 2
4.4658413 4.7125993 1.2620108 2
4.4189892 4.6615281 -0.33662489 1
4.3695822 4.6061888 -0.11082278 7
4.4003048 4.6369538 1.7128645 4
2.4553041 2.5810287 -0.9545247 5
4.3837042 4.6065626 0.1109973 11
2.7571552 2.8963108 -0.92319912 2
4.5356097 4.7628603 0.34468466 68
3.2046778 3.3652437 -0.90328985 1
4.4992695 4.7230487 0.57069582 55
3.6153958 3.7938879 -0.83004135 1
4.4077291 4.623723 0.78435117 4
4.2687998 4.4764214 -0.75948983 1
4.3727641 4.5838394 1.0033708 5
4.4214258 4.63485 -0.56041139 4
4.3657002 4.5748358 1.2291917 5
4.422821 4.6330733 -0.33568287 5
4.3578892 4.5634599 1.4567831 3
4.4215493 4.6285019 -0.11173031 14
4.3350472 4.5363698 1.6812886 7
2.4669709 2.575233 -0.95555997 4
4.4177451 4.6100006 0.11145107 16
2.7672477 2.8866694 -0.92319912 2
4.4319386 4.6215854 0.33557817 12
3.1837919 3.3200295 -0.894131 1
4.4150434 4.602355 0.55797106 13
3.6395595 3.7926455 -0.83254427 1
4.4018459 4.5853968 0.78045136 11
4.3778992 4.5588546 -0.7760641 1
4.3764229 4.5557256 1.0005549 9
4.4610438 4.6438136 -0.5633747 6
4.3680382 4.5454135 1.2253754 13
4.4514251 4.6305642 -0.33662489 7
4.3724422 4.5468144 1.4563332 7
4.4459939 4.6216893 -0.11193974 16
4.3575549 4.5281692 1.6838769 8
2.4772873 2.5679955 -0.95607764 5
4.4365845 4.5974326 0.11152088 16
2.7813685 2.8811977 -0.9245488 2
4.4452705 4.6032128 0.33536884 12
3.2090006 3.3230176 -0.89794719 1
4.4296937 4.5854855 0.55779672 13
3.641794 3.7685549 -0.83004135 1
4.4136872 4.565721 0.77972013 12
4.4158616 4.56638 -0.77996385 3
4.403285 4.5517802 1.0030578 12
4.4841518 4.6353741 -0.5642463 6
4.3770528 4.5230832 1.2234674 11
4.4717302 4.6193013 -0.33693892 8
4.39642 4.5399246 1.4590325 9
4.4676661 4.6118855 -0.11207936 16
4.37468 4.5143166 1.6843945 6
2.4970043 2.5704184 -0.96021873 5
4.4553938 4.5847855 0.11159069 14
2.7819011 2.8616896 -0.92139953 2
4.4585252 4.5848045 0.33515951 10
3.1932054 3.2836468 -0.89031488 1
4.4609566 4.5857034 0.5597142 12
3.67697 3.7784698 -0.8350473 1
4.4337506 4.5545549 0.78045136 9
4.4096169 4.528182 -0.7760641 1
4.4260402 4.5434556 1.0046222 7
4.505867 4.6254005 -0.56494349 4
4.4270682 4.5429292 1.2330078 5
4.4934006 4.6093874 -0.33735761 3
4.4462552 4.5594287 1.4702801 2
4.4921145 4.6048517 -0.11228879 4
4.4551716 4.5653868 1.709241 6
2.4965057 2.5520191 -0.95659518 5
2.7986875 2.8589263 -0.92364907 2
4.6463847 4.7447314 0.34803414 1
3.207396 3.2752848 -0.89107805 1
4.6191516 4.7152758 0.57749397 3
3.6569524 3.7317536 -0.82753843 1
4.6288862 4.7219152 0.81189364 1
4.3447843 4.4305563 -0.76192719 1
4.623086 4.7127109 1.0456082 2
4.5776591 4.6647696 1.2704064 2
4.5144114 4.5938993 1.7258054 6
2.5026879 2.5405362 -0.95555997 4
2.8018103 2.8421998 -0.92139953 2
4.66292 4.7284827 0.34803414 1
3.2132962 3.2584767 -0.88955158 1
4.6313844 4.694869 0.57697099 1
3.7032573 3.7527096 -0.8350473 1
4.6369748 4.6972508 0.81043118 1
4.3295355 4.3842893 -0.75656492 1
4.6256275 4.6824903 1.0424794 2
4.5296454 4.5853286 -0.56389767 2
4.5994349 4.6543469 1.2719328 2
4.5072174 4.5594406 -0.33599687 1
4.4875908 4.5364146 -0.11138126 4
4.510036 4.5575171 1.7180409 4
2.5101783 2.5304146 -0.9550423 5
4.4862595 4.5208435 0.11117183 7
2.8268156 2.8476157 -0.92634839 2
4.7187991 4.751862 0.35096496 1
3.2440155 3.2667451 -0.89489418 1
4.678637 4.7097692 0.5808059 1
3.6829176 3.7061305 -0.82753843 1
4.6729331 4.7007494 0.81384355 1
4.3448148 4.3691483 -0.75656492 1
4.6475177 4.6719155 1.0437309 2
4.5568662 4.5807881 -0.56529218 2
4.6239595 4.646616 1.2742226 2
4.5653791 4.586143 -0.33913705 1
4.5386772 4.5561428 -0.11225387 2
4.5340996 4.5499549 1.7211467 4
2.5258234 2.5284703 -0.95763052 5
2.822962 2.8239481 -0.92184937 2
3.266506 3.2665069 -0.89794719 1
3.7070093 3.7044232 -0.83004135 1
4.3909411 4.3848162 -0.76192719 1
4.5609035 4.5450087 1.7252878 6
2.5387435 2.5237246 -0.95918339 5
2.8341858 2.81545 -0.92229939 2
3.2472398 3.2246511 -0.88955158 1
3.7423532 3.7137229 -0.8350473 1
4.4118571 4.3750539 -0.76290214 1
4.5849786 4.5372143 1.7283937 4
2.5420389 2.5094178 -0.95711285 5
2.8412209 2.802803 -0.92139953 2
3.2696607 3.224324 -0.89260459 1
3.760921 3.7061839 -0.83629876 1
4.4073014 4.340126 -0.75948983 1
4.6062994 4.5265994 1.7304642 4
2.5466449 2.4964714 -0.95555997 5
2.8649075 2.8065059 -0.92589855 2
3.2893124 3.2211313 -0.89489418 1
3.773834 3.6930342 -0.83629876 1
4.4224234 4.3247161 -0.75948983 1
4.6027145 4.4916048 1.7232174 4
2.5511904 2.4835248 -0.95400703 5
2.8663049 2.788336 -0.92319912 2
3.3117957 3.2205808 -0.89794719 1
3.7583702 3.6523039 -0.83004135 1
4.4374938 4.3092518 -0.75948983 1
4.6246805 4.4894605 -0.56389767 2
4.6561909 4.5168934 -0.3399744 1
4.6081085 4.4686894 -0.11204445 2
4.6259079 4.4843831 1.7263231 4
2.5653994 2.4799757 -0.95607764 5
4.6036205 4.4503274 0.11176521 5
2.8769379 2.780169 -0.92364907 2
3.2975974 3.1844516 -0.89107805 1
3.7590907 3.6288457 -0.82753843 1
4.4660478 4.3082933 -0.76192719 1
4.6776175 4.5092435 -0.56842977 2
4.6884027 4.5180578 -0.34123048 1
4.6553674 4.4830937 -0.11281236 2
4.640142 4.466867 1.7258054 4
2.5833635 2.4808209 -0.95970106 5
2.8725648 2.7566156 -0.91914994 2
3.3506415 3.214272 -0.90252656 1
3.7974036 3.6403069 -0.83317006 1
4.4380517 4.2514844 -0.75461507 1
4.6647015 4.4608026 1.7294289 4
2.5975993 2.4771214 -0.96177161 4
2.8972054 2.7618663 -0.92409897 2
3.3106663 3.1538081 -0.88878828 1
3.8094537 3.6276948 -0.83317006 1
4.5096478 4.291481 -0.7643646 1
4.6914501 4.4551358 1.7335701 4
2.5917742 2.4552085 -0.95659518 5
2.9096599 2.754415 -0.9249987 2
5.1078377 4.8336248 0.36854982 1
3.3439217 3.1644039 -0.89489418 1
3.8077416 3.6008017 -0.83004135 1
5.1052036 4.8260674 0.86259133 1
4.515945 4.2675309 -0.76290214 1
4.6971364 4.4294538 1.7299466 4
2.5979404 2.4430466 -0.95555997 4
2.9135766 2.7389033 -0.92319912 2
5.0999379 4.7925124 0.36677042 3
3.3526351 3.1494389 -0.894131 1
5.0804577 4.7708683 0.60974157 9
3.8209128 3.5868223 -0.83004135 1
5.064127 4.7538705 0.85284173 4
4.4931788 4.2164226 -0.75656492 1
5.0453148 4.7328987 1.0956671 2
5.0303202 4.715528 1.3402424 6
5.0317397 4.7135649 1.5917536 2
4.7097502 4.4103885 1.7289113 4
2.6078651 2.435281 -0.95607764 5
2.9264445 2.7308657 -0.92409897 2
5.1043239 4.761528 0.36582837 1
3.3779652 3.1511078 -0.89794719 1
5.0897961 4.7463102 0.60887003 4
3.8478587 3.5869334 -0.83317006 1
5.0698977 4.724452 0.85089183 3
4.5086017 4.1999269 -0.75656492 1
5.0568447 4.7089915 1.0944157 2
4.7664933 4.4386134 -0.56982422 2
5.0223179 4.6752033 1.3337549 4
4.743145 4.4137764 -0.33955571 1
5.0438833 4.6919889 1.5904039 2
4.7036104 4.373929 -0.11211426 2
4.7287121 4.3957281 1.7299466 4
2.6177669 2.4274757 -0.95659518 4
4.7016759 4.3583794 0.11190483 5
2.9331012 2.717984 -0.92319912 2
5.1443582 4.7653971 0.36750311 1
3.3630197 3.1152813 -0.89107805 1
5.1121769 4.7339325 0.60956728 3
3.8690548 3.5815303 -0.8350473 1
5.1184134 4.7363858 0.8562541 1
4.5611215 4.2192121 -0.76290214 1
5.1225634 4.7369084 1.1050532 2
5.0717664 4.6882935 1.3425322 2
4.7834926 4.4171739 -0.11365007 2
4.7553821 4.389679 1.7340877 4
2.627645 2.4196324 -0.95711285 5
2.9425714 2.7077284 -0.92319912 2
10.214615 9.3961163 0.7273652 2
3.3883219 3.1168151 -0.89489418 1
10.186946 9.367382 1.2107675 5
3.8902597 3.5760231 -0.83692449 1
10.154355 9.3308744 1.6932528 2
4.5553541 4.1844654 -0.75948983 1
10.173377 9.3417969 2.1875796 6
10.108222 9.2787256 2.6671283 2
10.091283 9.2566795 3.1614621 2
4.7678266 4.3704429 1.7330524 4
2.621819 2.3974082 -0.95193648 5
2.9563205 2.7013848 -0.9245488 2
10.26505 9.376564 0.72862124 2
3.4832559 3.1817646 -0.91702807 1
10.206344 9.3196726 1.2091987 3
3.8939643 3.5544322 -0.8350473 1
10.195665 9.3033981 1.6947153 2
4.5992661 4.1952934 -0.7643646 1
10.194244 9.2955828 2.1850767 6
10.140552 9.2433825 2.6671283 2
4.785912 4.3563728 1.7340877 4
2.6344619 2.3921385 -0.95348942 5
2.9570725 2.6831923 -0.92184937 2
10.284252 9.3317385 0.72778392 2
3.4216325 3.1036365 -0.89794719 1
10.253571 9.2973747 1.2109419 3
3.8829293 3.5195923 -0.83004135 1
10.231022 9.2704153 1.6952027 2
4.6050534 4.1712184 -0.76290214 1
10.248437 9.2829475 2.1900828 6
10.175669 9.2105618 2.6678915 2
4.7974672 4.3378859 1.7330524 4
2.655709 2.3945699 -0.95814812 5
2.961612 2.6694565 -0.92049968 2
10.862795 9.7877808 0.76630318 3
3.4324462 3.0916731 -0.89794719 1
10.300771 9.2748547 1.212685 1
3.8945804 3.5066955 -0.83004135 1
10.792861 9.7145338 1.7829487 3
4.6277161 4.1638899 -0.7643646 1
10.788945 9.7041855 2.2983353 6
10.737554 9.6545811 2.8068006 2
4.8255162 4.3327303 1.7377111 4
2.6607566 2.383173 -0.95711285 5
4.9044013 4.3912072 0.11490664 2
2.979624 2.6669009 -0.92319912 2
10.938573 9.7870893 0.769234 3
3.5158341 3.1457286 -0.91702807 1
10.894301 9.7440548 1.2787491 12
3.9067965 3.4930804 -0.83004135 1
10.859269 9.7059002 1.7883109 12
4.6333394 4.1397758 -0.76290214 1
10.872843 9.7112083 2.3089728 6
4.8569179 4.3364902 -0.56964993 2
10.801945 9.6444969 2.8148146 12
4.8427262 4.3223004 -0.34018376 1
10.790863 9.6278343 3.3387237 5
4.8217893 4.3005905 -0.11277745 4
4.8391685 4.3145747 1.7371935 4
2.6680293 2.3721218 -0.95659518 4
4.8180776 4.283711 0.11253312 5
2.9860029 2.6538939 -0.92229939 2
4.9659963 4.412118 0.34813881 5
3.439266 3.0545993 -0.894131 1
4.9509549 4.3956628 0.57923704 6
3.9491224 3.504962 -0.83629876 1
4.935071 4.3800201 0.81018746 3
4.6269722 4.1051345 -0.75948983 1
4.9346066 4.3765297 1.0446695 5
4.9117169 4.3531709 1.275749 4
4.9002566 4.3399568 1.5112212 2
4.8556447 4.2989383 1.7377111 4
2.6791904 2.3653507 -0.95763052 4
3.0088611 2.6545353 -0.92634839 2
4.9626603 4.3767142 0.34677809 5
3.4292941 3.024394 -0.88878828 1
4.9498281 4.363862 0.57731962 9
3.943548 3.4754832 -0.83254427 1
4.9421535 4.3540306 0.808725 4
4.6419883 4.0881467 -0.75948983 1
4.9179945 4.3296986 1.0377864 5
4.9091983 4.3204341 1.2711695 6
4.9080582 4.3163915 1.5089717 4
4.8641167 4.2747331 1.735123 4
2.6816194 2.3508906 -0.95555997 4
2.9902592 2.6196175 -0.91780037 2
4.9914298 4.3712082 0.34772015 5
3.4930003 3.0589695 -0.90252656 1
4.980021 4.3596816 0.57906276 9
3.9437647 3.4512882 -0.83004135 1
4.9647937 4.343287 0.80994374 4
4.6771498 4.0902143 -0.76290214 1
4.9479518 4.3255053 1.040915 5
4.9331203 4.3110213 1.2734593 6
4.9377747 4.3120499 1.5134706 4
4.8906498 4.2678924 1.739264 4
2.692724 2.3440518 -0.95659518 4
3.0214374 2.6283505 -0.9245488 2
5.3548036 4.6565013 0.37189934 1
5.2884264 4.5971594 0.6130535 1
3.9319284 3.4167726 -0.82503545 1
5.2436805 4.5550504 0.85284173 1
4.6913996 4.0738616 -0.76290214 1
5.244956 4.5529513 1.1000473 2
5.1972499 4.5099444 1.3375711 2
4.9113588 4.2558541 1.7413346 4
2.7096598 2.3422174 -0.95970106 5
3.0202711 2.6088698 -0.92139953 2
5.3574209 4.6260319 0.37095729 3
3.514272 3.0345075 -0.90252656 1
5.352704 4.6203322 0.61863148 5
3.9677615 3.4236732 -0.83004135 1
5.3332043 4.6002493 0.8647849 3
4.6845431 4.0393133 -0.75948983 1
5.3027124 4.5707254 1.1088076 2
5.2828646 4.5520058 1.3555073 2
4.9291124 4.2412057 1.7423699 4
2.70609 2.322681 -0.95555997 4
4.9322968 4.2319717 0.11344065 2
3.0308392 2.5995791 -0.92184937 2
5.3659525 4.6008067 0.37043396 1
3.4801285 2.9838877 -0.89107805 1
5.3778768 4.6093979 0.61967731 7
4.0036902 3.4303656 -0.8350473 1
5.3688269 4.5983958 0.86795354 4
4.6986156 4.0229359 -0.75948983 1
5.3381462 4.5688844 1.1128749 5
4.9799709 4.2623243 -0.57348478 2
5.3091612 4.5424757 1.3581785 4
4.9784551 4.258018 -0.34332392 1
4.9130483 4.199111 -0.11281236 2
4.9453568 4.2252278 1.7428875 4
2.7053599 2.3057015 -0.95245409 4
4.9470406 4.2147274 0.11344065 2
3.0443454 2.5927749 -0.92319912 2
3.4845443 2.9666297 -0.88955158 1
4.0066118 3.40869 -0.83317006 1
4.7489285 4.0373673 -0.76533955 1
4.9615498 4.209188 1.7434052 4
2.7310877 2.3112199 -0.95866579 4
3.05933 2.5871651 -0.9249987 2
3.602828 3.0457065 -0.91702807 1
4.003397 3.3819349 -0.83004135 1
4.8024287 4.0540624 -0.77167672 1
4.9732566 4.1893554 1.7423699 4
2.7302651 2.2942152 -0.95555997 5
3.0504332 2.5614331 -0.91959995 2
4.0303116 3.3806357 -0.83317006 1
4.7617836 3.9913654 -0.76290214 1
5.002667 4.1843648 1.7475463 4
2.7441909 2.2896204 -0.95763052 4
3.0683355 2.5582578 -0.92229939 2
4.0511942 3.3741326 -0.8350473 1
4.739068 3.9442434 -0.75705242 1
5.0269179 4.176393 1.7511697 4
2.7521658 2.2800281 -0.95763052 5
3.076803 2.5480678 -0.92229939 2
4.0501852 3.350605 -0.83254427 1
4.7888417 3.9588606 -0.76290214 1
5.021884 4.1441417 -0.11365007 2
5.0459356 4.162509 1.7527226 4
2.7567275 2.2684345 -0.95659518 4
5.0067668 4.118464 0.1131614 2
3.0886896 2.5397868 -0.92319912 2
3.5686474 2.9334087 -0.89794719 1
4.0893335 3.3590152 -0.83817595 1
4.8026323 3.9421189 -0.76290214 1
5.0612564 4.152926 -0.57278752 2
5.0967016 4.1790338 -0.34541735 1
5.0363183 4.1265874 -0.11365007 2
5.0514688 4.1375241 1.7496167 4
2.7676218 2.2612419 -0.95763052 4
5.0985494 4.1642103 0.11490664 2
3.1050835 2.5351527 -0.92544866 2
3.6001596 2.9383118 -0.90328985 1
4.0857248 3.3322361 -0.8350473 1
4.8317509 3.9378726 -0.76533955 1
5.0658803 4.1198668 1.7496167 4
2.7844992 2.2588701 -0.96073633 4
3.1002901 2.513253 -0.92139953 2
3.6073427 2.9232554 -0.90252656 1
4.0850511 3.3080075 -0.83254427 1
4.8077517 3.8918536 -0.75948983 1
5.105063 4.1236806 1.7584167 4
2.7799397 2.2399278 -0.95659518 4
3.1086068 2.5029588 -0.92139953 2
4.0836835 3.2845392 -0.83004135 1
4.842289 3.8933041 -0.76290214 1
5.1096659 4.0994787 1.7553109 4
2.787353 2.2306962 -0.95659518 4
3.1260219 2.4999385 -0.92409897 2
3.6297185 2.9017184 -0.90328985 1
4.1069007 3.2808416 -0.83254427 1
4.8651595 3.8838072 -0.7643646 1
5.1390567 4.0936532 1.7604873 4
2.8045862 2.227675 -0.95970106 4
3.1286232 2.4841664 -0.92229939 2
3.618799 2.8713105 -0.89794719 1
4.1312804 3.2755861 -0.8350473 1
4.8320165 3.829809 -0.75705242 1
5.2009759 4.1192875 -0.58045721 2
5.2213907 4.1324954 -0.34897619 1
5.1406631 4.0671401 -0.11441798 2
5.1714983 4.0900688 1.7666988 2
2.7971766 2.2059081 -0.9545247 4
5.1100645 4.0284505 0.11358026 2
3.1484206 2.4811268 -0.92544866 2
3.6072083 2.8416533 -0.89260459 1
4.1582084 3.2733669 -0.83817595 1
4.8616223 3.824347 -0.75948983 1
5.184001 4.0764747 -0.57697099 2
5.1674109 4.059052 -0.11469722 2
5.16751 4.0576763 1.7604873 2
2.817029 2.205658 -0.95866579 4
3.1458898 2.4622641 -0.92229939 2
5.3655114 4.1980352 0.35703593 1
3.7160778 2.9064519 -0.91702807 1
5.3240685 4.1626148 0.59126455 3
4.1285801 3.2279241 -0.83004135 1
5.3788037 4.203897 0.83821738 1
4.8899217 3.8204246 -0.76192719 1
5.318131 4.1534882 1.0687604 2
5.3094277 4.1451993 1.3093314 2
5.257822 4.0990009 1.7863692 2
2.819752 2.1927469 -0.95711285 3
3.1513884 2.4488754 -0.92139953 2
5.3675156 4.169477 0.35619855 1
3.6946862 2.8700264 -0.90939575 1
5.3409915 4.1473794 0.59161317 4
4.1741529 3.24014 -0.83692449 1
5.3213038 4.1291146 0.82700545 1
4.8875413 3.7911663 -0.75948983 1
5.326354 4.1300559 1.0675089 2
5.2974873 4.1061921 1.3028439 2
2.8323574 2.1859391 -0.95866579 4
3.1660898 2.4426208 -0.92319912 2
5.36622 4.1385193 0.35515183 1
3.6305475 2.798929 -0.89107805 1
5.3703604 4.13872 0.59318197 3
4.1828704 3.222409 -0.83629876 1
5.3765702 4.142014 0.83334261 1
4.900744 3.7740834 -0.75948983 1
5.3376088 4.1090269 1.0668832 2
5.3265052 4.0975227 1.3062785 2
2.8307693 2.1689894 -0.95555997 4
3.1904933 2.4428477 -0.92769814 2
5.5074987 4.2168965 0.36352557 1
3.6434145 2.7886248 -0.89184129 1
5.4322448 4.1562705 0.59841132 3
4.2097845 3.2197878 -0.83942741 1
5.4358721 4.1560383 0.84016734 1
4.9934049 3.816366 -0.77167672 1
5.3833075 4.1143613 1.0731405 2
5.3688622 4.1003528 1.3131475 2
2.8460114 2.1649423 -0.95814812 4
5.3682985 4.0836296 0.11773393 5
3.1923716 2.427537 -0.92589855 2
5.6684675 4.3088436 0.37315539 1
3.6374938 2.7640126 -0.8880251 1
5.6291752 4.2758765 0.61845714 3
4.1984158 3.1890829 -0.8350473 1
5.6172066 4.2652392 0.86600363 1
5.0060325 3.799787 -0.77167672 1
5.6242423 4.2674875 1.1181936 2
5.2861042 4.0094619 -0.58045721 2
5.5982914 4.2462535 1.3658109 2
5.3060884 4.0231657 -0.34897619 1
5.2597775 3.9851573 -0.11518589 2
5.3391786 4.0438542 1.7946514 2
2.8454688 2.1496696 -0.95555997 4
5.2389026 3.9564037 0.11459251 2
3.1914933 2.4093342 -0.92319912 2
5.6189628 4.2418885 0.36896852 1
3.6717141 2.7708559 -0.894131 1
5.5653868 4.19839 0.60991585 1
4.2000585 3.167273 -0.83317006 1
5.5845075 4.2097564 0.85869151 1
4.9399981 3.7225554 -0.75948983 1
5.5721049 4.1988816 1.1050532 2
5.5189776 4.1558285 1.3429137 2
5.4423347 4.0951443 -0.11888579 2
5.3077884 3.9924488 1.7796398 6
2.8730459 2.1547928 -0.96228927 4
5.4279661 4.0709906 0.11843203 2
3.1963477 2.396399 -0.92229939 2
3.678221 2.7556689 -0.89336777 1
5.366312 4.0188994 0.58655816 1
4.1852412 3.1343803 -0.82816416 1
4.9682083 3.7180483 -0.76192719 1
5.403244 4.0421448 1.0687604 2
5.3094692 3.970547 1.2887239 2
5.4053321 4.0378242 -0.11776884 2
5.2829962 3.9449983 1.7666988 2
2.8600352 2.1302512 -0.95555997 4
5.3908162 4.013804 0.11731508 2
3.2218897 2.3980248 -0.92724824 2
5.3407822 3.9736497 0.34887153 1
3.6605628 2.7235327 -0.88688028 1
5.2964768 3.9392538 0.57749397 1
4.2405443 3.1527519 -0.83692449 1
5.3198743 3.9537683 0.81384355 1
4.9652205 3.6888459 -0.75948983 1
5.2587357 3.9054813 1.0374736 2
5.3591037 3.9785702 -0.58394349 2
5.2507858 3.8981559 1.2711695 2
5.3408189 3.9635539 -0.3485575 1
5.3246279 3.9486525 -0.11570945 4
5.2501736 3.8920226 1.7511697 2
2.8709302 2.1220515 -0.95659518 4
5.3179588 3.9307754 0.11543022 5
3.2365081 2.391398 -0.92904782 2
5.3096361 3.9217589 0.34594071 3
3.6736789 2.712431 -0.88764352 1
5.2900405 3.9044323 0.57522792 4
4.2298164 3.1207702 -0.83254427 1
5.274539 3.8915694 0.80482519 3
5.0036292 3.6903427 -0.76338965 1
5.2675672 3.8835826 1.0365349 5
5.3505044 3.9432919 -0.58150309 4
5.2460704 3.8649123 1.2665902 4
5.3713951 3.9557922 -0.34960422 1
5.24472 3.8610935 1.5035729 4
5.3254952 3.9205589 -0.11543022 4
5.2123823 3.8358846 1.7340877 4
2.8876648 2.118875 -0.95970106 4
5.3420038 3.9183555 0.11563965 5
3.232681 2.3702989 -0.92544866 2
5.3361797 3.9126472 0.34677809 8
3.6926243 2.7065549 -0.88993317 1
5.3132796 3.8930097 0.5762738 9
4.2279358 3.0966475 -0.83004135 1
5.306385 3.8851116 0.80750632 8
4.9914904 3.6532216 -0.75948983 1
5.2779002 3.8628421 1.0359092 7
5.3642373 3.9245896 -0.58150309 2
5.2642851 3.8500519 1.2677351 10
5.4012914 3.9488094 -0.35065094 1
5.2691803 3.8508101 1.5067222 8
5.3439922 3.9054842 -0.11553493 2
5.236661 3.8256423 1.7377111 8
2.8981669 2.1110561 -0.96073633 4
5.3291073 3.8817794 0.11508117 2
3.2326458 2.3538311 -0.92319912 2
5.3401136 3.8869483 0.34615004 14
3.6893506 2.6844075 -0.88688028 1
5.3155584 3.8662336 0.57505357 16
4.2509608 3.0919063 -0.83254427 1
5.3096046 3.8604908 0.80604392 14
5.1416745 3.7370169 -0.78045136 1
5.2817645 3.8374271 1.0340319 7
5.3682289 3.8988199 -0.58045721 31
5.2754316 3.8314235 1.2673534 36
5.3480921 3.8827658 -0.3463594 19
5.2771888 3.8298826 1.5053725 16
5.3284545 3.8656728 -0.11490664 21
5.2484183 3.8062067 1.7371935 24
2.9051511 2.1014345 -0.96073633 4
5.3166986 3.8444049 0.11452269 30
3.2471597 2.3470998 -0.9249987 2
5.2995582 3.8306067 0.34269586 24
3.7045963 2.6767581 -0.88840669 1
5.2976637 3.8264191 0.5717417 42
4.2489152 3.0677989 -0.83004135 1
5.2908568 3.8186965 0.80116916 17
5.1772265 3.7353055 -0.78386366 1
5.2736363 3.8048642 1.0299646 25
5.3504262 3.8588512 -0.57714534 54
5.255332 3.788873 1.2593395 46
5.3437905 3.8512273 -0.34520799 57
5.2478333 3.7806842 1.4932251 46
5.3282652 3.8386295 -0.11462741 68
5.2186847 3.758301 1.7232174 58
2.9030542 2.0845196 -0.95763052 4
5.3229198 3.822089 0.11438307 80
3.2549248 2.3363194 -0.9249987 2
5.3177667 3.8155758 0.34300989 80
3.7075372 2.6592326 -0.88688028 1
5.3061275 3.8044236 0.57121873 88
4.3072257 3.0882239 -0.83942741 1
5.2889705 3.7907212 0.79897547 56
5.1573105 3.6949954 -0.7789889 1
5.2692175 3.7737842 1.0265231 77
5.3671045 3.8424697 -0.57749397 81
5.2662721 3.7702806 1.2589579 88
5.3516593 3.8299992 -0.34489399 52
5.2571712 3.7609942 1.4923253 82
5.3416333 3.8200057 -0.11462741 95
5.2349153 3.7423069 1.7242525 92
2.9150317 2.0777378 -0.95918339 5
5.3450351 3.8083565 0.11455759 97
3.257117 2.3198507 -0.92319912 2
5.3317151 3.7960608 0.34300989 70
3.7295907 2.6553845 -0.88993317 1
5.3096366 3.7789457 0.57017285 78
4.3056412 3.0632524 -0.83692449 1
5.3125343 3.7782147 0.80043793 61
5.1481671 3.6599662 -0.77557659 1
5.2910671 3.760164 1.0280875 85
5.3804855 3.8237102 -0.57749397 87
5.2816548 3.7520916 1.2593395 100
5.3803158 3.8207679 -0.34583604 56
5.2725124 3.7428246 1.4927752 90
5.3621211 3.8050318 -0.11476702 100
5.2501717 3.7242136 1.7247702 94
2.914382 2.06197 -0.95659518 4
5.3533969 3.7862129 0.11445288 100
3.2651947 2.3084679 -0.92319912 2
5.348196 3.7797303 0.34321922 70
3.726012 2.6332843 -0.88688028 1
5.3309312 3.7661378 0.57104445 81
4.3163056 3.0482073 -0.83692449 1
5.3289347 3.7619359 0.80092543 61
5.1349602 3.6236618 -0.77167672 1
5.3138428 3.7485075 1.0299646 85
5.3937974 3.8049092 -0.57749397 76
5.2963252 3.734762 1.259721 100
5.3936214 3.8019621 -0.34583604 56
5.2887301 3.7266433 1.493675 90
5.3851805 3.7931993 -0.11497645 100
5.2662997 3.7080872 1.7258054 98
2.9247231 2.0540056 -0.95763052 4
5.3714919 3.7709482 0.11455759 97
3.2652578 2.2914584 -0.92094964 2
5.367897 3.7656281 0.34363794 70
3.7448237 2.6270278 -0.88916999 1
5.3538332 3.7543685 0.57209027 81
4.317215 3.0263174 -0.8350473 1
5.3420329 3.7433128 0.80092543 63
5.1053057 3.576103 -0.76533955 1
5.3366051 3.7367322 1.0318419 85
5.4266315 3.7997696 -0.57958567 85
5.3125458 3.7185047 1.2604843 100
5.4003129 3.778533 -0.34541735 56
5.3112869 3.7148619 1.4963745 88
5.4049425 3.7789629 -0.11511607 97
5.2918782 3.6985366 1.7299466 96
2.9350445 2.045994 -0.95866579 5
5.3911862 3.7567472 0.11469722 97
3.2876275 2.2900717 -0.9249987 2
5.3810077 3.7468688 0.34363794 68
3.7539701 2.6139405 -0.88916999 1
5.3816242 3.7458999 0.57365906 85
4.3504529 3.0270252 -0.83942741 1
5.3632164 3.7303088 0.80214405 60
5.1177583 3.558259 -0.76533955 1
5.3512378 3.7192101 1.0321548 87
5.4464059 3.7853537 -0.58028293 85
5.3335557 3.7055368 1.2623924 100
5.4298749 3.7710505 -0.34646407 56
5.3226204 3.6951892 1.4959245 92
5.4246731 3.764632 -0.11525569 100
5.3095188 3.6833439 1.7314996 100
2.9485235 2.0401323 -0.96073633 4
5.4190674 3.7481441 0.11501136 97
3.2827785 2.2697151 -0.92139953 2
5.3956981 3.729197 0.34374261 66
3.7566125 2.5963552 -0.88764352 1
5.3963056 3.7282252 0.57383341 85
5.4890327 3.790874 -1.0565585 1
5.3827381 3.7160773 0.803119 65
5.1072741 3.5245891 -0.76192719 1
5.3593106 3.6971419 1.0312161 80
5.4579468 3.7651863 -0.58010858 78
5.3577709 3.6946998 1.2650636 100
5.4528713 3.7588766 -0.34709209 59
5.338697 3.6787972 1.4968243 92
5.4344873 3.7434061 -0.11518589 100
5.327116 3.6680758 1.7330524 96
2.9492567 2.0254536 -0.95866579 4
5.4304705 3.7280722 0.11497645 100
3.3131757 2.27368 -0.92769814 2
5.4235048 3.7205093 0.34468466 68
3.7624142 2.5810058 -0.88688028 1
5.4076443 3.7082379 0.57365906 79
5.4924569 3.7649879 -1.0546813 1
5.4104142 3.707365 0.80531269 63
5.1850557 3.5516102 -0.77167672 1
5.3819637 3.685106 1.0330933 85
5.4694138 3.7449844 -0.5799343 76
5.3722548 3.6770852 1.2654454 100
5.4791465 3.7488403 -0.34792948 54
5.3675919 3.6711392 1.5013233 92
5.4508214 3.7266715 -0.11525569 100
5.338294 3.6483667 1.7325348 100
2.9563096 2.0151458 -0.95866579 4
5.446753 3.7113497 0.11504627 100
3.3082078 2.2533236 -0.92409897 2
5.4473686 3.7103729 0.34541735 66
3.7876291 2.5789049 -0.89069647 1
5.4238472 3.6915848 0.57400775 85
4.375381 2.9768562 -0.83817595 1
5.4233232 3.6884553 0.80531269 65
5.1974192 3.5334928 -0.77167672 1
5.4072208 3.6761272 1.0355963 85
5.4939876 3.7337103 -0.58115447 83
5.3785625 3.6538956 1.2639189 100
5.4921985 3.7296929 -0.34792948 56
5.38521 3.6556654 1.502673 90
5.4697685 3.7130666 -0.11539531 97
5.3631511 3.6393235 1.7366759 100
2.960125 2.0026495 -0.95763052 4
5.4590321 3.6932654 0.11504627 100
3.3092046 2.2379749 -0.92229939 2
5.4619427 3.6924524 0.34552202 73
3.7835946 2.556875 -0.88764352 1
5.4482579 3.6804349 0.57522792 84
5.5506935 3.7496326 -1.0609387 1
5.4355259 3.670449 0.80531269 60
5.2091093 3.5162368 -0.77167672 1
5.4232955 3.6594384 1.0362221 85
5.5135946 3.7189648 -0.58185172 76
5.3987885 3.6415272 1.2658269 100
5.5078473 3.7136936 -0.34813881 56
5.4037666 3.6421452 1.5044726 90
5.4943061 3.701771 -0.11563965 95
5.3790255 3.6227398 1.7377111 100
2.9731641 1.9971318 -0.95970106 5
5.4835124 3.6819892 0.1152906 92
3.3283234 2.2340114 -0.92544866 2
5.4781132 3.6755939 0.34573138 68
3.8050942 2.5530653 -0.89069647 1
5.4786353 3.6745541 0.57714534 85
5.5571861 3.7258325 -1.0596871 1
5.4598455 3.6591933 0.80701888 65
5.2213526 3.4980309 -0.77167672 1
5.4442439 3.6459799 1.0377864 87
5.5374846 3.7084227 -0.58307195 80
5.4179902 3.6270325 1.2673534 100
5.5274172 3.6988869 -0.3485575 59
5.4115882 3.620008 1.5031229 92
5.5105166 3.6847966 -0.11570945 95
5.4044886 3.6125286 1.7418523 100
2.9736879 1.9824541 -0.95763052 4
5.5029888 3.6672597 0.11543022 92
3.3279915 2.2169783 -0.92319912 2
5.494235 3.6586614 0.34594071 70
3.7992768 2.529973 -0.88726187 1
5.4847956 3.65099 0.57644808 79
4.3959346 2.9250789 -0.83629876 1
5.4758921 3.6423097 0.80750632 66
5.233532 3.4797821 -0.77167672 1
5.4569368 3.6269546 1.0377864 87
5.5570321 3.6934831 -0.58376914 80
5.4437008 3.6167881 1.2704064 100
5.5502791 3.6861985 -0.34918553 55
5.4290614 3.604331 1.5044726 90
5.5233464 3.6655374 -0.11570945 95
5.4235058 3.5979118 1.7439228 100
2.9789784 1.9709966 -0.95711285 4
5.5224252 3.6524448 0.11556984 92
3.3503408 2.2150199 -0.92724824 2
5.5169697 3.6460693 0.34656873 68
3.8293767 2.5307684 -0.89222288 1
5.4991665 3.6329243 0.57662237 88
4.4061189 2.9097149 -0.83629876 1
5.4968567 3.6286397 0.808725 65
5.3284879 3.5161629 -0.78386366 1
5.4745116 3.611146 1.038725 85
5.5682282 3.6729643 -0.5835948 83
5.4612107 3.6010048 1.2715513 98
5.5781188 3.6766984 -0.35012761 58
5.4530015 3.5928614 1.5076219 86
5.542789 3.6506331 -0.11584908 90
5.4344158 3.5778997 1.7434052 100
2.9906855 1.9637663 -0.95866579 4
5.5334702 3.6320469 0.11553493 90
3.3433867 2.1936922 -0.92319912 2
5.5430255 3.635551 0.34740612 68
3.848038 2.5238452 -0.89451259 1
5.5184798 3.6180751 0.57731962 82
4.4261613 2.900815 -0.83817595 1
5.5128098 3.6116068 0.80921251 61
5.3208022 3.4844897 -0.78093886 1
5.4953465 3.5974252 1.0402893 87
5.5876832 3.6578717 -0.58429211 83
5.4737468 3.5819209 1.2715513 96
5.5892477 3.6561098 -0.35002291 55
5.4801903 3.5834019 1.5116711 88
5.558845 3.6334522 -0.11591888 90
5.4484901 3.5599632 1.7439228 100
2.9910483 1.9490952 -0.95659518 4
5.5511408 3.6159849 0.11563965 92
3.3706212 2.194768 -0.92859799 2
5.5640521 3.6216259 0.34792948 75
3.8140445 2.4825511 -0.88459057 1
5.5511146 3.61183 0.57941139 88
4.442883 2.8896558 -0.83942741 1
